ply
format ascii 1.0
element vertex 846
property float x
property float y
property float z
property float nx
property float ny
property float nz
property uchar diffuse_red
property uchar diffuse_green
property uchar diffuse_blue
property uchar class
property uchar detection
end_header
0.7399 1.4149 -0.1734 0.344 -0.617 -0.707 74 66 81 0 0
0.7424 1.4150 -0.1734 0.198 -0.664 -0.721 64 54 65 0 0
0.7450 1.4164 -0.1735 0.305 -0.724 -0.619 47 39 46 0 0
0.7477 1.4179 -0.1737 0.377 -0.704 -0.602 49 47 59 0 0
0.7809 1.4462 -0.1767 0.704 -0.710 0.024 68 60 75 0 0
0.7835 1.4469 -0.1768 0.118 -0.993 0.030 65 74 102 0 0
0.7861 1.4478 -0.1769 -0.808 -0.589 0.021 93 113 146 0 0
0.8642 1.4975 -0.1821 0.519 -0.784 0.341 149 168 210 0 0
0.8828 1.5167 -0.1842 0.463 -0.748 0.475 146 165 208 0 0
0.9458 1.5758 -0.1907 0.639 -0.692 0.335 146 164 207 0 0
0.9490 1.5786 -0.1910 0.639 -0.692 0.335 144 164 206 0 0
0.9527 1.5837 -0.1915 0.733 -0.679 0.040 145 164 206 0 0
0.9560 1.5870 -0.1919 0.771 -0.634 -0.059 145 163 205 0 0
0.9596 1.5913 -0.1924 0.771 -0.634 -0.059 144 161 204 0 0
0.9630 1.5952 -0.1928 0.680 -0.732 0.033 142 159 202 0 0
0.9663 1.5981 -0.1931 0.711 -0.701 -0.055 142 158 201 0 0
0.9696 1.6013 -0.1935 0.753 -0.656 0.058 142 159 202 0 0
0.9731 1.6053 -0.1939 0.753 -0.656 0.058 142 161 203 0 0
0.9766 1.6094 -0.1944 0.794 -0.604 -0.071 143 164 206 0 0
0.9801 1.6129 -0.1948 0.753 -0.658 0.014 142 162 204 0 0
0.9836 1.6170 -0.1952 0.760 -0.650 -0.015 141 159 201 0 0
0.9872 1.6212 -0.1957 0.761 -0.647 0.037 141 159 201 0 0
0.9908 1.6254 -0.1962 0.761 -0.647 0.037 141 158 201 0 0
0.9937 1.6262 -0.1962 0.650 -0.743 0.162 141 158 201 0 0
0.9974 1.6309 -0.1968 0.657 -0.752 -0.049 141 160 200 0 0
1.0008 1.6338 -0.1971 0.657 -0.752 -0.049 139 158 198 0 0
1.0041 1.6368 -0.1974 0.657 -0.752 -0.049 138 156 198 0 0
1.0075 1.6397 -0.1977 0.657 -0.752 -0.049 137 156 197 0 0
1.0109 1.6428 -0.1980 0.670 -0.742 0.012 136 154 195 0 0
1.0142 1.6457 -0.1984 0.680 -0.732 0.040 138 153 193 0 0
1.0174 1.6476 -0.1986 0.568 -0.821 0.057 139 154 194 0 0
1.0204 1.6490 -0.1987 0.586 -0.803 0.110 139 155 195 0 0
1.0245 1.6551 -0.1994 0.670 -0.742 0.012 139 157 199 0 0
1.0267 1.6529 -0.1991 0.745 -0.625 0.231 141 159 200 0 0
1.0304 1.6572 -0.1996 0.745 -0.625 0.231 139 157 199 0 0
1.0341 1.6615 -0.2001 0.745 -0.625 0.231 141 159 200 0 0
1.0385 1.6681 -0.2008 0.732 -0.681 -0.012 142 160 200 0 0
1.0422 1.6721 -0.2013 0.574 -0.775 -0.264 142 159 201 0 0
-0.5674 1.9212 -0.2499 -0.639 -0.583 0.501 98 87 109 0 0
-0.4011 1.8164 -0.2356 -0.188 -0.504 0.843 127 80 98 0 0
-0.3965 1.8156 -0.2355 -0.225 -0.513 0.828 131 82 100 0 0
0.2798 1.4387 -0.1834 0.720 -0.676 -0.155 89 66 73 0 0
0.2822 1.4413 -0.1836 0.720 -0.676 -0.155 81 60 67 0 0
0.2846 1.4442 -0.1840 0.700 -0.676 -0.230 67 41 47 0 0
0.2870 1.4467 -0.1843 0.496 -0.746 -0.444 83 45 50 0 0
0.2897 1.4479 -0.1844 0.368 -0.807 -0.462 111 65 69 0 0
0.2924 1.4492 -0.1845 0.446 -0.748 -0.492 108 63 71 0 0
0.2959 1.4616 -0.1860 0.884 -0.417 0.211 94 66 81 0 0
0.2980 1.4663 -0.1865 0.899 -0.357 0.256 97 68 86 0 0
0.2988 1.4778 -0.1879 0.032 -0.322 0.946 99 67 85 0 0
0.3041 1.4816 -0.1883 0.769 -0.461 0.442 100 69 91 0 0
0.3067 1.4838 -0.1885 0.539 -0.637 0.551 109 76 98 0 0
0.3091 1.4866 -0.1889 0.445 -0.721 0.530 118 75 92 0 0
0.3118 1.4882 -0.1890 0.492 -0.733 0.469 116 65 75 0 0
0.3142 1.4916 -0.1894 0.675 -0.678 0.290 112 64 73 0 0
0.3165 1.4960 -0.1899 0.782 -0.595 0.187 110 63 74 0 0
0.3186 1.5011 -0.1905 0.877 -0.428 0.217 107 67 83 0 0
0.3212 1.5036 -0.1908 0.862 -0.417 0.288 99 65 86 0 0
0.3231 1.5100 -0.1916 0.861 -0.493 0.122 98 65 86 0 0
0.3251 1.5161 -0.1923 0.755 -0.655 0.002 98 68 87 0 0
0.3271 1.5220 -0.1930 0.360 -0.925 -0.125 97 67 89 0 0
0.3300 1.5231 -0.1931 0.360 -0.925 -0.125 94 65 88 0 0
0.3328 1.5242 -0.1932 0.360 -0.925 -0.125 99 66 87 0 0
0.3354 1.5269 -0.1935 0.713 -0.700 -0.050 105 65 82 0 0
0.3380 1.5298 -0.1938 0.781 -0.624 0.011 107 62 73 0 0
0.3407 1.5323 -0.1941 0.893 -0.447 -0.050 95 56 69 0 0
0.3430 1.5371 -0.1946 0.896 -0.444 -0.021 85 57 72 0 0
0.3453 1.5418 -0.1952 0.896 -0.444 -0.021 88 60 78 0 0
0.3477 1.5460 -0.1957 0.864 -0.487 0.126 89 60 81 0 0
0.3504 1.5487 -0.1960 -0.120 -0.982 0.143 94 65 88 0 0
0.3534 1.5492 -0.1960 -0.201 -0.974 0.103 102 75 97 0 0
0.3559 1.5526 -0.1964 -0.359 -0.910 -0.207 103 77 92 0 0
0.6925 1.3463 -0.1682 0.292 -0.939 0.179 108 83 95 0 0
0.6951 1.3482 -0.1684 0.561 -0.817 0.132 114 96 115 0 0
0.6976 1.3501 -0.1686 0.748 -0.649 0.138 122 102 121 0 0
0.7003 1.3530 -0.1689 0.777 -0.608 0.166 131 112 131 0 0
0.7029 1.3563 -0.1693 0.795 -0.590 0.140 136 118 137 0 0
0.7057 1.3610 -0.1698 0.811 -0.529 0.252 136 116 136 0 0
0.7084 1.3649 -0.1703 0.873 -0.351 0.338 136 117 136 0 0
0.7114 1.3723 -0.1712 0.929 -0.367 0.055 136 116 135 0 0
0.7144 1.3792 -0.1719 0.937 -0.344 0.067 133 113 132 0 0
0.7196 1.3821 -0.1723 0.820 -0.507 0.264 128 107 127 0 0
0.7224 1.3867 -0.1728 0.835 -0.472 0.282 115 96 118 0 0
0.7253 1.3911 -0.1733 0.853 -0.453 0.259 109 93 114 0 0
0.7285 1.4004 -0.1744 0.842 -0.531 0.099 107 91 110 0 0
0.7400 1.4165 -0.1762 0.486 -0.690 -0.536 97 82 98 0 0
0.7426 1.4184 -0.1764 0.143 -0.723 -0.676 83 66 78 0 0
0.7452 1.4190 -0.1765 0.305 -0.724 -0.619 56 43 53 0 0
0.7478 1.4202 -0.1766 0.321 -0.762 -0.563 52 49 62 0 0
0.7839 1.4507 -0.1799 -0.694 -0.720 0.005 66 72 100 0 0
0.7882 1.4446 -0.1791 -0.736 -0.675 -0.055 105 120 156 0 0
0.7910 1.4468 -0.1794 0.327 -0.942 0.080 88 93 129 0 0
0.8194 1.4707 -0.1820 -0.939 -0.340 -0.046 75 87 119 0 0
0.8206 1.4613 -0.1809 -0.917 -0.357 -0.181 81 91 124 0 0
0.8639 1.4962 -0.1847 0.519 -0.784 0.341 151 168 211 0 0
0.8799 1.5154 -0.1868 0.849 -0.527 -0.042 148 167 209 0 0
0.8835 1.5209 -0.1875 0.827 -0.527 -0.198 149 167 210 0 0
0.9457 1.5756 -0.1935 0.666 -0.730 0.153 144 163 205 0 0
0.9490 1.5791 -0.1939 0.698 -0.706 0.114 144 163 205 0 0
0.9524 1.5827 -0.1943 0.741 -0.662 0.110 144 163 205 0 0
0.9558 1.5864 -0.1947 0.741 -0.664 0.095 143 163 204 0 0
0.9592 1.5902 -0.1951 0.741 -0.662 0.110 144 162 204 0 0
0.9628 1.5943 -0.1956 0.680 -0.731 0.059 143 159 202 0 0
0.9662 1.5980 -0.1960 0.720 -0.692 0.060 141 159 200 0 0
0.9696 1.6016 -0.1964 0.731 -0.682 0.032 142 159 202 0 0
0.9729 1.6048 -0.1967 0.753 -0.656 0.058 142 159 202 0 0
0.9764 1.6088 -0.1972 0.753 -0.656 0.058 143 161 204 0 0
0.9799 1.6125 -0.1976 0.743 -0.661 0.101 142 160 202 0 0
0.9835 1.6168 -0.1981 0.747 -0.664 0.007 141 160 200 0 0
0.9963 1.6263 -0.1991 0.506 -0.767 0.394 140 158 199 0 0
1.0079 1.6420 -0.2009 0.189 -0.912 -0.365 139 157 197 0 0
1.0107 1.6426 -0.2009 0.318 -0.927 -0.198 138 156 194 0 0
1.0142 1.6458 -0.2013 0.691 -0.722 0.024 139 155 194 0 0
1.0172 1.6473 -0.2014 0.568 -0.821 0.057 140 158 197 0 0
1.0198 1.6470 -0.2014 0.488 -0.813 0.318 140 158 197 0 0
1.0229 1.6487 -0.2016 0.488 -0.813 0.318 139 157 198 0 0
1.0272 1.6552 -0.2023 0.586 -0.629 0.510 139 157 199 0 0
1.0304 1.6576 -0.2026 0.483 -0.658 0.578 139 156 199 0 0
1.0350 1.6652 -0.2034 0.229 -0.891 0.392 140 158 200 0 0
1.0390 1.6706 -0.2041 0.066 -0.985 0.162 140 159 201 0 0
1.0428 1.6750 -0.2046 0.729 -0.683 0.038 140 158 200 0 0
-0.4785 1.8030 -0.2386 0.399 -0.217 0.891 75 56 63 0 0
-0.4688 1.8396 -0.2430 0.278 -0.087 0.957 87 59 67 0 0
-0.4462 1.8455 -0.2435 0.089 -0.243 0.966 121 75 86 0 0
-0.4151 1.8188 -0.2399 -0.557 -0.438 0.706 127 77 92 0 0
-0.4077 1.8128 -0.2391 -0.514 -0.439 0.737 126 78 94 0 0
-0.3467 1.7828 -0.2348 -0.139 -0.692 0.709 128 79 98 0 0
0.2797 1.4392 -0.1863 0.762 -0.625 -0.170 90 65 77 0 0
0.2820 1.4422 -0.1866 0.715 -0.652 -0.254 87 64 75 0 0
0.2844 1.4450 -0.1869 0.715 -0.652 -0.254 81 60 71 0 0
0.2868 1.4476 -0.1872 0.700 -0.676 -0.230 80 53 59 0 0
0.2894 1.4495 -0.1875 0.368 -0.807 -0.462 95 55 61 0 0
0.2920 1.4510 -0.1876 0.446 -0.748 -0.492 106 61 69 0 0
0.2946 1.4531 -0.1878 0.421 -0.793 -0.440 104 64 75 0 0
0.2966 1.4580 -0.1884 0.707 -0.663 -0.247 99 67 85 0 0
0.2981 1.4656 -0.1893 0.909 -0.358 0.212 98 68 89 0 0
0.3003 1.4696 -0.1898 0.907 -0.390 0.160 99 67 89 0 0
0.3022 1.4750 -0.1905 0.838 -0.398 0.373 101 69 92 0 0
0.3044 1.4795 -0.1910 0.769 -0.461 0.442 105 73 94 0 0
0.3070 1.4818 -0.1912 0.539 -0.637 0.551 109 70 88 0 0
0.3094 1.4848 -0.1916 0.445 -0.721 0.530 115 66 78 0 0
0.3121 1.4866 -0.1918 0.492 -0.733 0.469 113 64 73 0 0
0.3144 1.4905 -0.1922 0.675 -0.678 0.290 112 64 73 0 0
0.3165 1.4952 -0.1928 0.782 -0.595 0.187 110 63 73 0 0
0.3188 1.4997 -0.1933 0.853 -0.449 0.266 108 61 74 0 0
0.3211 1.5034 -0.1937 0.886 -0.425 0.185 102 64 82 0 0
0.3234 1.5078 -0.1943 0.905 -0.412 0.108 99 67 87 0 0
0.3254 1.5139 -0.1950 0.818 -0.527 0.232 98 69 89 0 0
0.3300 1.5226 -0.1960 0.475 -0.878 0.053 109 73 93 0 0
0.3328 1.5241 -0.1962 0.475 -0.878 0.053 117 72 90 0 0
0.3354 1.5269 -0.1965 0.696 -0.718 0.015 113 63 77 0 0
0.3380 1.5295 -0.1968 0.759 -0.650 0.040 104 59 70 0 0
0.3406 1.5324 -0.1971 0.893 -0.447 -0.050 90 55 68 0 0
0.3478 1.5453 -0.1986 0.864 -0.487 0.126 90 62 80 0 0
0.3502 1.5495 -0.1991 -0.376 -0.926 -0.036 91 65 86 0 0
0.3526 1.5542 -0.1997 0.644 -0.756 0.118 96 70 91 0 0
0.3559 1.5526 -0.1994 -0.404 -0.906 -0.123 100 73 85 0 0
0.6925 1.3464 -0.1707 0.208 -0.954 0.217 109 83 94 0 0
0.6950 1.3479 -0.1709 0.540 -0.819 0.195 114 96 114 0 0
0.6975 1.3494 -0.1711 0.662 -0.723 0.198 124 104 124 0 0
0.7001 1.3520 -0.1713 0.755 -0.630 0.184 133 114 134 0 0
0.7028 1.3556 -0.1717 0.795 -0.590 0.140 138 120 139 0 0
0.7055 1.3596 -0.1722 0.811 -0.529 0.252 136 118 140 0 0
0.7082 1.3634 -0.1727 0.806 -0.490 0.332 136 118 138 0 0
0.7110 1.3676 -0.1731 0.806 -0.490 0.332 135 116 136 0 0
0.7428 1.4211 -0.1794 0.077 -0.838 -0.540 93 74 86 0 0
0.7454 1.4217 -0.1794 0.052 -0.887 -0.460 61 43 53 0 0
0.7882 1.4450 -0.1819 -0.821 -0.569 0.046 105 121 157 0 0
0.7906 1.4441 -0.1817 -0.182 -0.974 0.138 88 93 130 0 0
0.8203 1.4598 -0.1834 -0.890 -0.351 -0.291 80 91 123 0 0
0.8637 1.4950 -0.1872 0.575 -0.757 0.311 149 166 209 0 0
0.8667 1.4977 -0.1875 0.697 -0.669 0.260 146 164 207 0 0
0.9078 1.5416 -0.1925 0.548 -0.818 0.174 145 160 203 0 0
0.9107 1.5433 -0.1927 0.480 -0.804 0.351 144 160 202 0 0
0.9455 1.5751 -0.1962 0.699 -0.704 0.126 144 162 205 0 0
0.9488 1.5783 -0.1966 0.699 -0.704 0.126 144 161 205 0 0
0.9521 1.5815 -0.1970 0.752 -0.657 0.047 144 163 206 0 0
0.9556 1.5858 -0.1974 0.725 -0.687 0.046 144 163 206 0 0
0.9590 1.5895 -0.1979 0.741 -0.662 0.110 144 162 205 0 0
0.9625 1.5934 -0.1983 0.636 -0.770 0.048 144 159 202 0 0
0.9660 1.5977 -0.1988 0.731 -0.682 0.032 142 159 201 0 0
0.9694 1.6010 -0.1992 0.762 -0.643 0.071 143 160 202 0 0
0.9727 1.6043 -0.1996 0.753 -0.656 0.058 142 159 202 0 0
0.9763 1.6084 -0.2000 0.762 -0.642 0.083 143 160 203 0 0
0.9798 1.6125 -0.2005 0.762 -0.642 0.083 142 159 202 0 0
1.0139 1.6450 -0.2041 0.683 -0.727 0.074 138 154 196 0 0
1.0172 1.6477 -0.2044 0.496 -0.857 0.141 139 157 196 0 0
1.0201 1.6485 -0.2045 0.622 -0.638 0.454 140 158 198 0 0
1.0234 1.6511 -0.2048 0.547 -0.670 0.502 140 159 199 0 0
1.0267 1.6539 -0.2051 0.506 -0.568 0.649 141 159 200 0 0
1.0308 1.6596 -0.2057 0.553 -0.552 0.624 140 158 200 0 0
1.0342 1.6622 -0.2060 0.278 -0.587 0.760 141 159 201 0 0
-0.4783 1.7876 -0.2405 0.530 -0.112 -0.841 97 70 82 0 0
-0.4634 1.7911 -0.2408 -0.208 -0.521 -0.828 102 75 85 0 0
-0.4602 1.7930 -0.2410 -0.134 -0.492 -0.860 104 74 87 0 0
-0.4038 1.7893 -0.2399 -0.407 -0.658 -0.633 115 76 82 0 0
-0.1735 1.6888 -0.2250 -0.292 -0.852 0.436 123 75 91 0 0
-0.1706 1.6909 -0.2252 -0.323 -0.941 -0.096 123 73 86 0 0
-0.1658 1.6884 -0.2249 -0.439 -0.897 -0.040 124 74 85 0 0
0.2690 1.4199 -0.1869 0.357 -0.745 0.564 127 77 92 0 0
0.2781 1.4322 -0.1883 0.854 -0.493 0.164 97 64 77 0 0
0.2803 1.4360 -0.1888 0.862 -0.507 0.020 92 68 81 0 0
0.2822 1.4407 -0.1893 0.847 -0.522 -0.103 95 70 83 0 0
0.2845 1.4443 -0.1897 0.813 -0.554 -0.176 94 69 83 0 0
0.2866 1.4484 -0.1902 0.700 -0.676 -0.230 91 64 77 0 0
0.2890 1.4511 -0.1905 0.446 -0.748 -0.492 79 48 57 0 0
0.2916 1.4528 -0.1907 0.446 -0.748 -0.492 94 53 60 0 0
0.2942 1.4545 -0.1909 0.446 -0.748 -0.492 108 63 71 0 0
0.2963 1.4589 -0.1914 0.707 -0.663 -0.247 109 68 80 0 0
0.2981 1.4654 -0.1922 0.929 -0.330 0.167 107 72 90 0 0
0.3004 1.4687 -0.1926 0.907 -0.390 0.160 108 73 92 0 0
0.3025 1.4732 -0.1931 0.857 -0.407 0.317 110 76 95 0 0
0.3047 1.4775 -0.1937 0.769 -0.461 0.442 111 76 94 0 0
0.3072 1.4802 -0.1940 0.638 -0.566 0.522 112 71 87 0 0
0.3094 1.4844 -0.1945 0.691 -0.615 0.381 112 64 76 0 0
0.3119 1.4871 -0.1948 0.637 -0.701 0.321 111 65 74 0 0
0.3141 1.4914 -0.1953 0.806 -0.568 0.164 112 66 75 0 0
0.3166 1.4947 -0.1957 0.806 -0.568 0.164 111 65 74 0 0
0.3189 1.4983 -0.1961 0.876 -0.466 0.129 109 63 73 0 0
0.3212 1.5025 -0.1966 0.876 -0.466 0.129 108 64 76 0 0
0.3235 1.5068 -0.1971 0.822 -0.457 0.339 107 66 79 0 0
0.3254 1.5135 -0.1979 0.817 -0.551 0.169 103 64 77 0 0
0.3275 1.5188 -0.1986 0.707 -0.684 0.180 108 66 78 0 0
0.3299 1.5229 -0.1990 0.456 -0.880 0.133 115 67 77 0 0
0.3327 1.5244 -0.1992 0.468 -0.881 0.065 114 62 73 0 0
0.3354 1.5263 -0.1994 0.759 -0.650 0.040 107 59 69 0 0
0.3380 1.5293 -0.1998 0.759 -0.650 0.040 95 55 67 0 0
0.3404 1.5329 -0.2002 0.847 -0.529 -0.055 88 57 73 0 0
0.3478 1.5446 -0.2016 0.864 -0.487 0.126 95 64 84 0 0
0.3501 1.5496 -0.2022 0.884 -0.399 0.243 94 64 87 0 0
0.3529 1.5516 -0.2024 -0.219 -0.976 0.012 97 71 91 0 0
0.3557 1.5531 -0.2025 -0.404 -0.906 -0.123 100 72 86 0 0
0.3590 1.5514 -0.2023 -0.591 -0.773 0.230 100 71 81 0 0
0.6924 1.3458 -0.1732 0.208 -0.954 0.217 110 83 95 0 0
0.6948 1.3467 -0.1733 0.384 -0.895 0.229 114 94 112 0 0
0.6974 1.3487 -0.1735 0.662 -0.723 0.198 122 103 122 0 0
0.7000 1.3511 -0.1738 0.755 -0.630 0.184 126 106 125 0 0
0.7027 1.3544 -0.1742 0.763 -0.607 0.224 126 107 127 0 0
0.7054 1.3593 -0.1747 0.737 -0.647 0.195 128 111 131 0 0
0.7080 1.3610 -0.1749 0.788 -0.488 0.375 132 115 134 0 0
0.7107 1.3647 -0.1753 0.725 -0.471 0.503 132 113 133 0 0
0.7747 1.4602 -0.1866 -0.805 -0.587 0.088 60 46 56 0 0
0.7769 1.4577 -0.1862 -0.665 -0.745 0.057 40 32 41 0 0
0.7880 1.4443 -0.1844 -0.771 -0.634 0.051 103 121 156 0 0
0.8205 1.4612 -0.1862 -0.885 -0.355 -0.303 81 92 120 0 0
0.8346 1.4546 -0.1852 0.634 -0.773 0.012 93 107 144 0 0
0.8634 1.4935 -0.1898 0.567 -0.795 0.217 148 165 208 0 0
0.8663 1.4962 -0.1901 0.687 -0.686 0.237 146 163 206 0 0
0.8694 1.4993 -0.1904 0.825 -0.552 -0.121 145 162 205 0 0
0.8728 1.5046 -0.1911 0.821 -0.553 -0.145 146 164 207 0 0
0.8762 1.5095 -0.1916 0.815 -0.531 -0.230 147 165 208 0 0
0.9390 1.5690 -0.1984 0.621 -0.778 -0.093 145 163 207 0 0
0.9423 1.5723 -0.1987 0.710 -0.703 -0.036 144 161 204 0 0
0.9456 1.5756 -0.1991 0.710 -0.703 -0.036 144 162 205 0 0
0.9489 1.5790 -0.1995 0.710 -0.703 -0.036 143 161 203 0 0
0.9520 1.5816 -0.1998 0.776 -0.631 -0.003 143 162 204 0 0
0.9557 1.5866 -0.2004 0.709 -0.705 0.002 143 162 205 0 0
0.9591 1.5903 -0.2008 0.701 -0.710 -0.062 144 161 205 0 0
0.9624 1.5935 -0.2012 0.682 -0.731 -0.021 144 160 203 0 0
0.9659 1.5974 -0.2016 0.731 -0.682 0.032 143 161 204 0 0
0.9692 1.6004 -0.2020 0.762 -0.643 0.071 142 159 202 0 0
0.9727 1.6046 -0.2024 0.762 -0.643 0.071 140 159 201 0 0
0.9763 1.6087 -0.2029 0.762 -0.643 0.071 143 161 203 0 0
0.9796 1.6119 -0.2033 0.762 -0.642 0.083 142 159 202 0 0
1.0103 1.6416 -0.2067 0.548 -0.778 0.308 139 155 195 0 0
1.0137 1.6444 -0.2070 0.575 -0.806 0.144 137 152 193 0 0
1.0170 1.6471 -0.2073 0.437 -0.895 -0.091 138 157 195 0 0
1.0198 1.6476 -0.2073 0.472 -0.879 -0.063 140 160 199 0 0
1.0229 1.6494 -0.2075 0.333 -0.942 0.031 138 157 199 0 0
1.0269 1.6550 -0.2081 0.675 -0.737 0.017 139 158 200 0 0
-0.5770 1.8309 -0.2509 0.864 -0.200 -0.462 107 94 120 0 0
-0.5761 1.8367 -0.2516 0.865 -0.173 -0.472 102 92 118 0 0
-0.4577 1.7883 -0.2442 -0.158 -0.333 0.930 116 80 99 0 0
-0.4440 1.7863 -0.2438 -0.180 -0.415 0.892 121 85 105 0 0
-0.4153 1.7953 -0.2446 0.709 -0.486 0.511 124 86 100 0 0
-0.4130 1.7988 -0.2450 0.692 -0.545 0.474 123 84 99 0 0
-0.4059 1.7932 -0.2442 -0.372 -0.787 -0.492 123 83 97 0 0
-0.4005 1.7908 -0.2439 -0.336 -0.855 -0.395 120 77 91 0 0
-0.3956 1.7894 -0.2436 -0.236 -0.893 -0.383 119 76 90 0 0
-0.3936 1.7936 -0.2442 0.544 -0.835 0.081 122 81 95 0 0
-0.3569 1.7702 -0.2408 0.524 -0.627 0.576 127 86 105 0 0
-0.3503 1.7732 -0.2411 -0.305 -0.863 0.403 129 87 107 0 0
-0.2363 1.7014 -0.2308 -0.465 -0.884 -0.047 116 76 95 0 0
-0.2312 1.6987 -0.2304 -0.465 -0.884 -0.047 115 74 91 0 0
-0.1783 1.6822 -0.2277 -0.188 -0.552 0.812 114 70 85 0 0
-0.1673 1.6741 -0.2266 -0.406 -0.514 0.756 114 69 83 0 0
-0.1405 1.6459 -0.2227 -0.049 -0.994 -0.093 116 71 82 0 0
-0.1369 1.6461 -0.2227 -0.179 -0.881 0.438 119 72 83 0 0
-0.1339 1.6565 -0.2240 0.054 -0.493 0.868 120 74 89 0 0
0.2693 1.4183 -0.1895 0.360 -0.805 0.472 128 77 93 0 0
0.2718 1.4203 -0.1897 0.601 -0.614 0.512 127 74 90 0 0
0.2743 1.4224 -0.1900 0.851 -0.401 0.340 122 69 80 0 0
0.2782 1.4317 -0.1911 0.934 -0.326 0.148 107 67 79 0 0
0.2801 1.4365 -0.1917 0.928 -0.364 0.077 101 69 81 0 0
0.2821 1.4411 -0.1922 0.847 -0.522 -0.103 98 72 85 0 0
0.2843 1.4449 -0.1927 0.813 -0.554 -0.176 100 73 88 0 0
0.2864 1.4492 -0.1932 0.700 -0.676 -0.230 101 73 87 0 0
0.2888 1.4519 -0.1935 0.558 -0.773 -0.301 91 64 77 0 0
0.2912 1.4546 -0.1938 0.446 -0.748 -0.492 81 45 55 0 0
0.2938 1.4563 -0.1940 0.446 -0.748 -0.492 101 53 60 0 0
0.2965 1.4580 -0.1942 0.446 -0.748 -0.492 113 64 72 0 0
0.2983 1.4639 -0.1949 0.879 -0.477 0.021 119 69 79 0 0
0.3003 1.4686 -0.1955 0.903 -0.411 0.127 123 71 83 0 0
0.3027 1.4722 -0.1959 0.875 -0.427 0.229 122 71 82 0 0
0.3050 1.4755 -0.1963 0.769 -0.461 0.442 116 67 79 0 0
0.3075 1.4781 -0.1966 0.638 -0.566 0.522 114 64 77 0 0
0.3096 1.4829 -0.1972 0.691 -0.615 0.381 112 65 75 0 0
0.3121 1.4856 -0.1975 0.709 -0.634 0.309 113 65 74 0 0
0.3142 1.4907 -0.1982 0.806 -0.568 0.164 111 64 73 0 0
0.3165 1.4947 -0.1986 0.808 -0.519 0.277 112 66 75 0 0
0.3189 1.4984 -0.1991 0.895 -0.444 0.042 111 65 74 0 0
0.3209 1.5040 -0.1998 0.864 -0.503 -0.025 109 62 70 0 0
0.3233 1.5078 -0.2002 0.790 -0.611 0.043 110 62 70 0 0
0.3256 1.5118 -0.2007 0.818 -0.527 0.232 109 62 69 0 0
0.3281 1.5151 -0.2011 0.819 -0.563 0.109 108 62 70 0 0
0.3305 1.5190 -0.2016 0.746 -0.663 0.061 109 63 71 0 0
0.3330 1.5220 -0.2019 0.718 -0.693 0.057 108 61 70 0 0
0.3355 1.5255 -0.2023 0.820 -0.571 -0.037 99 54 64 0 0
0.3379 1.5291 -0.2027 0.820 -0.571 -0.037 91 56 71 0 0
0.3404 1.5331 -0.2032 0.847 -0.529 -0.055 96 66 82 0 0
0.3478 1.5441 -0.2045 0.838 -0.530 0.132 104 69 86 0 0
0.3503 1.5482 -0.2050 0.895 -0.383 0.230 104 68 86 0 0
0.3528 1.5515 -0.2054 0.055 -0.996 0.064 106 71 88 0 0
0.3559 1.5518 -0.2054 -0.583 -0.807 0.095 106 75 90 0 0
0.6948 1.3471 -0.1759 0.419 -0.903 0.093 112 94 112 0 0
0.6973 1.3479 -0.1759 0.662 -0.723 0.198 118 100 119 0 0
0.6999 1.3502 -0.1762 0.755 -0.630 0.184 123 104 123 0 0
0.7025 1.3527 -0.1765 0.754 -0.602 0.263 127 109 129 0 0
0.7052 1.3565 -0.1769 0.763 -0.607 0.224 131 113 133 0 0
0.7429 1.4237 -0.1850 -0.130 -0.987 0.097 101 84 98 0 0
0.7768 1.4576 -0.1889 -0.665 -0.745 0.057 41 37 44 0 0
0.7857 1.4467 -0.1874 -0.762 -0.644 0.064 89 107 139 0 0
0.7879 1.4442 -0.1871 -0.753 -0.655 0.062 105 120 156 0 0
0.8206 1.4628 -0.1891 -0.832 -0.350 -0.430 79 90 119 0 0
0.8345 1.4544 -0.1879 0.634 -0.773 0.012 91 106 143 0 0
0.8603 1.4911 -0.1922 0.577 -0.804 0.145 147 165 207 0 0
0.8630 1.4919 -0.1923 0.544 -0.801 0.250 147 164 207 0 0
0.8661 1.4950 -0.1927 0.687 -0.686 0.237 148 165 208 0 0
0.8694 1.5000 -0.1932 0.825 -0.552 -0.121 147 165 208 0 0
0.8884 1.5068 -0.1939 0.712 -0.689 0.135 147 164 208 0 0
0.9046 1.5393 -0.1978 0.341 -0.866 0.367 145 162 205 0 0
0.9075 1.5409 -0.1980 0.090 -0.867 0.490 144 160 203 0 0
0.9422 1.5724 -0.2016 0.710 -0.703 -0.036 145 162 205 0 0
0.9455 1.5757 -0.2020 0.710 -0.703 -0.036 141 159 202 0 0
0.9488 1.5791 -0.2024 0.710 -0.703 -0.036 141 159 201 0 0
0.9521 1.5823 -0.2027 0.728 -0.684 -0.049 143 161 203 0 0
0.9555 1.5860 -0.2032 0.706 -0.698 -0.117 143 162 204 0 0
0.9587 1.5888 -0.2035 0.692 -0.721 -0.036 142 160 203 0 0
0.9623 1.5931 -0.2040 0.622 -0.782 0.048 143 160 203 0 0
0.9655 1.5960 -0.2043 0.667 -0.744 0.045 142 160 203 0 0
0.9689 1.5996 -0.2047 0.782 -0.613 0.113 142 159 202 0 0
0.9724 1.6037 -0.2052 0.759 -0.635 0.148 141 160 203 0 0
0.9761 1.6082 -0.2057 0.735 -0.637 0.233 144 163 205 0 0
0.9796 1.6122 -0.2062 0.741 -0.630 0.233 142 159 202 0 0
0.9831 1.6162 -0.2067 0.741 -0.630 0.233 139 157 199 0 0
0.9867 1.6202 -0.2071 0.741 -0.630 0.233 139 157 200 0 0
0.9902 1.6239 -0.2076 0.623 -0.748 0.226 141 159 201 0 0
0.9933 1.6261 -0.2078 0.564 -0.787 0.250 141 159 200 0 0
0.9965 1.6284 -0.2081 0.570 -0.785 0.243 141 158 200 0 0
0.9998 1.6310 -0.2083 0.636 -0.759 0.139 141 157 200 0 0
1.0036 1.6361 -0.2090 0.657 -0.706 0.262 139 156 198 0 0
1.0069 1.6385 -0.2092 0.716 -0.699 -0.008 139 158 200 0 0
1.0101 1.6411 -0.2095 0.623 -0.772 0.125 140 157 197 0 0
1.0135 1.6439 -0.2098 0.670 -0.734 0.105 139 155 194 0 0
1.0170 1.6475 -0.2102 0.545 -0.836 -0.063 138 157 197 0 0
1.0197 1.6476 -0.2102 0.208 -0.859 -0.468 139 158 198 0 0
1.0227 1.6491 -0.2104 0.179 -0.841 -0.511 140 157 199 0 0
1.0252 1.6484 -0.2103 0.257 -0.727 -0.637 141 159 201 0 0
1.0300 1.6571 -0.2113 0.686 -0.690 -0.230 141 160 200 0 0
1.0339 1.6620 -0.2119 0.603 -0.796 0.051 140 159 199 0 0
-0.4889 1.7837 -0.2478 0.618 0.018 -0.786 120 86 104 0 0
-0.4139 1.7924 -0.2480 0.650 -0.416 0.636 113 66 83 0 0
-0.4121 1.7969 -0.2486 0.692 -0.545 0.474 111 66 82 0 0
-0.3735 1.7867 -0.2468 -0.549 -0.748 0.372 113 70 88 0 0
-0.3589 1.7740 -0.2450 -0.237 -0.902 0.362 115 70 85 0 0
-0.1327 1.6536 -0.2270 0.001 -0.573 0.819 97 67 77 0 0
-0.0431 1.6086 -0.2203 -0.722 -0.680 0.132 131 84 104 0 0
0.0213 1.5734 -0.2150 -0.358 -0.839 0.409 133 85 104 0 0
0.2691 1.4190 -0.1924 -0.334 -0.865 0.376 129 78 92 0 0
0.2720 1.4193 -0.1924 0.552 -0.736 0.392 127 74 88 0 0
0.2742 1.4226 -0.1928 0.834 -0.515 0.197 124 70 82 0 0
0.2761 1.4272 -0.1934 0.893 -0.424 0.148 119 67 79 0 0
0.2782 1.4314 -0.1939 0.893 -0.424 0.148 115 65 76 0 0
0.2844 1.4440 -0.1955 0.883 -0.469 -0.023 101 74 88 0 0
0.2864 1.4489 -0.1961 0.774 -0.611 -0.168 102 74 89 0 0
0.2886 1.4526 -0.1965 0.675 -0.727 -0.123 102 73 90 0 0
0.2909 1.4558 -0.1969 0.526 -0.793 -0.308 89 59 73 0 0
0.2935 1.4576 -0.1971 0.413 -0.786 -0.460 88 48 60 0 0
0.2961 1.4597 -0.1973 0.612 -0.743 -0.270 110 61 70 0 0
0.2983 1.4634 -0.1978 0.842 -0.539 -0.002 116 66 76 0 0
0.3005 1.4677 -0.1983 0.888 -0.460 0.026 120 68 80 0 0
0.3029 1.4707 -0.1987 0.876 -0.475 0.079 121 69 80 0 0
0.3050 1.4751 -0.1992 0.852 -0.446 0.273 120 69 81 0 0
0.3073 1.4791 -0.1997 0.842 -0.442 0.309 117 68 79 0 0
0.3095 1.4834 -0.2002 0.799 -0.517 0.307 113 67 77 0 0
0.3118 1.4871 -0.2007 0.785 -0.565 0.253 112 65 75 0 0
0.3142 1.4903 -0.2010 0.785 -0.565 0.253 112 66 76 0 0
0.3166 1.4939 -0.2015 0.813 -0.547 0.198 113 67 76 0 0
0.3188 1.4981 -0.2020 0.866 -0.487 0.112 111 65 74 0 0
0.3209 1.5038 -0.2027 0.839 -0.543 0.025 110 64 73 0 0
0.3233 1.5075 -0.2031 0.838 -0.546 0.031 110 63 72 0 0
0.3257 1.5111 -0.2036 0.838 -0.546 0.031 109 63 72 0 0
0.3281 1.5148 -0.2040 0.838 -0.546 0.031 109 62 71 0 0
0.3304 1.5187 -0.2045 0.746 -0.663 0.061 107 61 69 0 0
0.3330 1.5216 -0.2048 0.746 -0.663 0.061 105 60 67 0 0
0.3355 1.5252 -0.2053 0.820 -0.572 -0.023 100 57 65 0 0
0.3379 1.5288 -0.2057 0.820 -0.572 -0.023 102 60 72 0 0
0.3403 1.5333 -0.2063 0.847 -0.529 -0.055 106 63 74 0 0
0.3479 1.5434 -0.2075 0.810 -0.585 0.050 108 59 67 0 0
0.3499 1.5501 -0.2083 0.805 -0.508 0.305 107 58 66 0 0
0.3528 1.5515 -0.2084 0.003 -0.999 -0.050 104 61 72 0 0
0.3558 1.5514 -0.2084 -0.583 -0.807 0.095 105 72 86 0 0
0.6947 1.3468 -0.1783 0.419 -0.903 0.093 114 95 111 0 0
0.6971 1.3463 -0.1783 0.704 -0.698 0.134 117 98 117 0 0
0.6997 1.3489 -0.1786 0.704 -0.698 0.134 123 100 121 0 0
0.7024 1.3523 -0.1790 0.746 -0.639 0.188 128 107 127 0 0
0.7050 1.3555 -0.1793 0.763 -0.607 0.224 132 112 132 0 0
0.7076 1.3571 -0.1795 0.759 -0.512 0.402 136 119 138 0 0
0.7102 1.3591 -0.1798 0.725 -0.471 0.503 136 119 139 0 0
0.7428 1.4234 -0.1876 -0.151 -0.977 0.149 102 85 99 0 0
0.7770 1.4596 -0.1919 -0.780 -0.601 -0.175 45 38 47 0 0
0.7856 1.4466 -0.1901 -0.762 -0.644 0.064 88 105 139 0 0
0.7878 1.4436 -0.1897 -0.665 -0.737 0.123 103 119 154 0 0
0.7976 1.4413 -0.1893 0.495 -0.869 -0.000 64 73 105 0 0
0.8003 1.4428 -0.1894 0.495 -0.869 -0.000 70 86 120 0 0
0.8344 1.4543 -0.1905 0.637 -0.770 0.039 92 104 141 0 0
0.8628 1.4912 -0.1949 0.640 -0.742 0.201 147 165 207 0 0
0.8658 1.4936 -0.1952 0.640 -0.742 0.201 146 164 207 0 0
0.8692 1.4990 -0.1958 0.832 -0.551 -0.059 146 164 207 0 0
0.8810 1.5085 -0.1969 0.737 -0.662 -0.140 146 165 207 0 0
0.8871 1.5140 -0.1976 0.637 -0.765 -0.098 147 164 208 0 0
0.9045 1.5391 -0.2006 0.300 -0.941 0.157 147 165 207 0 0
0.9071 1.5392 -0.2006 0.226 -0.894 0.386 145 162 205 0 0
0.9099 1.5406 -0.2007 0.429 -0.849 0.309 145 162 205 0 0
0.9128 1.5420 -0.2008 0.407 -0.858 0.314 145 164 206 0 0
0.9164 1.5472 -0.2015 0.762 -0.647 0.034 147 165 208 0 0
0.9198 1.5517 -0.2020 0.804 -0.594 0.026 147 164 207 0 0
0.9391 1.5703 -0.2042 0.612 -0.772 0.171 144 163 206 0 0
0.9421 1.5724 -0.2044 0.710 -0.703 -0.036 142 160 202 0 0
0.9454 1.5758 -0.2048 0.710 -0.703 -0.036 142 161 203 0 0
0.9487 1.5791 -0.2052 0.710 -0.703 -0.036 144 163 205 0 0
0.9520 1.5824 -0.2056 0.756 -0.654 -0.025 144 164 206 0 0
0.9554 1.5861 -0.2060 0.728 -0.684 -0.049 143 163 205 0 0
0.9586 1.5889 -0.2063 0.692 -0.721 -0.036 143 162 204 0 0
0.9620 1.5921 -0.2067 0.692 -0.721 -0.036 144 162 205 0 0
0.9655 1.5965 -0.2072 0.677 -0.730 0.098 145 163 205 0 0
0.9691 1.6007 -0.2077 0.743 -0.649 0.163 143 160 203 0 0
0.9725 1.6042 -0.2081 0.729 -0.658 0.189 143 159 202 0 0
0.9756 1.6065 -0.2084 0.709 -0.704 0.046 142 160 202 0 0
0.9790 1.6099 -0.2088 0.709 -0.704 0.046 142 159 202 0 0
0.9828 1.6149 -0.2094 0.750 -0.639 0.170 142 159 202 0 0
0.9865 1.6197 -0.2099 0.741 -0.634 0.222 142 159 202 0 0
0.9901 1.6239 -0.2104 0.595 -0.777 0.206 142 159 202 0 0
0.9929 1.6247 -0.2105 0.627 -0.768 0.135 141 159 201 0 0
0.9962 1.6276 -0.2109 0.633 -0.761 0.145 141 158 201 0 0
0.9995 1.6302 -0.2112 0.633 -0.761 0.145 141 158 201 0 0
1.0032 1.6347 -0.2117 0.657 -0.706 0.262 141 157 200 0 0
1.0068 1.6385 -0.2121 0.716 -0.699 -0.008 139 157 199 0 0
1.0099 1.6403 -0.2123 0.662 -0.749 -0.032 140 159 200 0 0
1.0133 1.6433 -0.2127 0.670 -0.734 0.105 139 157 198 0 0
1.0170 1.6476 -0.2132 0.654 -0.752 -0.085 139 158 198 0 0
1.0200 1.6493 -0.2134 0.237 -0.820 -0.521 140 159 198 0 0
1.0229 1.6502 -0.2134 0.237 -0.820 -0.521 140 157 196 0 0
1.0262 1.6525 -0.2137 0.549 -0.695 -0.465 140 158 197 0 0
1.0303 1.6583 -0.2144 0.686 -0.690 -0.230 140 159 199 0 0
1.0339 1.6620 -0.2148 0.686 -0.690 -0.230 140 159 200 0 0
-0.4743 1.7655 -0.2490 0.316 -0.040 0.948 109 66 82 0 0
-0.4716 1.7754 -0.2503 0.274 -0.041 0.961 108 67 84 0 0
-0.4435 1.7701 -0.2493 -0.225 -0.208 0.952 102 64 82 0 0
-0.4113 1.7953 -0.2521 0.645 -0.491 0.586 103 61 75 0 0
-0.2008 1.6732 -0.2338 -0.372 -0.753 -0.543 113 79 94 0 0
-0.1870 1.6676 -0.2329 0.057 -0.738 -0.672 123 86 103 0 0
-0.1834 1.6679 -0.2329 0.057 -0.738 -0.672 121 85 102 0 0
-0.1779 1.6639 -0.2323 -0.429 -0.860 -0.276 117 84 101 0 0
-0.1736 1.6626 -0.2321 -0.458 -0.884 -0.094 111 82 97 0 0
-0.1354 1.6423 -0.2290 -0.489 -0.820 0.296 101 79 93 0 0
-0.0747 1.6261 -0.2262 -0.464 -0.674 0.575 97 72 87 0 0
0.0109 1.5641 -0.2172 0.274 -0.348 0.897 134 83 101 0 0
0.0137 1.5657 -0.2173 0.297 -0.328 0.897 135 84 103 0 0
0.0165 1.5676 -0.2175 0.297 -0.328 0.897 137 85 104 0 0
0.2744 1.4214 -0.1955 0.762 -0.644 -0.062 125 72 84 0 0
0.2765 1.4250 -0.1960 0.896 -0.441 0.053 120 67 79 0 0
0.2782 1.4310 -0.1967 0.893 -0.442 0.084 118 66 76 0 0
0.2844 1.4436 -0.1983 0.905 -0.417 0.087 110 75 85 0 0
0.2862 1.4494 -0.1990 0.805 -0.566 -0.178 112 76 86 0 0
0.2884 1.4530 -0.1995 0.675 -0.727 -0.123 114 77 90 0 0
0.2907 1.4568 -0.1999 0.526 -0.793 -0.308 114 76 88 0 0
0.2933 1.4586 -0.2001 0.526 -0.793 -0.308 113 72 82 0 0
0.2958 1.4606 -0.2004 0.612 -0.743 -0.270 114 67 76 0 0
0.2983 1.4633 -0.2007 0.842 -0.539 -0.002 117 66 77 0 0
0.3005 1.4669 -0.2011 0.842 -0.539 -0.002 118 69 79 0 0
0.3029 1.4703 -0.2015 0.876 -0.475 0.079 119 70 78 0 0
0.3051 1.4745 -0.2021 0.860 -0.504 0.073 117 67 76 0 0
0.3073 1.4784 -0.2025 0.836 -0.548 0.045 115 65 76 0 0
0.3097 1.4818 -0.2029 0.802 -0.578 0.154 111 63 72 0 0
0.3121 1.4850 -0.2033 0.802 -0.578 0.154 110 62 70 0 0
0.3145 1.4883 -0.2037 0.802 -0.578 0.154 109 62 71 0 0
0.3169 1.4915 -0.2041 0.802 -0.578 0.154 108 63 71 0 0
0.3190 1.4966 -0.2048 0.845 -0.479 0.239 105 60 70 0 0
0.3210 1.5024 -0.2055 0.673 -0.489 0.555 103 58 68 0 0
0.3283 1.5130 -0.2068 0.593 -0.691 0.412 100 57 62 0 0
0.3309 1.5156 -0.2071 0.561 -0.652 0.510 96 54 61 0 0
0.3335 1.5180 -0.2074 0.533 -0.611 0.585 94 52 60 0 0
0.3364 1.5193 -0.2075 0.764 -0.460 0.453 93 51 59 0 0
0.3412 1.5268 -0.2084 0.863 -0.257 0.435 99 54 63 0 0
0.3433 1.5326 -0.2091 0.863 -0.257 0.435 100 55 62 0 0
0.3455 1.5385 -0.2099 0.863 -0.257 0.435 98 53 60 0 0
0.3480 1.5422 -0.2103 0.764 -0.494 0.415 97 51 57 0 0
0.3503 1.5469 -0.2109 0.761 -0.486 0.431 97 51 58 0 0
0.3546 1.5386 -0.2098 0.931 -0.082 0.355 96 54 65 0 0
0.6946 1.3463 -0.1808 0.440 -0.888 0.131 115 94 111 0 0
0.6970 1.3457 -0.1807 0.704 -0.698 0.134 121 99 118 0 0
0.6996 1.3481 -0.1810 0.689 -0.717 0.108 121 99 118 0 0
0.7023 1.3516 -0.1814 0.710 -0.669 0.220 124 103 122 0 0
0.7049 1.3545 -0.1818 0.768 -0.603 0.217 126 107 126 0 0
0.7152 1.3614 -0.1825 0.727 -0.437 0.530 122 101 120 0 0
0.7179 1.3654 -0.1830 0.727 -0.437 0.530 117 95 114 0 0
0.7371 1.4167 -0.1895 0.544 -0.835 -0.087 108 91 109 0 0
0.7400 1.4209 -0.1900 0.384 -0.922 -0.038 108 92 109 0 0
0.7427 1.4227 -0.1902 0.200 -0.978 -0.063 103 86 103 0 0
0.7514 1.3844 -0.1851 0.770 -0.635 0.068 71 69 91 0 0
0.7856 1.4464 -0.1927 -0.762 -0.644 0.064 86 104 136 0 0
0.7900 1.4418 -0.1921 -0.418 -0.889 0.188 92 98 134 0 0
0.7948 1.4400 -0.1918 0.412 -0.911 0.011 47 54 79 0 0
0.8004 1.4442 -0.1923 0.571 -0.815 0.097 90 101 136 0 0
0.8030 1.4454 -0.1924 0.572 -0.820 0.013 69 79 119 0 0
0.8342 1.4534 -0.1931 0.799 -0.598 0.055 94 106 142 0 0
0.8592 1.4853 -0.1969 -0.468 -0.850 0.241 148 166 209 0 0
0.8619 1.4858 -0.1969 0.111 -0.960 0.258 147 165 208 0 0
0.8653 1.4911 -0.1976 0.687 -0.725 -0.057 147 165 208 0 0
0.8692 1.4993 -0.1986 0.832 -0.551 -0.059 146 166 208 0 0
0.8708 1.4937 -0.1979 0.800 -0.580 -0.155 148 166 209 0 0
0.8745 1.5004 -0.1987 0.777 -0.598 -0.197 148 166 209 0 0
0.8809 1.5083 -0.1996 0.738 -0.663 -0.124 149 167 210 0 0
0.8842 1.5128 -0.2002 0.737 -0.662 -0.140 148 166 210 0 0
0.8871 1.5146 -0.2004 0.648 -0.760 -0.056 147 166 210 0 0
0.9042 1.5378 -0.2032 0.310 -0.859 0.407 145 163 206 0 0
0.9068 1.5380 -0.2032 0.226 -0.894 0.386 146 163 206 0 0
0.9097 1.5397 -0.2034 0.420 -0.827 0.373 146 163 206 0 0
0.9125 1.5412 -0.2035 0.456 -0.825 0.334 147 164 207 0 0
0.9162 1.5469 -0.2042 0.762 -0.647 0.034 147 166 208 0 0
0.9195 1.5503 -0.2046 0.773 -0.632 -0.060 146 164 207 0 0
0.9294 1.5615 -0.2060 0.663 -0.748 0.034 146 164 207 0 0
0.9327 1.5647 -0.2063 0.612 -0.772 0.171 145 165 207 0 0
0.9359 1.5678 -0.2067 0.476 -0.831 0.288 146 164 207 0 0
0.9389 1.5700 -0.2070 0.575 -0.817 0.042 146 163 206 0 0
0.9421 1.5725 -0.2072 0.710 -0.703 -0.036 143 160 203 0 0
0.9456 1.5769 -0.2078 0.691 -0.720 0.064 141 159 202 0 0
0.9488 1.5800 -0.2081 0.691 -0.720 0.064 144 163 205 0 0
0.9519 1.5823 -0.2084 0.731 -0.682 0.001 144 164 205 0 0
0.9556 1.5870 -0.2090 0.753 -0.651 0.095 143 163 205 0 0
0.9587 1.5894 -0.2092 0.691 -0.720 0.064 143 159 202 0 0
0.9619 1.5924 -0.2096 0.666 -0.745 -0.044 142 160 202 0 0
0.9652 1.5954 -0.2099 0.692 -0.721 -0.036 142 159 202 0 0
0.9684 1.5982 -0.2103 0.746 -0.663 -0.055 142 159 202 0 0
0.9718 1.6014 -0.2106 0.685 -0.705 -0.184 144 161 204 0 0
0.9752 1.6048 -0.2110 0.685 -0.705 -0.184 144 161 204 0 0
0.9786 1.6085 -0.2115 0.693 -0.703 -0.158 143 161 204 0 0
0.9821 1.6123 -0.2119 0.720 -0.678 -0.146 144 161 204 0 0
0.9858 1.6171 -0.2125 0.684 -0.726 -0.075 144 160 203 0 0
0.9896 1.6220 -0.2131 0.581 -0.811 0.072 143 159 201 0 0
0.9927 1.6240 -0.2133 0.491 -0.856 0.160 141 159 201 0 0
0.9961 1.6274 -0.2137 0.545 -0.768 0.338 141 158 201 0 0
0.9993 1.6295 -0.2140 0.633 -0.761 0.145 142 160 202 0 0
1.0026 1.6326 -0.2143 0.749 -0.660 0.068 142 160 203 0 0
1.0063 1.6366 -0.2148 0.749 -0.660 0.068 142 160 203 0 0
1.0098 1.6404 -0.2153 0.731 -0.656 -0.187 142 159 202 0 0
1.0131 1.6430 -0.2155 0.617 -0.766 -0.180 141 158 200 0 0
1.0169 1.6480 -0.2162 0.654 -0.752 -0.085 140 158 200 0 0
1.0204 1.6510 -0.2165 0.508 -0.769 -0.387 140 156 198 0 0
1.0232 1.6517 -0.2166 0.437 -0.721 -0.538 138 154 196 0 0
1.0267 1.6551 -0.2170 0.549 -0.695 -0.465 138 156 198 0 0
1.0305 1.6596 -0.2175 0.686 -0.690 -0.230 140 157 200 0 0
1.0337 1.6618 -0.2177 0.649 -0.708 -0.279 140 157 200 0 0
1.0373 1.6656 -0.2182 0.567 -0.752 -0.337 139 158 200 0 0
-0.4655 1.4830 -0.2155 -0.740 -0.654 -0.160 137 106 132 0 0
-0.4496 1.4758 -0.2144 -0.616 -0.456 0.643 126 91 114 0 0
-0.3933 1.7926 -0.2554 0.094 -0.929 -0.358 83 50 60 0 0
-0.1111 1.6363 -0.2314 -0.138 -0.327 0.935 96 69 80 0 0
0.0384 1.4493 -0.2049 0.283 -0.431 0.857 136 92 114 0 0
0.0406 1.4521 -0.2053 0.524 -0.361 0.772 136 92 110 0 0
0.0575 1.4768 -0.2083 0.934 -0.284 -0.217 133 84 101 0 0
0.0588 1.4824 -0.2090 0.929 -0.308 -0.207 132 84 101 0 0
0.0602 1.4878 -0.2097 0.892 -0.436 -0.116 133 84 101 0 0
0.0557 1.5207 -0.2141 0.003 -0.121 0.993 129 81 97 0 0
0.0590 1.5205 -0.2140 0.000 -0.124 0.992 131 82 98 0 0
0.2744 1.4210 -0.1983 0.353 -0.925 -0.143 123 70 81 0 0
0.2766 1.4245 -0.1988 0.875 -0.483 0.025 118 67 76 0 0
0.2787 1.4285 -0.1992 0.871 -0.490 0.040 118 66 74 0 0
0.2825 1.4384 -0.2005 0.942 -0.331 -0.052 113 65 68 0 0
0.2847 1.4420 -0.2010 0.899 -0.417 0.138 116 66 72 0 0
0.2868 1.4463 -0.2015 0.863 -0.473 0.176 116 66 72 0 0
0.2891 1.4496 -0.2019 0.680 -0.661 0.318 114 65 73 0 0
0.2908 1.4555 -0.2027 0.624 -0.781 0.037 117 68 77 0 0
0.2934 1.4577 -0.2029 0.573 -0.819 -0.014 119 68 78 0 0
0.2960 1.4595 -0.2031 0.573 -0.819 -0.014 115 65 72 0 0
0.2984 1.4622 -0.2034 0.712 -0.700 -0.054 111 63 71 0 0
0.3007 1.4656 -0.2039 0.798 -0.603 0.000 108 62 70 0 0
0.3031 1.4689 -0.2043 0.816 -0.579 -0.007 103 59 67 0 0
0.3053 1.4732 -0.2048 0.842 -0.530 0.099 100 59 68 0 0
0.3076 1.4768 -0.2052 0.842 -0.530 0.099 99 59 69 0 0
0.3099 1.4802 -0.2057 0.862 -0.487 0.142 97 58 67 0 0
0.3122 1.4840 -0.2061 0.813 -0.553 0.180 95 55 63 0 0
0.3146 1.4872 -0.2065 0.837 -0.544 0.061 96 54 62 0 0
0.3170 1.4908 -0.2070 0.837 -0.544 0.061 96 54 63 0 0
0.3193 1.4946 -0.2075 0.894 -0.444 -0.054 93 55 62 0 0
0.3215 1.4992 -0.2080 0.894 -0.444 -0.054 91 54 60 0 0
0.3285 1.5115 -0.2096 0.817 -0.572 -0.069 89 54 61 0 0
0.3309 1.5151 -0.2100 0.415 -0.592 0.691 86 53 63 0 0
0.3337 1.5168 -0.2102 0.415 -0.592 0.691 84 51 62 0 0
0.3364 1.5184 -0.2104 0.690 -0.396 0.606 83 50 60 0 0
0.3390 1.5214 -0.2107 0.791 -0.289 0.540 84 50 60 0 0
0.3415 1.5246 -0.2111 0.821 -0.216 0.529 86 51 61 0 0
0.6945 1.3459 -0.1833 0.440 -0.888 0.131 115 92 112 0 0
0.6969 1.3452 -0.1832 0.714 -0.694 0.094 119 98 115 0 0
0.6995 1.3477 -0.1835 0.689 -0.717 0.108 121 99 117 0 0
0.7021 1.3506 -0.1838 0.710 -0.669 0.220 128 109 127 0 0
0.7123 1.3564 -0.1845 0.637 -0.474 0.608 116 93 110 0 0
0.7148 1.3575 -0.1846 0.719 -0.398 0.570 113 92 109 0 0
0.7175 1.3617 -0.1851 0.681 -0.400 0.614 117 96 112 0 0
0.7204 1.3668 -0.1857 0.739 -0.414 0.531 119 97 111 0 0
0.7371 1.4170 -0.1921 0.544 -0.835 -0.087 107 90 107 0 0
0.7400 1.4211 -0.1926 0.373 -0.904 -0.207 108 91 110 0 0
0.7426 1.4227 -0.1928 0.279 -0.904 -0.324 111 94 111 0 0
0.7511 1.3828 -0.1875 0.715 -0.699 -0.001 69 66 86 0 0
0.7790 1.4560 -0.1967 -0.791 -0.609 -0.063 39 30 37 0 0
0.7899 1.4417 -0.1947 -0.466 -0.869 0.166 95 101 136 0 0
0.7948 1.4401 -0.1945 0.275 -0.953 0.125 31 32 53 0 0
0.8003 1.4439 -0.1949 0.544 -0.824 0.158 98 114 145 0 0
0.8030 1.4457 -0.1951 0.544 -0.824 0.158 87 101 140 0 0
0.8653 1.4918 -0.2004 0.683 -0.722 -0.111 148 166 209 0 0
0.8673 1.4886 -0.1999 0.795 -0.560 -0.234 147 165 208 0 0
0.8708 1.4946 -0.2007 0.800 -0.580 -0.155 149 166 209 0 0
0.8745 1.5010 -0.2015 0.674 -0.669 -0.313 149 165 209 0 0
0.8778 1.5055 -0.2020 0.624 -0.708 -0.331 150 167 210 0 0
0.8809 1.5088 -0.2024 0.738 -0.663 -0.124 150 169 212 0 0
0.8839 1.5114 -0.2027 0.661 -0.736 -0.146 149 168 212 0 0
0.8870 1.5142 -0.2031 0.661 -0.736 -0.146 147 167 212 0 0
0.8900 1.5170 -0.2034 0.661 -0.736 -0.146 146 167 213 0 0
0.8931 1.5198 -0.2037 0.645 -0.753 -0.127 147 167 211 0 0
0.8973 1.5290 -0.2049 0.616 -0.771 0.164 149 166 210 0 0
0.9003 1.5313 -0.2052 0.616 -0.771 0.164 149 166 210 0 0
0.9038 1.5362 -0.2058 0.408 -0.776 0.481 148 166 209 0 0
0.9061 1.5348 -0.2055 0.623 -0.725 0.294 147 164 207 0 0
0.9092 1.5375 -0.2059 0.552 -0.777 0.304 146 163 206 0 0
0.9122 1.5396 -0.2061 0.552 -0.777 0.304 146 163 206 0 0
0.9160 1.5463 -0.2069 0.773 -0.632 -0.060 146 164 207 0 0
0.9194 1.5505 -0.2074 0.773 -0.632 -0.060 146 163 206 0 0
0.9293 1.5610 -0.2087 0.679 -0.734 -0.008 146 164 207 0 0
0.9325 1.5641 -0.2091 0.663 -0.748 0.034 145 163 206 0 0
0.9356 1.5668 -0.2094 0.663 -0.748 0.034 144 162 204 0 0
0.9388 1.5696 -0.2097 0.601 -0.798 0.044 143 161 203 0 0
0.9420 1.5726 -0.2101 0.710 -0.703 -0.036 142 161 203 0 0
0.9453 1.5759 -0.2105 0.710 -0.703 -0.036 143 161 204 0 0
0.9486 1.5793 -0.2109 0.707 -0.703 0.081 144 163 206 0 0
0.9518 1.5822 -0.2112 0.731 -0.682 0.001 145 164 206 0 0
0.9553 1.5864 -0.2117 0.753 -0.651 0.095 142 160 203 0 0
0.9585 1.5889 -0.2120 0.699 -0.714 0.035 140 157 200 0 0
0.9618 1.5921 -0.2124 0.639 -0.766 0.075 138 157 200 0 0
0.9651 1.5954 -0.2128 0.693 -0.715 0.095 138 158 200 0 0
0.9684 1.5984 -0.2131 0.746 -0.663 -0.055 142 160 203 0 0
0.9719 1.6023 -0.2136 0.685 -0.705 -0.184 144 162 205 0 0
0.9753 1.6057 -0.2140 0.685 -0.705 -0.184 144 164 206 0 0
0.9787 1.6092 -0.2144 0.693 -0.703 -0.158 144 162 205 0 0
0.9822 1.6131 -0.2149 0.696 -0.698 -0.169 143 160 203 0 0
0.9857 1.6171 -0.2154 0.680 -0.733 -0.004 142 159 201 0 0
0.9894 1.6217 -0.2160 0.491 -0.856 0.160 140 158 198 0 0
0.9925 1.6234 -0.2161 0.491 -0.856 0.160 140 158 200 0 0
0.9958 1.6262 -0.2165 0.565 -0.820 0.090 141 158 201 0 0
0.9989 1.6282 -0.2167 0.603 -0.770 0.208 141 159 201 0 0
1.0025 1.6324 -0.2172 0.731 -0.680 0.061 142 163 205 0 0
1.0061 1.6363 -0.2177 0.750 -0.638 -0.174 143 163 206 0 0
1.0096 1.6400 -0.2181 0.689 -0.637 -0.345 144 162 204 0 0
1.0127 1.6417 -0.2183 0.646 -0.612 -0.455 143 161 204 0 0
1.0165 1.6463 -0.2189 0.682 -0.622 -0.385 144 161 203 0 0
1.0204 1.6514 -0.2195 0.576 -0.689 -0.440 142 159 202 0 0
1.0238 1.6545 -0.2198 0.437 -0.721 -0.538 139 156 198 0 0
1.0270 1.6566 -0.2201 0.437 -0.721 -0.538 140 157 199 0 0
1.0307 1.6608 -0.2206 0.686 -0.690 -0.230 142 160 202 0 0
1.0340 1.6633 -0.2209 0.649 -0.708 -0.279 143 161 204 0 0
1.0376 1.6672 -0.2213 0.535 -0.729 -0.428 143 162 205 0 0
-0.4636 1.4857 -0.2191 -0.514 -0.387 0.766 131 102 130 0 0
-0.4519 1.4736 -0.2174 -0.514 -0.387 0.766 126 98 126 0 0
-0.4415 1.4634 -0.2159 -0.603 -0.457 0.654 123 95 124 0 0
-0.4020 1.7932 -0.2593 0.338 -0.842 0.421 98 60 75 0 0
-0.3805 1.7919 -0.2589 -0.365 -0.931 0.015 105 64 75 0 0
0.0304 1.4277 -0.2051 -0.063 -0.404 0.913 120 75 89 0 0
0.0314 1.4336 -0.2059 0.048 -0.313 0.949 124 79 95 0 0
0.0334 1.4368 -0.2063 0.310 -0.258 0.915 129 83 100 0 0
0.0347 1.4419 -0.2070 0.483 -0.175 0.858 131 86 103 0 0
0.0367 1.4451 -0.2074 0.467 -0.184 0.865 131 86 104 0 0
0.0418 1.4485 -0.2078 0.524 -0.361 0.772 133 87 103 0 0
0.0506 1.4595 -0.2091 0.895 -0.187 0.406 141 97 117 0 0
0.0965 1.4350 -0.2053 0.991 -0.089 0.104 135 92 110 0 0
0.1383 1.5034 -0.2139 -0.523 -0.810 -0.265 119 76 85 0 0
0.1542 1.4918 -0.2121 -0.449 -0.884 0.126 128 82 94 0 0
0.2715 1.4208 -0.2012 -0.081 -0.783 -0.616 127 75 89 0 0
0.2747 1.4194 -0.2010 -0.022 -0.686 -0.728 122 70 80 0 0
0.2766 1.4239 -0.2015 0.899 -0.435 0.037 117 65 74 0 0
0.2787 1.4282 -0.2021 0.871 -0.490 0.040 114 61 69 0 0
0.2807 1.4324 -0.2026 0.841 -0.485 0.240 112 62 66 0 0
0.2827 1.4369 -0.2032 0.905 -0.357 0.232 106 61 61 0 0
0.2847 1.4417 -0.2038 0.915 -0.374 0.152 107 63 64 0 0
0.2918 1.4502 -0.2048 0.649 -0.601 0.466 108 59 66 0 0
0.2943 1.4526 -0.2051 0.649 -0.601 0.466 106 60 68 0 0
0.2965 1.4563 -0.2056 0.680 -0.624 0.385 96 57 64 0 0
0.2989 1.4591 -0.2059 0.792 -0.477 0.380 88 55 61 0 0
0.3057 1.4707 -0.2074 0.840 -0.351 0.413 79 55 61 0 0
0.3080 1.4741 -0.2078 0.671 -0.377 0.639 78 57 66 0 0
0.3105 1.4765 -0.2081 0.610 -0.349 0.712 83 59 68 0 0
0.3129 1.4800 -0.2085 0.528 -0.222 0.820 89 58 68 0 0
0.3168 1.4749 -0.2078 0.711 -0.192 0.677 89 57 67 0 0
0.3190 1.4793 -0.2084 0.558 -0.219 0.801 85 56 66 0 0
0.3211 1.4841 -0.2090 0.462 -0.225 0.858 83 57 65 0 0
0.3232 1.4894 -0.2097 0.466 -0.226 0.856 80 57 64 0 0
0.3254 1.4936 -0.2102 0.470 -0.246 0.848 78 56 64 0 0
0.3279 1.4969 -0.2106 0.470 -0.246 0.848 78 56 63 0 0
0.3302 1.5011 -0.2111 0.496 -0.236 0.836 79 55 63 0 0
0.3325 1.5052 -0.2116 0.512 -0.226 0.829 80 56 65 0 0
0.3349 1.5089 -0.2121 0.512 -0.226 0.829 76 54 64 0 0
0.6944 1.3455 -0.1858 0.440 -0.888 0.131 114 92 109 0 0
0.6968 1.3448 -0.1856 0.689 -0.717 0.108 119 98 118 0 0
0.6994 1.3472 -0.1859 0.689 -0.717 0.108 120 97 117 0 0
0.7020 1.3498 -0.1862 0.651 -0.747 0.133 125 102 121 0 0
0.7225 1.3642 -0.1879 0.886 -0.334 0.322 110 90 106 0 0
0.7370 1.4168 -0.1947 0.441 -0.875 -0.199 107 90 108 0 0
0.7399 1.4208 -0.1952 0.389 -0.864 -0.320 107 89 108 0 0
0.7426 1.4231 -0.1955 0.205 -0.914 -0.351 109 89 106 0 0
0.7511 1.3827 -0.1900 0.715 -0.699 -0.001 74 71 92 0 0
0.7921 1.4394 -0.1970 -0.560 -0.801 -0.211 48 45 76 0 0
0.7947 1.4403 -0.1971 0.452 -0.867 -0.208 36 41 67 0 0
0.7973 1.4412 -0.1972 0.446 -0.895 0.004 68 82 108 0 0
0.8590 1.4849 -0.2023 -0.552 -0.770 0.321 147 167 209 0 0
0.8653 1.4923 -0.2032 0.722 -0.691 -0.033 146 166 208 0 0
0.8675 1.4900 -0.2028 0.795 -0.560 -0.234 147 165 208 0 0
0.8716 1.4995 -0.2040 0.700 -0.686 -0.197 149 166 209 0 0
0.8747 1.5027 -0.2044 0.700 -0.686 -0.197 149 166 209 0 0
0.8778 1.5058 -0.2048 0.603 -0.765 -0.226 148 167 210 0 0
0.8809 1.5091 -0.2052 0.730 -0.683 -0.021 150 170 212 0 0
0.8841 1.5130 -0.2057 0.763 -0.645 0.055 151 169 214 0 0
0.8870 1.5149 -0.2059 0.648 -0.760 -0.056 150 168 214 0 0
0.8901 1.5177 -0.2062 0.621 -0.781 -0.067 148 168 212 0 0
0.8931 1.5204 -0.2066 0.661 -0.736 -0.146 146 167 212 0 0
0.8972 1.5287 -0.2076 0.396 -0.732 0.555 147 167 211 0 0
0.9000 1.5298 -0.2077 0.537 -0.802 0.260 148 167 210 0 0
0.9033 1.5341 -0.2083 0.272 -0.826 0.493 149 166 209 0 0
0.9059 1.5341 -0.2082 0.653 -0.733 0.193 148 164 208 0 0
0.9096 1.5399 -0.2089 0.721 -0.666 0.191 145 163 205 0 0
0.9126 1.5422 -0.2092 0.789 -0.591 0.167 144 163 205 0 0
0.9160 1.5466 -0.2098 0.789 -0.591 0.167 145 164 206 0 0
0.9193 1.5503 -0.2102 0.738 -0.642 0.208 145 163 206 0 0
0.9228 1.5548 -0.2108 0.687 -0.714 0.136 145 165 207 0 0
0.9259 1.5578 -0.2111 0.691 -0.720 0.064 148 166 208 0 0
0.9292 1.5610 -0.2115 0.663 -0.748 0.034 148 167 209 0 0
0.9324 1.5639 -0.2119 0.647 -0.760 -0.067 147 165 208 0 0
0.9355 1.5666 -0.2122 0.647 -0.760 -0.067 145 163 206 0 0
0.9387 1.5693 -0.2125 0.647 -0.760 -0.067 144 161 205 0 0
0.9420 1.5731 -0.2130 0.691 -0.720 0.064 142 161 204 0 0
0.9452 1.5760 -0.2133 0.710 -0.703 -0.036 143 162 205 0 0
0.9485 1.5792 -0.2137 0.691 -0.720 0.064 144 163 206 0 0
0.9517 1.5821 -0.2140 0.731 -0.682 0.001 145 164 207 0 0
0.9553 1.5864 -0.2146 0.779 -0.618 0.106 142 160 203 0 0
0.9583 1.5886 -0.2148 0.691 -0.720 0.064 140 157 200 0 0
0.9617 1.5919 -0.2152 0.684 -0.729 -0.028 139 156 200 0 0
0.9651 1.5955 -0.2157 0.692 -0.721 -0.036 138 156 199 0 0
0.9684 1.5987 -0.2160 0.736 -0.677 -0.020 141 158 201 0 0
0.9717 1.6018 -0.2164 0.720 -0.693 0.030 143 162 204 0 0
0.9751 1.6053 -0.2168 0.720 -0.693 0.030 144 163 206 0 0
0.9786 1.6093 -0.2173 0.729 -0.683 0.050 144 161 204 0 0
0.9821 1.6129 -0.2178 0.729 -0.683 0.050 143 159 202 0 0
0.9856 1.6166 -0.2182 0.715 -0.698 0.029 142 160 202 0 0
0.9893 1.6213 -0.2188 0.551 -0.765 0.334 140 158 198 0 0
0.9921 1.6221 -0.2189 0.102 -0.923 0.371 139 156 198 0 0
0.9954 1.6250 -0.2192 0.547 -0.787 0.287 140 158 201 0 0
0.9986 1.6273 -0.2195 0.617 -0.744 0.256 142 159 202 0 0
1.0023 1.6319 -0.2200 0.738 -0.674 -0.016 142 160 202 0 0
1.0062 1.6370 -0.2207 0.722 -0.651 -0.233 143 161 203 0 0
1.0100 1.6418 -0.2213 0.620 -0.507 -0.600 141 160 202 0 0
1.0131 1.6438 -0.2215 0.646 -0.742 -0.180 141 160 201 0 0
1.0165 1.6468 -0.2218 0.703 -0.689 -0.179 143 162 201 0 0
1.0200 1.6502 -0.2222 0.722 -0.688 -0.079 142 159 201 0 0
1.0235 1.6536 -0.2227 0.714 -0.698 -0.048 139 156 199 0 0
1.0270 1.6572 -0.2231 0.620 -0.782 -0.064 140 157 200 0 0
1.0307 1.6610 -0.2236 0.714 -0.698 -0.048 142 159 202 0 0
1.0342 1.6646 -0.2240 0.722 -0.691 -0.022 144 161 204 0 0
1.0378 1.6682 -0.2244 0.682 -0.729 0.056 144 161 204 0 0
-0.5039 1.4475 -0.2178 -0.049 -0.580 -0.813 101 57 71 0 0
-0.5111 1.4735 -0.2214 0.814 0.054 -0.579 105 62 76 0 0
-0.5115 1.4795 -0.2222 0.805 0.026 -0.593 107 64 80 0 0
-0.4879 1.4614 -0.2195 0.006 -0.399 0.917 119 78 99 0 0
-0.4690 1.4553 -0.2184 -0.259 -0.410 0.875 132 95 117 0 0
-0.4706 1.4631 -0.2194 0.485 -0.412 0.772 136 99 122 0 0
-0.4687 1.4657 -0.2198 0.189 -0.182 0.965 141 105 128 0 0
-0.3953 1.4038 -0.2105 -0.568 -0.649 -0.506 142 114 138 0 0
-0.3590 1.3746 -0.2060 0.240 -0.166 -0.957 141 111 135 0 0
-0.3590 1.3800 -0.2068 0.210 -0.189 -0.959 139 110 135 0 0
-0.3490 1.4078 -0.2104 -0.019 -0.129 0.991 120 85 111 0 0
-0.3457 1.4080 -0.2104 -0.032 -0.131 0.991 118 81 107 0 0
-0.3415 1.4067 -0.2101 -0.078 -0.187 0.979 117 79 105 0 0
-0.3398 1.4096 -0.2105 -0.090 -0.171 0.981 114 76 102 0 0
-0.3345 1.4067 -0.2101 -0.047 -0.185 0.982 111 72 95 0 0
-0.3301 1.4050 -0.2098 -0.084 -0.192 0.978 111 71 91 0 0
-0.3267 1.4052 -0.2098 -0.147 -0.202 0.968 110 69 91 0 0
-0.3221 1.4033 -0.2094 -0.240 -0.260 0.935 110 69 90 0 0
-0.3872 1.7968 -0.2634 -0.071 -0.995 -0.072 105 63 78 0 0
-0.3806 1.7919 -0.2627 -0.365 -0.931 0.015 104 63 76 0 0
-0.3702 1.7798 -0.2609 -0.616 -0.786 0.046 102 61 74 0 0
-0.3643 1.7761 -0.2603 -0.482 -0.796 0.366 99 61 74 0 0
-0.3602 1.7761 -0.2603 -0.601 -0.795 0.080 93 61 73 0 0
-0.3538 1.7717 -0.2596 -0.512 -0.854 0.090 85 58 67 0 0
-0.0117 1.3607 -0.1996 0.483 0.041 0.875 66 50 61 0 0
-0.0109 1.3661 -0.2003 0.483 0.041 0.875 62 46 57 0 0
0.0035 1.3840 -0.2026 0.389 -0.043 0.920 58 43 50 0 0
0.0113 1.4037 -0.2051 -0.021 -0.092 0.996 74 51 58 0 0
0.0813 1.4621 -0.2121 -0.273 -0.143 0.951 135 92 116 0 0
0.0974 1.4415 -0.2091 0.992 -0.086 0.093 144 103 125 0 0
0.0983 1.4486 -0.2100 0.992 -0.087 0.086 146 107 127 0 0
0.1213 1.4753 -0.2133 0.766 -0.309 0.564 139 97 116 0 0
0.1471 1.4946 -0.2156 -0.658 -0.752 0.042 121 88 97 0 0
0.1645 1.4770 -0.2130 -0.458 -0.402 0.793 123 83 95 0 0
0.2124 1.4577 -0.2098 -0.037 -0.964 0.264 136 84 101 0 0
0.2161 1.4549 -0.2093 -0.423 -0.835 -0.352 137 84 102 0 0
0.2650 1.4234 -0.2045 -0.144 -0.725 -0.674 124 72 84 0 0
0.2869 1.4303 -0.2051 0.534 -0.229 0.814 99 60 61 0 0
0.2891 1.4338 -0.2055 0.555 -0.179 0.812 101 61 63 0 0
0.2912 1.4379 -0.2061 0.555 -0.179 0.812 96 57 61 0 0
0.2934 1.4418 -0.2066 0.512 -0.192 0.837 94 57 62 0 0
0.2956 1.4456 -0.2070 0.512 -0.192 0.837 92 59 62 0 0
0.2975 1.4511 -0.2078 0.480 -0.191 0.857 86 57 60 0 0
0.2995 1.4557 -0.2084 0.454 -0.218 0.864 82 56 59 0 0
0.3014 1.4615 -0.2091 0.495 -0.234 0.837 79 56 58 0 0
0.3039 1.4641 -0.2094 0.448 -0.273 0.851 76 55 58 0 0
0.3062 1.4676 -0.2099 0.593 -0.276 0.756 72 55 61 0 0
0.3088 1.4695 -0.2101 0.466 -0.263 0.845 69 56 64 0 0
0.3111 1.4731 -0.2106 0.421 -0.228 0.878 76 60 67 0 0
0.3136 1.4757 -0.2109 0.305 -0.225 0.925 83 62 69 0 0
0.3199 1.4737 -0.2105 0.549 -0.211 0.809 75 59 69 0 0
0.3221 1.4778 -0.2110 0.536 -0.205 0.819 70 58 68 0 0
0.3240 1.4841 -0.2119 0.538 -0.199 0.819 70 58 68 0 0
0.3263 1.4883 -0.2124 0.477 -0.228 0.849 67 59 70 0 0
0.3287 1.4917 -0.2128 0.477 -0.228 0.849 67 59 70 0 0
0.3310 1.4959 -0.2134 0.532 -0.211 0.820 72 60 71 0 0
0.3333 1.4999 -0.2139 0.532 -0.211 0.820 74 62 73 0 0
0.3356 1.5038 -0.2144 0.473 -0.221 0.853 74 63 74 0 0
0.3379 1.5083 -0.2150 0.506 -0.214 0.835 75 63 77 0 0
0.3471 1.5266 -0.2173 0.616 -0.123 0.778 89 68 82 0 0
