ply
format ascii 1.0
element vertex 723
property float x
property float y
property float z
property uchar red
property uchar green
property uchar blue
end_header
-71.79606278647682 92.0475504576426 22.943120654864185 111 88 109
-234.50407992167717 77.34258940638325 52.47190852600379 104 79 91
-234.7776258027743 77.86132691173675 52.57237224671733 102 77 89
-234.9797701661061 78.35864646506893 52.657200798285324 113 88 102
-235.10990292924896 78.83396422388593 52.72622335339433 113 91 105
-235.50272805448998 80.26867581653589 52.93456838269516 81 67 78
-235.78119792620276 80.79897193911633 53.03704682444092 61 45 58
-235.91366468047448 81.28200351375995 53.10723197522954 64 43 54
-235.38492273759553 81.542594710509 53.03038998965234 93 64 76
-223.16828834164332 83.74914530761737 50.90062195012389 103 82 101
-86.01103143066948 97.86472481139684 25.999532828911345 107 80 98
-85.58855050889662 97.72545860713099 25.90585539049938 103 76 95
-85.25358959721007 97.68001843133712 25.837619601644857 99 73 93
-84.93428183738314 97.65025746791432 25.77383176352254 100 74 93
-84.60243510575656 97.60521043124267 25.70622764866441 99 73 91
-84.24442998331027 97.52964467291731 25.630789457369833 96 70 85
-83.77833364066917 97.33219189080357 25.523371613853 93 68 84
-72.80176408240918 92.35722373655136 22.963495877290313 105 77 98
-72.3899708305584 92.15851889545759 22.866339661911933 105 79 101
-71.98145861424058 91.961400557521 22.769957861207175 107 84 105
-71.63957133100051 91.84309925643747 22.693630225753033 113 89 111
-234.24389332454948 77.25455472779682 51.98545087300369 99 75 87
-234.51654508926285 77.77247170248494 52.08475571554254 99 73 86
-234.71795296448983 78.26901886604239 52.168587138225995 104 80 94
-235.3116975425243 80.200472851984 52.458704059884994 89 68 83
-235.51623894233586 80.70560861944 52.54391908908928 98 74 90
-235.64812134667383 81.18789780766016 52.61325662879382 111 85 98
-235.12037194654468 81.44829014433724 52.53711959785479 112 86 100
-101.80046308745756 50.393313296546914 24.40268861138017 76 49 62
-103.407709516023 74.92069186928273 26.961913830318473 100 76 94
-103.31760700863619 75.13615059457408 26.964632813803515 104 81 98
-99.13163445128927 104.60365402708824 28.879431021551778 115 92 113
-86.87955518713305 98.14863601799455 25.96288478215989 108 83 105
-86.451266650815 98.00746688762763 25.868697451936292 105 81 102
-86.04020648724178 97.88286792768767 25.779300012722736 102 76 95
-85.617561111763 97.74352003694702 25.686350133867464 99 73 91
-85.2966091614214 97.71352905589488 25.62273491384635 105 81 97
-84.97710865776911 97.68368965420932 25.55940884818028 107 80 96
-84.65902442563055 97.65397288244922 25.496362606070424 105 80 96
-84.31458199445888 97.59362164351822 25.42550254979723 101 74 90
-83.84791183080655 97.39578956354923 25.31882909930053 96 70 85
-72.63077477485544 92.1372064195812 22.708499117558258 111 83 104
-72.23137072792419 91.95282698103411 22.615817110566486 104 80 103
-71.83502698411826 91.7698620852482 22.52384541423318 111 89 111
-233.8568986188579 76.69766492829795 51.43353967118118 93 72 84
-233.9843240734071 77.16672914503725 51.50016921060371 87 67 77
-234.3281423739729 77.70716051621962 51.61399830026032 94 70 83
-235.2519205307007 80.61247118338643 52.05199900991247 121 106 120
-235.31005264443183 81.06939319633723 52.104488377597626 112 91 103
-234.85646028948221 81.35421359185365 52.045057430950656 108 81 95
-104.15451544215068 73.76433404681758 26.76626979399676 66 51 61
-104.37477128620306 77.56586247440107 27.153422372563128 109 82 98
-87.31107710508537 98.27748262617679 25.826827199033733 109 82 105
-86.87992955940553 98.13541480454552 25.732796889297152 113 86 109
-86.46615725192589 98.01000059370655 25.643549833024917 108 82 103
-86.05504913978476 97.88539347509139 25.554877381729288 101 75 92
-85.64657646121285 97.76158227441664 25.466773108341904 98 73 89
-85.32551916523836 97.73155814985547 25.403643153907097 106 80 96
-85.03402861162688 97.73261918690658 25.34890242916951 100 76 90
-84.71566445685613 97.70277819997433 25.286295781868617 101 76 93
-84.38481540511056 97.65767130598347 25.21995208568135 104 78 94
-83.91757640925823 97.45946584126827 25.114026764009804 104 74 90
-83.44037194662005 97.24760281767624 25.004984631591142 102 73 89
-72.4713828599961 91.93124795336377 22.457945566777035 102 75 98
-72.08415910136262 91.76098271936603 22.369614189635225 105 81 103
-71.69978547005432 91.59197139877126 22.28193303084831 109 85 107
-233.67001460344477 76.63364707066442 50.96565094234173 92 69 84
-233.72537241049434 77.07911269932355 51.016059876042256 98 75 89
-234.7697783918464 80.44643433415558 51.51393071809941 87 69 83
-234.90008319194934 80.92670419660253 51.58145863294815 94 72 83
-103.29866272807301 52.906916171695435 24.499142969680562 115 70 85
-88.09294283405103 98.45526114112408 25.759069388669047 106 84 103
-87.64188147107795 98.29589002259708 25.66054731117532 105 81 99
-87.19405367989796 98.1376695191494 25.562732249447052 100 76 96
-86.79298876479969 98.02772335258456 25.477987885409377 101 75 97
-86.39439579018072 97.91846504364919 25.393766757005906 107 80 101
-85.99822554399299 97.80985950822979 25.310056523122398 104 76 93
-85.60448165443647 97.70192879714668 25.22685984475544 104 76 90
-85.29785386667946 97.687550205763 25.168338704274248 103 75 90
-85.00656160495511 97.68870121222307 25.11407686463822 100 75 91
-84.70238914803217 97.67440098952775 25.056021025939216 101 75 91
-84.38558041883539 97.64477302007965 24.994227822127897 103 76 94
-83.95974258298845 97.4925715384598 24.901058373811154 106 79 96
-72.53837446225414 91.99844501034003 22.27513871880971 112 84 107
-72.13994677266423 91.8148831777661 22.18426357137015 103 77 100
-71.75515157680543 91.64557951441229 22.097215492333522 103 79 101
-233.48346782464313 76.56974476397376 50.498609515731246 125 102 118
-233.467068379389 76.99171502669024 50.53312557796041 122 99 116
-234.36217543472674 80.30536601385865 50.99374023270255 99 76 88
-234.41898575961537 80.7600951329426 51.044725934914844 115 91 104
-229.33273029256773 82.92388023281164 50.29559841810762 106 78 99
-99.28162686277359 104.36512423807224 28.125555273902286 116 92 111
-87.52412484086939 98.15575286484133 25.396136903424892 99 75 96
-87.07736737892954 97.99825969915928 25.299406755968626 104 78 97
-86.6917488055021 97.90459329377578 25.21967621920919 106 79 97
-86.30837036937426 97.81147314014203 25.140409042530433 109 82 101
-85.92720471241189 97.71888590328315 25.06159897402571 108 80 98
-85.54824563935948 97.62684106717464 24.983245710687275 107 79 94
-85.25609270004605 97.62810199160732 24.92926760917808 98 70 86
-84.97911196044613 97.64481546404652 24.879473712494036 100 75 90
-84.68912542468662 97.64604531471512 24.82589394189897 101 75 91
-84.37244312039003 97.61648563697143 24.76463156784334 105 80 96
-83.9881494120502 97.51038284590366 24.68403957280575 105 80 95
-72.60546550621534 92.06574258830783 22.092072033613434 110 83 103
-72.20649662079843 91.88179148501453 22.001835080191412 105 78 100
-71.8105827481847 91.69925119880354 21.912289296119617 102 77 99
-233.20938242802336 76.90452657473556 50.05135617602693 100 83 101
-233.47852250476126 77.41919536074981 50.14608502737791 88 70 86
-233.82786817705164 79.68818829233302 50.40995736475845 99 75 95
-233.9560675556453 80.16481508442335 50.4754536548351 113 90 107
-234.01227442725718 80.61853859142849 50.525712401406324 120 100 115
-231.7716046700602 82.03128613574061 50.23855552099577 116 88 104
-87.4067163332825 98.01602955926298 25.13250078393053 108 82 104
-86.96101839176256 97.8592531984648 25.036847852089387 101 76 96
-86.59076617437846 97.78177676503074 24.962030621437375 98 72 91
-86.22254356882365 97.70472751910742 24.88762373516634 107 82 101
-85.87059448402815 97.64363032203072 24.81760960636993 116 90 109
-85.50627891157124 97.56736471023528 24.743989232113158 112 83 100
-85.22850180095169 97.58420403373769 24.694456871359563 110 79 97
-84.95169543780482 97.60097926009159 24.64509714932117 108 80 95
-84.66189635751918 97.60228843127406 24.591989975084353 105 79 95
-84.35931219581785 97.58821404874647 24.535180743205892 103 77 93
-72.67265098964027 92.13313461108025 21.90874341232421 107 82 100
-72.27314065538275 91.94879437954651 21.81914682400863 103 77 96
-71.87669194333256 91.76586931102021 21.73023707206341 98 73 93
-233.02346734212654 76.84045306124197 49.58570312496919 82 58 74
-233.2205857161238 77.33141019912736 49.664345976395545 97 70 85
-233.49595398752658 79.57315053470806 49.90963991717467 116 99 119
-233.55142571859437 80.0247717349345 49.959056129692215 113 93 110
-233.60704213044514 80.47749692282012 50.00859479416572 108 85 104
-233.15845571876588 80.7606899226437 49.95152991156704 104 80 101
-160.12725785797977 139.37389980434907 41.75000458456836 54 45 55
-100.45411402668778 105.17159196752695 27.90268271047882 127 96 112
-87.30429404288915 97.8924467042145 24.873671395211698 107 82 104
-86.84501749292957 97.72066145939685 24.77505559266621 109 81 102
-86.490051589289 97.65928522377469 24.705051783241526 108 79 98
-86.15123981232186 97.61377209009956 24.639371446313902 108 81 100
-85.7998245509028 97.55298022160017 24.570065295374306 110 84 104
-85.4643564178044 97.5079541275808 24.50503643781893 109 83 101
-85.18683138890823 97.5248880540672 24.455955924753383 108 78 96
-84.92430681188252 97.55718683256573 24.410945358256868 107 77 94
-72.75076309631686 92.21368237014565 21.728262382873023 93 70 85
-72.32914802895179 92.00291029295731 21.633113464080335 90 70 82
-71.93226020560449 91.81967456723682 21.544865812405448 77 58 70
-43.452727181666624 90.77740683839811 16.2662516452302 38 51 76
-233.12247353349272 76.868104953459 49.180193306762256 114 88 105
-233.31984087337585 77.35926378564417 49.25812672290778 119 93 110
-233.55681975527935 78.72517045099278 49.418507605811456 126 99 119
-233.54040803096044 79.15115465557216 49.45220753646216 122 100 122
-233.45210365425388 79.55399868894405 49.470926796775466 110 89 110
-233.50750237585703 80.00545826812335 49.51979353964986 115 90 107
-109.30482797738517 62.79638182483069 25.59868373692943 87 47 55
-86.84539516912525 97.70754218393785 24.545754304719875 107 83 101
-86.50491578050773 97.66181443608576 24.480303484968086 113 88 105
-86.18041594434534 97.63186240486168 24.41909755535067 109 81 99
-85.84312329542654 97.5865310950532 24.354256611053575 104 77 98
-85.50744345941436 97.54140966542434 24.28972512098513 103 78 98
-85.2438685152909 97.57375749580719 24.244888828518988 108 82 101
-84.99516844296579 97.62143182198736 24.204059176654056 112 86 105
-84.73319923749406 97.65354468204082 24.159492771386116 110 82 101
-84.45814321672695 97.67014837931731 24.111227054202782 110 82 99
-72.62334897432666 92.046422406734 21.48897337343122 70 47 58
-72.21373345750378 91.84966586022428 21.398032353808123 57 40 45
-71.80736047371987 91.65446310470527 21.30781090492076 52 38 42
-47.08341239756523 93.15745186382783 16.970259159353944 145 162 205
-46.82598932721449 92.98236841496889 16.908680432037116 143 161 204
-46.599011906263215 92.86171410332688 16.857287162884173 144 161 204
-46.39611516798159 92.78418857054066 16.81395674510464 143 161 204
-46.13183488615983 92.59070128414525 16.74955506982359 142 160 202
-43.9704851667835 91.4644238499816 16.26212018910789 43 57 83
-233.41914265114053 77.38712987831404 48.85165909167773 124 96 113
-233.6174703552191 77.88027394779411 48.929161350263925 126 98 113
-233.67288834084957 78.32819904236806 48.97720877828498 126 98 116
-233.72844321957638 78.7772127130289 49.025373370714235 127 103 121
-233.5684027483589 79.15591808890314 49.02892415673692 122 100 118
-233.48011538492418 79.55876501716354 49.0473861744033 111 87 105
-86.8457680285217 97.6944220888777 24.31652584733721 99 74 93
-86.51977997172646 97.66434364839684 24.255555186694647 105 79 96
-86.19524665670312 97.63438592058651 24.19485546134488 105 76 91
-85.87218546468861 97.60457753739131 24.134432222207206 99 72 91
-85.55057153941937 97.5749013099732 24.074279552761435 103 78 99
-85.31507396398466 97.63813793212243 24.037464045489738 109 83 104
-85.0661223599173 97.68576081620877 23.996909126048052 106 81 103
-84.81787848314328 97.73323935825204 23.95646873505266 110 84 105
-84.55639722513905 97.76514537813632 23.912331258496632 110 82 100
-84.25412719550391 97.7507390836925 23.85694409956244 105 76 94
-83.92553147142324 97.70567766391498 23.79423117088982 101 74 93
-83.61219102303161 97.67613787857272 23.73557256678304 105 81 99
-83.28661410775166 97.63145434369792 23.673432710205923 111 85 100
-72.50716599285826 91.89275142202197 21.253602150570668 66 44 54
-72.09870752279512 91.6969379723499 21.163750589253898 55 37 43
-71.69348401538547 91.5026767974519 21.074610769090622 47 31 36
-48.12994701535007 94.15298717997231 17.077995976321528 149 167 211
-46.230279554036656 93.05617524429262 16.644274075871582 141 158 201
-44.32105653297037 91.82451215736148 16.197364426776478 44 64 89
-233.6453887726925 77.88502439833262 48.507031634270724 133 107 123
-233.84447412399325 78.37996754886905 48.58404449536092 128 102 121
-233.82832444825857 78.80563727905968 48.61698424330465 125 102 120
-103.75982257737887 107.73840249253095 27.93884569012038 130 99 114
-86.52019779308952 97.65125506651502 24.026926042252647 109 84 104
-86.22444050659561 97.65248890859579 23.974476199982533 110 83 100
-85.91553246377296 97.63816567120213 23.918380839037447 109 84 102
-85.59370907748347 97.60839456385546 23.858690977585454 110 85 104
-85.37223636545505 97.68711628413244 23.825959551699558 110 85 105
-85.13716334812074 97.75016804922954 23.78949323032561 112 88 108
-84.9026912881531 97.81305947284702 23.753120205429806 113 88 107
-84.65484160168775 97.86032677582529 23.71305570906502 108 83 99
-84.3520797832548 97.84571019467519 23.658027804173567 106 81 99
-84.02293127426684 97.80037226672813 23.595726771792787 105 81 100
-83.69535193510518 97.75525636312288 23.533723245763532 112 90 106
-83.36932199750365 97.71035131158833 23.472012773561467 116 91 106
-83.09910543007292 97.726710119309 23.425373692993222 117 91 107
-82.8433395209834 97.7582658120057 23.382580811687156 120 96 111
-72.82359807707165 91.9620528043648 21.11454941466268 99 72 88
-72.40210393563652 91.75253048644788 21.022027331167234 83 58 72
-71.98407549187975 91.54473276294922 20.930266154954673 72 52 63
-71.56946640897543 91.33863388804757 20.83925548648788 63 44 55
-59.558723693874605 116.09675503331822 20.787819050281545 144 161 204
-56.77716723634444 111.33277621779786 19.892790208902063 143 163 204
-45.64835777376004 92.54421471102583 16.334706854218155 119 130 174
-44.47723258475818 91.2172486475878 16.014976679782013 56 61 91
-44.45541623003669 91.47091148575704 16.032439447253125 40 49 76
-44.47100768993338 91.797012310307 16.06264311244652 41 58 79
-105.82618701201122 56.95547762660396 23.817213479027323 101 54 63
-109.2218749650843 65.3236249772485 25.111369146669638 79 41 47
-86.23927360628826 97.65501283053692 23.750198009195906 114 90 110
-85.94461705836918 97.65622561252219 23.698379681771534 112 85 106
-85.65109777151325 97.6574378579829 23.646761697792062 107 80 102
-85.42944448369988 97.7361316131083 23.61424940707649 112 85 106
-85.20829669416355 97.81465929929634 23.5818123773882 115 90 110
-84.98764295290422 97.89301081878806 23.549447751562386 114 88 107
-84.75347119018443 97.95568679158814 23.51339776696221 105 78 96
-84.43628831299934 97.92539934863778 23.454990943502885 104 79 99
-84.10668437867857 97.87984283469467 23.393125848182102 108 81 99
-83.77864546660327 97.83450116509256 23.33155437815886 106 78 96
-83.4521622451458 97.78937481213951 23.270274928451887 100 75 93
-83.1951876524956 97.82090477480844 23.22761718139409 102 76 97
-82.93902515640067 97.8523380198223 23.18509448538917 101 74 92
-82.68367294627573 97.88367731890634 23.142706751882038 93 70 84
-72.71777225230137 91.82136600348238 20.882598931449902 107 83 103
-72.28668111593359 91.5998666522699 20.788221569295146 97 73 90
-71.8698325523506 91.3930441757675 20.697574192060024 87 64 81
-56.452239107257945 108.94046162605315 19.44005962210096 148 166 209
-59.79767972381235 117.26904510885049 20.722071780042306 144 162 205
-55.92882081428232 110.45485589048963 19.473756884724693 145 163 206
-106.00770699524058 57.04414592596397 23.63955993371233 97 52 62
-149.85418239778315 128.75976981078432 37.19364941466565 107 90 111
-86.19668788036961 97.59527289406834 23.51077119825524 113 83 103
-85.91657762333669 97.61213107276473 23.463217625595856 111 83 101
-85.62324695410797 97.61342057301414 23.41207485106535 105 78 95
-85.38759039425548 97.6766383896568 23.37609772357063 107 79 96
-85.16663041569042 97.75518200989325 23.343947744941637 108 81 99
-84.94615892727363 97.83354422031134 23.311868203888405 110 84 100
-84.69820565748023 97.88078776915324 23.27242992651605 111 85 101
-84.4092164761381 97.88156474478922 23.222003548447283 112 86 105
-84.10749077557834 97.86693021674496 23.16808542749839 107 80 98
-83.80700752739679 97.85235534005268 23.114389281499175 99 73 90
-83.50775842435934 97.83783901733997 23.060913568884878 100 76 94
-83.2505735178306 97.86930646533413 23.018565935628718 97 69 91
-82.98065241855679 97.88538953878846 22.97272884598185 94 66 88
-82.71165778631648 97.90140815193193 22.92704832507489 93 68 85
-72.72012291208088 91.81063694261375 20.680860585263847 90 74 95
-72.27838705911093 91.57632736769406 20.584428126354318 93 75 94
-71.8511031196401 91.35686164831334 20.49174046352119 92 73 93
-71.4379106131256 91.15196275670304 20.40271185013623 91 70 89
-48.659915984252024 94.15198244129826 16.669634292973395 145 163 206
-60.69732502026896 116.63366674777062 20.620254990328952 147 165 208
-67.55400385781886 131.1938216156246 23.01474890523373 142 160 203
-59.39750153682147 116.881643527686 20.41353717619742 145 165 208
-55.86064626016157 110.66343041919825 19.284594197616855 146 163 206
-57.166009509183226 117.19707011918425 20.04958752420596 40 54 77
-95.8505961026359 33.028586373056115 19.712913612093978 117 91 109
-154.92990449515042 151.57550812122622 39.57368945987779 117 89 106
-86.43500794927493 97.5186019051578 23.318921293575823 111 86 102
-86.15415703810282 97.53560990558898 23.271652220993797 105 79 96
-85.87430003198747 97.55256088248478 23.224550686345356 104 79 95
-85.59543461861519 97.56945837563889 23.17761657653606 99 73 89
-85.3599231502844 97.63269824330517 23.141955737049663 94 71 88
-85.12501884538122 97.69578233126616 23.106387422747208 96 72 91
-84.89070998862351 97.75870094189688 23.070908816744257 98 73 93
-84.64303194852336 97.80601224677926 23.031846924909484 107 83 103
-84.38216725732697 97.83776840021302 22.9892376015601 111 85 104
-84.10829252419666 97.8540168078682 22.9431152893703 105 76 94
-83.83537421716247 97.87021030265427 22.89715419424313 99 73 93
-83.56340490068372 97.88634645127827 22.851352830561847 102 78 99
-83.29238237151814 97.90242862656251 22.805711090566653 104 76 98
-83.02229923048222 97.91845433955692 22.760227490419037 103 74 97
-72.71167145497242 91.78694081383107 20.476255404303412 85 63 85
-72.27009566922305 91.5527989869743 20.38074982565905 81 62 84
-71.83239288739951 91.32071381231553 20.28608215967251 78 62 81
-71.40897999441266 91.10335149227332 20.19508544488536 80 65 83
-48.44973740478343 93.45377923233792 16.40885438787016 146 163 206
-67.78026117583866 129.89808847704373 22.71689296682758 146 164 207
-59.50927561417193 117.44543297683636 20.27291801498377 143 161 204
-59.32456858735414 117.47998720274154 20.243728280652007 139 155 197
-59.13121952025748 117.49743122026649 20.211652071413916 132 146 190
-58.92032422956097 117.48083506613436 20.173772139886843 121 132 176
-58.70112898426833 117.44733726897837 20.133081927937837 101 109 151
-94.61300160547046 32.447179900648145 19.275278021541673 121 94 109
-87.04368063462549 97.51815450742335 23.1962786543837 105 81 99
-86.67386074840523 97.44175254969413 23.12663723053742 103 77 95
-86.39226776941324 97.45891233294324 23.07965439956736 98 74 94
-86.1260009624649 97.49154768507555 23.036545294799335 97 73 95
-85.84632469855944 97.50856439876738 22.989880153604915 100 77 96
-85.567639713233 97.52552826790789 22.94338101062085 99 75 93
-85.33228385242676 97.58880178283775 22.908038658191156 96 72 92
-85.09751911928532 97.65190269759763 22.872783975169146 98 73 94
-84.84934869128348 97.69940684962144 22.833975656990102 100 75 97
-84.5879448807943 97.7313544391898 22.79164652132304 102 78 98
-84.35514067499756 97.79401031804547 22.756692824152935 107 81 97
-84.10909485043818 97.84110842546036 22.718216798028248 106 79 95
-83.86375075453347 97.8880718814247 22.679850480265497 103 82 97
-83.61910690391241 97.93490295674944 22.64159379831354 99 79 96
-83.34786115715897 97.9509106766829 22.59629552396832 96 72 92
-73.18127006215003 92.03845448767437 20.375944592455976 108 84 108
-72.71401780400203 91.77621623213156 20.274660080761876 110 85 107
-72.2511333636154 91.51642485645095 20.17432200407821 102 76 100
-71.81370187142734 91.28460067046231 20.080599041638237 88 65 86
-49.36749672657259 94.78187246810722 16.50638015005694 147 164 207
-67.81913347550542 135.96079825437752 22.979152198531754 40 46 70
-68.34965977906674 137.41744167884704 23.187135418281272 36 51 68
-93.39675006814878 31.877555791925833 18.847062332414982 107 78 92
-93.22136970698169 32.344075134609135 18.85418156465275 80 64 79
-93.18653929295286 32.50761495045231 18.86121428960214 81 61 75
-93.27043858661366 32.710653020564465 18.891591202453284 107 82 99
-93.41429915411433 32.934289105949134 18.933809033178196 108 85 103
-88.54363143066362 97.81475185587563 23.24715690477979 85 61 75
-88.06174601860674 97.62632607131218 23.150181940042657 91 75 94
-87.68652711633149 97.5490821584085 23.080179231777503 99 81 101
-87.32799988370411 97.48790853055021 23.01429200939759 99 77 97
-86.97132457390795 97.42705061400875 22.94874509674521 104 81 100
-86.6309214430507 97.38204838354716 22.887225243029206 106 80 98
-86.34959316296457 97.39931098820021 22.84069799945427 105 80 99
-86.08356123683461 97.43201610213931 22.797998933475224 103 79 101
-85.81837736088275 97.46461141148121 22.755435542803742 102 78 99
-85.53987279458175 97.4816417540228 22.709370620630754 102 78 99
-85.29055678167992 97.52949562778193 22.670718125835528 104 79 100
-85.05599840026008 97.59263556675732 22.635789692228805 104 78 99
-84.79405460968208 97.6247757818108 22.59374184712992 104 81 100
-84.53294975091312 97.656820151076 22.551829231362408 108 83 98
-84.31426650510019 97.73490350466498 22.520787952301692 102 77 90
-84.10989775693598 97.82820506996948 22.493389913659595 92 67 80
-83.89214236165381 97.90594590548872 22.46247945035755 82 61 74
-83.6748644551101 97.98350853733774 22.431636153638955 80 60 75
-73.18356297206479 92.0276484022479 20.17344076915141 109 85 109
-72.70556840921344 91.75253609225305 20.070257248101267 117 93 114
-72.24286062562693 91.49293622466581 19.970905817630157 117 91 113
-55.28963584688346 105.38058635373045 18.185422615828116 150 167 210
-69.56856930007865 132.25088220171148 22.746178137762477 145 164 206
-68.79642529796207 135.14679495342327 22.844258751417346 135 149 192
-92.68942112495634 31.47558669111744 18.522622582322047 107 84 101
-92.72473760448382 31.659607210512522 18.542989610470702 117 93 109
-92.70158293216883 31.82517278518411 18.552044207064064 122 98 115
-92.66669878074883 31.987175961590143 18.558840436173814 117 97 115
-92.62005217149412 32.145542841168336 18.563366946770966 106 89 108
-92.5850771769841 32.307920031592076 18.570177126873862 104 83 102
-92.56176895973698 32.47437022002159 18.579275067905677 112 90 109
-92.56187749568838 32.648866681060056 18.592954764024174 107 83 103
-92.57372346172069 32.82763203108877 18.608949480800554 104 81 96
-219.79297302918457 121.61453737350892 47.02961636432259 41 19 26
-216.33962124641027 120.23927611684812 46.33915929053867 39 18 24
-109.97647767576811 83.26261080651177 25.494406774968667 125 97 114
-89.04442213095243 98.00722474383659 23.116274387220656 106 78 91
-88.54372812401861 97.8014699091525 23.015668686368066 72 50 64
-88.06192152768838 97.61312746412003 22.919613645063468 69 56 71
-87.7014877944982 97.5516277884293 22.853972039639995 78 63 78
-87.37218575069515 97.52174431899722 22.79605945860696 88 70 87
-87.02982619471759 97.47638664863906 22.734731812743295 96 75 91
-86.68911533658274 97.43124152299072 22.673699041227977 91 71 86
-86.40754254050991 97.44841916731463 22.627525674027538 85 66 81
-86.126976114521 97.46554882170436 22.58151838464268 83 63 80
-85.86163414337656 97.4980970456638 22.539287497822592 82 62 81
-85.56878969356274 97.49960957613729 22.48998550053624 85 64 82
-85.33350891533814 97.56289745191002 22.455234355472765 88 66 82
-85.0847626160968 97.61057560129036 22.416988679699312 87 64 82
-84.83672905697831 97.65811626584427 22.378852522183244 89 66 81
-84.57546771531318 97.69011169665146 22.337267003837074 88 62 76
-84.35667194167749 97.76818755637707 22.30645562291142 81 55 68
-84.13836079557622 97.8460881641928 22.275712307178743 83 58 73
-83.92053860301247 97.92382071809027 22.245038350227986 95 71 86
-72.96828609352544 91.75656273042358 19.913900346603235 102 81 102
-69.54760038858217 132.1876738182525 22.50198926665737 145 162 205
-69.65591240257302 135.84625471443331 22.806699377908938 144 162 204
-92.0856095854052 31.28071752388347 18.23443412515701 113 95 113
-92.11989119384651 31.463293344379068 18.254285000339284 109 90 109
-92.11957187039341 31.63513257607871 18.26751795542229 110 89 108
-92.10767193886757 31.803538556542737 18.27854833983099 116 96 115
-92.08418016262306 31.968445555786925 18.28736919183384 113 98 119
-92.03749933447678 32.12597578780921 18.29174079337645 107 86 105
-91.95606291735953 32.272176871570586 18.28942278908509 108 85 101
-91.86304778697085 32.41456861149006 18.28487345211307 106 83 99
-91.78157738320526 32.56082172353945 18.282553785546817 96 74 88
-91.8040477606117 32.74207272519073 18.300326534234838 87 67 78
-92.23361634217478 33.06140346182372 18.396871722085688 77 57 68
-219.741392090449 110.27863028641511 45.695735615740624 109 65 79
-88.52888526489528 97.77237598340938 22.780534243716904 82 64 78
-88.07692115276619 97.61567972114163 22.69281757110516 79 62 78
-87.73118272012826 97.5698766573478 22.631443633398572 72 52 67
-87.41639191447139 97.55559312055662 22.577683426308468 69 49 64
-87.0883740924899 97.52575931028088 22.520508378614032 71 48 63
-86.7618384136973 97.49606158348121 22.46359177440117 69 46 60
-86.47995878796509 97.51313899507223 22.4177614851289 70 47 61
-86.18474862453073 97.51463110141185 22.368496330372366 71 49 62
-85.90492151572349 97.5316072512653 22.323001541184304 75 52 66
-85.61190398270242 97.53306004233377 22.274100113250245 82 59 74
-85.36236054317276 97.58085821684 22.23605406295179 92 68 84
-85.12760092618038 97.6439658342322 22.201664643335718 101 75 91
-84.87942861508763 97.69147569583372 22.163825653076472 102 78 93
-84.60407462891602 97.70801756155007 22.11904551575333 106 81 98
-84.38521179283188 97.78608540375185 22.088471893021048 109 84 102
-84.18067887544221 97.87938351746452 22.06147285395093 112 87 104
-83.96273406419107 97.95709647226927 22.03102535206891 112 86 106
-83.73153342569502 98.01924797094281 21.99715732568321 112 85 107
-73.21017347385815 91.73460493857675 19.7513040355761 93 68 90
-72.74351267680848 91.47419902991 19.653110327886903 86 63 86
-71.88486758115764 139.50791708883978 23.22338258318029 143 163 205
-91.48951087879536 31.088337525922583 17.949926154031168 113 96 114
-91.53418843133606 31.273160481104906 17.971443732629 107 89 108
-91.55613926376192 31.451124563777235 17.988669901315046 110 90 110
-91.5552727112868 31.622078275901938 18.001578062767475 116 95 114
-91.56585631270917 31.797109579454375 18.016695803092304 113 97 117
-91.51918564766356 31.95367973421884 18.020912175569997 103 81 100
-91.38097437017754 32.08013516213933 18.007653292985584 96 75 90
-91.24289715627181 32.206468300013135 17.99440729967163 87 68 82
-91.11633693057955 32.33648642457654 17.98335199113336 81 60 73
-91.02397421440776 32.47787941950578 17.97883456350884 81 59 74
-91.102340304602 32.676999031745204 18.007028712987236 89 68 80
-91.20386781482993 32.88462056903422 18.0397117815327 104 84 97
-151.7369254912057 146.43341158454515 36.74432216668066 120 89 105
-144.880472515319 142.85725596455373 35.33459428660119 118 87 99
-143.46017122611994 141.97228412570337 35.03156424665037 103 74 85
-99.25573980019325 102.77642131348614 24.71063080817772 102 76 89
-92.5050927422852 98.64424290552607 23.275993250847115 100 77 91
-86.24256712789823 97.5637501825106 22.155266428705435 99 75 91
-85.94823948845587 97.56514203007784 22.106577513638374 105 81 99
-85.64084322752512 97.55104137464161 22.05453920606967 109 86 105
-85.40536074407707 97.61429741787775 22.020329102352072 111 87 106
-85.15638739557895 97.66191941273152 21.982688797800616 115 90 109
-84.908132508584 97.7094091936589 21.945157509410453 118 93 112
-84.64663513914286 97.7413408637299 21.904242995967444 118 93 114
-84.42765970464865 97.81940126190102 21.873899787156148 116 91 112
-84.20916398747306 97.89728022394668 21.843622256270994 116 90 109
-83.99115755933288 97.9749907438876 21.81341298221738 115 88 104
-83.7598826701718 98.03712762847174 21.779814990995803 112 85 103
-72.9842919335127 91.45187068405876 19.490615702106528 107 84 108
-74.82017902487918 147.27557970174973 24.056957930303152 120 134 175
-90.91222056556963 30.90199581853114 17.671146795927708 108 91 110
-90.94452438588064 31.0817745176582 17.690005231812155 108 89 108
-90.9881950506126 31.265677726139074 17.711042110072235 114 94 113
-91.02068305433076 31.44643253587388 17.730004382149428 115 98 117
-90.85810980275619 31.90539030986762 17.737888190700875 66 50 66
-90.68724621995169 32.019845086819906 17.718442707784444 78 57 72
-90.53915796054916 32.141628001983854 17.70329153796664 103 80 94
-90.39124670690828 32.26326437296968 17.68815840401608 110 90 103
-90.26590352135416 32.39232495934829 17.677292773352157 114 97 109
-90.14064858824638 32.52129191964872 17.666434585276804 114 96 109
-90.02665176954257 32.653983016773175 17.657706796995893 113 94 106
-90.06904190904125 32.840330382665435 17.67871751747102 118 96 110
-88.9690876852776 97.88762478996172 22.400991433819986 94 73 93
-88.51415230237103 97.73004029876299 22.314368228250746 101 87 110
-84.68922596565056 97.77468893815292 21.68930449495936 114 89 108
-84.4701326467867 97.85273612652226 21.659190692374054 114 88 106
-84.25151925486355 97.93060161758567 21.629142045415307 114 89 107
-84.01958569397918 97.99288580493952 21.59573046251899 110 84 104
-83.7882417576156 98.05501391374897 21.56240398941854 110 85 105
-83.46168150790156 98.00935457656902 21.505309061721405 112 86 106
-73.2367059449713 91.44239583468644 19.33037219830325 110 86 106
-72.77058504159947 91.18373165725815 19.23429226347086 113 90 112
-62.332975864431894 118.67915541081418 19.591900813608945 146 164 207
-80.12055190686581 158.7505542784298 25.53478600168992 62 68 99
-80.62762207306626 160.2321375473339 25.729772390181534 46 51 75
-90.520134320742 30.774919445062597 17.42904540302234 106 86 104
-90.54061238576446 30.950164821392107 17.44541856724782 113 92 111
-90.57232591674305 31.129447797202996 17.463921414823815 112 93 113
-90.58172110510785 31.301915235055375 17.478283463836608 108 87 108
-90.25878836004148 32.046049163297184 17.481073315060584 115 93 106
-90.14496167101093 32.17861356609937 17.4724044095206 114 92 107
-89.97552325357084 32.29229486882711 17.453276264412015 118 98 112
-89.80635634127246 32.40578176174053 17.434177858530756 117 96 109
-89.64855062179849 32.522864910538125 17.417196767748212 112 92 103
-89.60156372907556 32.67778062923702 17.421073215771717 116 94 108
-107.38606020096788 53.42358176163149 21.860186165647296 64 38 46
-90.26093820703089 98.25697488210291 22.407832515154364 108 91 111
-86.9514922445646 97.65973506194409 21.82457809914467 109 83 103
-84.30778304496006 97.97938379586824 21.417934385743543 107 84 100
-84.10332389103962 98.07249776143965 21.391574142652335 111 88 105
-83.87168263213567 98.13456556500456 21.358478348809722 114 89 106
-83.53097863030291 98.07330617728468 21.298449719104102 113 86 102
-73.22810113950554 91.41878030035453 19.125890968372772 110 84 106
-72.75138641530663 91.14746970982351 19.028089372467754 114 89 112
-90.12033974564099 30.64539158312236 17.18696909410589 109 91 109
-90.12918319728192 30.816151831515025 17.20093536391821 109 91 110
-90.13805653492561 30.98728116596011 17.214933558543947 114 93 111
-90.13585140215638 31.155167364124626 17.22690635616613 119 96 114
-90.11145071141168 31.316114774433558 17.2347888998739 115 95 114
-89.32854595220103 32.411616549317216 17.188933318684356 112 91 103
-89.22662828228277 32.54704695911976 17.18243657648868 115 94 108
-86.43078337831007 97.72701533071941 21.517815953851457 108 84 105
-86.13561257840959 97.72808663229635 21.470276019977973 108 84 104
-85.84158061084138 97.72915687311114 21.422919731007653 104 80 100
-85.59123237106121 97.77677050628262 21.386028609082075 106 83 101
-85.32747398828178 97.80873921212336 21.345825219539055 107 82 102
-85.06455321208202 97.8406010433685 21.305749109151837 102 77 93
-84.78848077564737 97.85690622662514 21.262408913730248 102 78 92
-84.58303731437857 97.95036938403793 21.236128992122016 100 76 90
-84.3779937461737 98.04366285986542 21.20990112311438 101 76 89
-84.18718980749523 98.15223026104385 21.18709209499801 107 80 95
-83.96906697418814 98.22970415630284 21.157592511973007 106 81 97
-83.60036192615595 98.13733698958593 21.09132806887231 108 83 98
-73.24125955449627 91.42101926678728 18.92693420485814 112 88 109
-55.90630097028837 106.36514855402423 17.22776778913683 149 167 210
-89.67760357698889 30.669239270683164 16.950618964259803 107 86 107
-89.67497655757455 30.835811470981273 16.9622694296724 114 92 111
-89.66136761928287 30.999128842246215 16.971928693077626 125 102 117
-89.63675631055473 31.159125886918808 16.97958873933704 123 106 123
-89.61211304047897 31.319351641517986 16.987260249975368 110 93 112
-89.62040697069651 31.4907102617886 17.00100315618777 117 96 115
-88.86570034926227 32.42114170296356 16.947793199600856 111 92 106
-102.41484524209294 49.93769142336043 20.382790805182196 102 54 63
-73.25441796948701 91.42325823322004 18.72797744134351 114 89 108
-89.14375788053523 30.495883285260458 16.687047898511093 115 94 114
-89.15148757579331 30.664819950736973 16.7003496894236 114 96 113
-89.13752190994947 30.827052923567102 16.70973666502053 121 100 116
-89.11268087798665 30.986004094149592 16.71716685648648 120 102 118
-89.09866746690943 31.148752745757754 16.726583138770568 115 96 115
-89.14989493382257 31.33335332480133 16.747892837648333 123 100 117
-89.20128376699044 31.518522899182567 16.769268768626134 131 108 124
-73.26757638447774 91.4254971996528 18.529020677828875 110 83 105
-88.98160385028086 30.44209026216412 16.492173729219704 108 88 107
-88.96754454524563 30.60366567626273 16.50136298296644 112 92 110
-88.94265115650029 30.76199076641602 16.50862348534718 116 95 113
-88.90692518494117 30.91700790548387 16.513951407789246 115 98 116
-88.89277528222541 31.079316802713013 16.523178176731175 114 94 112
-88.93272870146014 31.25979207530277 16.542173210709382 124 101 117
-192.47595565881574 132.05729992053668 39.893381673228205 119 76 99
-73.16112717367908 91.28574841174547 18.30128785858509 109 81 106
-55.94319836372686 106.02969162821545 16.64011293290958 150 167 213
-88.87385005124787 30.40579864505642 16.30759144037348 109 88 103
-88.84894797599881 30.563651988977792 16.314701169105426 111 88 108
-88.80246930703602 30.714721879369844 16.317986436115792 116 94 114
-88.75594385437437 30.865932557690257 16.321274225859284 105 88 107
-88.72015033245121 31.020828758583 16.32648592233838 113 94 110
-88.7597782195249 31.20086008020791 16.345165103126327 120 99 116
-73.54496583621265 91.43115795514433 18.170202058118974 105 81 104
-73.03337014125951 91.12075051819932 18.06911868929496 109 83 108
-88.78785476933108 30.376508453281623 16.127263966275095 101 80 97
-88.74142365837675 30.5272236219951 16.13045471926961 112 88 108
-88.67347795009611 30.671097639663945 16.129865206492166 118 97 116
-88.61622884678837 30.81854740460739 16.131167127998257 104 87 105
-88.56966721129953 30.969628410474435 16.134362883495847 107 91 109
-88.58752012807032 31.142163989580116 16.148943405225452 108 90 107
-88.62694088394983 31.322261665760497 16.167361831086744 125 104 121
-73.39424920963886 91.23952661617353 17.93235498531631 107 83 105
-72.91687164936353 90.9691632316615 17.840344658388968 111 85 108
-62.182440432478714 117.87060471899927 18.033299527881766 146 164 207
-88.71276482477764 30.350728501080305 15.949183677391014 109 89 108
-88.63418492156559 30.490891869189284 15.946683817558766 118 96 115
-88.55558413481609 30.631087206755502 15.94418293632012 119 101 122
-88.47696991235755 30.7713169491627 15.941682333499553 108 92 115
-88.41972639315536 30.918612414385514 15.942916681459108 106 90 110
-88.4266511856931 31.08724040121803 15.955373599438817 114 97 114
-88.44432612346934 31.259793268807332 15.969734374002218 122 106 122
-195.28682148891414 135.423038246543 39.29693747544212 138 94 113
-73.70248967999923 91.29431847383124 17.781983809581195 108 84 105
-73.24417473527153 91.04871189929737 17.69552351511185 109 84 108
-51.84696443392208 98.35078556417207 14.927985213226751 151 169 213
-55.546796033054314 105.60150335569318 15.982139028071572 150 169 213
-88.54859915793728 30.461565942040608 15.767072231215218 116 95 113
-88.45938673647889 30.598136324308587 15.762708883385594 117 99 119
-88.35950031916488 30.731216587671106 15.756501904244864 105 92 113
-88.291632910898 30.874785605748865 15.755826595599133 100 86 102
-88.28773938807323 31.039582532218855 15.766221635878539 114 100 113
-88.2838349071058 31.20468683919281 15.77663550723977 113 97 112
-195.60474810214305 135.11577258682365 38.89971443362605 139 91 109
-189.59627269731996 139.0896192376149 38.25768166859772 120 89 100
-187.72052110379292 138.25073876389854 37.9186664826654 127 95 111
-73.63892372165446 91.20609590142898 17.564986809227257 114 87 108
-73.21388469823421 90.9996036802735 17.487073831765173 110 85 107
-51.389434577082405 97.8326854780684 14.648470993275978 153 170 217
-88.46319972421718 30.4323037339746 15.587839023787895 107 87 106
-88.35275438185292 30.56179648308525 15.579837652325429 106 89 109
-88.25301098647664 30.694711021986556 15.573660382721663 91 80 100
-88.1639234372288 30.83109024426527 15.569303142347477 89 76 92
-88.13863597440097 30.98856109498078 15.575865837504319 98 83 95
-88.12395684631419 31.149790799079106 15.584260780945348 105 86 98
-189.56049237949162 137.51976403107386 37.729485013847935 124 94 111
-190.315015639058 139.59035743061597 37.97823191469462 124 91 103
-188.99567570046986 139.15421035354788 37.752416325548324 128 95 111
-187.1289282888791 138.31650780012882 37.41842016259419 131 97 114
-184.19935793373776 136.69885274540525 36.874364893004575 131 96 112
-179.20141666782234 134.04954181898245 35.95344356180937 126 94 108
-73.59735787444595 91.14382708807986 17.35338527606031 110 85 106
-73.18362562575061 90.95054719871378 17.278860524032087 106 81 104
-84.60584146173984 169.11740991219455 24.119458878352248 39 54 72
-88.36732666791049 30.399658681123416 15.407182767883938 114 95 114
-88.246400157365 30.52555135202492 15.397435969654131 108 95 115
-88.13617513471584 30.654827127944618 15.389491511939443 86 79 101
-88.03660556279091 30.787528801987744 15.383345351853297 85 72 92
-87.99005250665 30.93771759184286 15.386175240477623 98 83 98
-87.95405434998278 31.091569256190088 15.390803882479124 81 67 81
-186.31697476013863 138.22036062146435 36.876808895552564 132 97 113
-184.27633630710798 137.24135836308432 36.5115209760707 131 95 111
-183.34896368710247 137.06627901444108 36.36297462945069 131 97 110
-75.33338423585846 91.97458480841583 17.462874595586978 97 72 84
-73.97243606264506 91.27608510998276 17.21630644052623 94 70 85
-73.54492667758512 91.06877429311506 17.139636278750334 100 76 96
-73.15340774509993 90.90155452121566 17.070885523877344 103 78 99
-88.28229886183559 30.37052373559393 15.228721924838425 114 93 109
-88.15092285667228 30.49284666090264 15.217274327349045 107 91 111
-88.01966688612642 30.61505504595633 15.205837012203267 89 79 103
-87.90967199360264 30.744098857341616 15.197949708411581 82 68 91
-87.84198918230204 30.887052056407533 15.197146858851509 91 72 92
-87.78483725417313 31.03358244768771 15.198114581986106 92 74 94
-191.21773835081052 137.13518122747445 37.11164808419349 110 83 98
-191.4125241516533 139.83194512444229 37.312063824867394 126 93 110
-79.12821589838805 94.20389252381096 17.956363492454276 109 84 105
-73.919508652881 91.20066991534495 17.001971132690166 114 90 107
-73.50348997345108 91.00669743113312 16.928669125841537 112 85 107
-73.123215777241 90.85260755841176 16.863144997757104 108 81 103
-72.39199554008246 90.57300867522932 16.738214412332816 115 90 113
-88.3036647975321 30.375787399594742 15.068191112485529 112 91 112
-88.17225852303122 30.498120475989538 15.05681607873142 107 88 110
-88.04097976883887 30.620341404480783 15.045452495859204 104 86 107
-87.93097204920389 30.749400609187003 15.03760240252658 107 85 107
-87.85271246480443 30.88887667355091 15.035009581494798 108 84 106
-87.78499824753102 31.03189603760674 15.03416822703606 108 85 107
-192.810429774518 137.21516160769983 36.92761640256404 132 91 110
-74.1967645691022 91.21664062571426 16.841594520715237 119 93 112
-73.77880892172385 91.02222109645832 16.768788302246183 123 97 115
-73.364177693731 90.82934382539733 16.696560923676778 116 86 105
-73.01749684713299 90.71441478498657 16.639078910591635 111 82 102
-49.8619462830921 95.64978524062721 13.591350066700034 145 162 205
-88.3356746162701 30.3844914630805 14.909362302157756 115 92 113
-88.2148438079842 30.5103015383857 14.89979622800842 111 86 108
-88.09409750059454 30.63602379335845 14.89023685378094 111 87 109
-87.98403103502434 30.7651409943605 14.882420013691984 114 90 112
-87.90573879105142 30.904683022776947 14.879807532048828 110 87 108
-87.81685858653564 31.04074483242571 14.875460432831803 111 88 111
-191.87281091054467 139.6152722042948 36.51904283846606 119 89 105
-82.18371445805838 96.06816153144572 18.085708635790887 108 86 103
-74.03316782247303 91.01198989588801 16.603504705831405 124 97 114
-73.61681781511524 90.81883001463012 16.531814604638075 119 93 110
-73.22542134235755 90.65269776108642 16.465376038116055 116 87 106
-69.62851260283806 90.1236178699063 15.916465513534034 118 94 116
-54.45798845599007 99.3139151518308 14.307215209289012 148 165 209
-61.83792049112226 117.85183740663986 16.51199577443899 140 156 199
-88.37834700723306 30.396641392830375 14.752181176142445 114 91 111
-88.25745897219768 30.522491152074736 14.742666665862291 113 86 108
-88.14726994086105 30.65172249975094 14.734877483795303 116 92 115
-88.03713723551542 30.78089531567943 14.72709274132695 114 93 115
-87.94822598927911 30.917004645388417 14.722744123870406 111 88 111
-87.8593147430428 31.053113975097407 14.718395506413861 114 91 114
-193.04830399651797 137.86290696349818 36.156222777032205 140 97 116
-192.25265893704275 139.87068334168694 36.165351061271274 116 88 102
-83.80635351168527 96.91246423904268 18.149084451192678 109 84 101
-74.28840362430473 91.00172564117523 16.437652881225766 121 92 109
-73.87031548423548 90.80827062565001 16.366502015803242 112 81 97
-73.46643476766963 90.62912462962905 16.29823952860065 102 76 91
-73.08721100752264 90.47674725001923 16.235107546634215 108 82 100
-55.32452724023645 99.81781010773187 14.280440621883555 147 165 207
-53.37033516957927 98.05796327613069 13.895824593684894 152 169 215
-88.30010402357098 30.534689318400737 14.585427272855153 111 87 109
-88.18986648935609 30.66396296541846 14.577671991467941 115 93 115
-88.09029066384254 30.79666357538396 14.571620386368348 113 94 118
-87.99073556189505 30.929332460783602 14.565569794851003 112 92 117
-87.89120861654933 31.061972091590164 14.559521409506457 111 92 118
-192.5748947933444 140.0850292127864 35.7995745746917 115 86 101
-74.53338491194724 90.97848655438914 16.26888996109412 108 80 97
-74.12468820936013 90.79768078759052 16.200623065664495 101 73 87
-73.71914084981104 90.61827197517823 16.13288244397515 94 67 81
-73.32753264142649 90.45294970859429 16.06794427426071 94 68 84
-67.35622873624153 121.36517552485469 17.07919259067664 149 168 211
-66.16175440442322 119.70242088384985 16.811767773619867 154 171 215
-48.77646440303887 93.95148826250129 12.826677985536897 145 159 203
-88.32148703354287 30.539975812154402 14.424709271932533 111 91 113
-88.22186103990892 30.672737243971103 14.41867336956786 114 92 115
-88.11164173421838 30.80197872951115 14.41095693738404 113 92 119
-88.02267870815261 30.938167326109067 14.406605787394438 116 94 121
-87.9231223554874 31.070835998693184 14.400574106874407 114 94 121
-193.5832517908549 138.72100542729558 35.43497917914768 135 99 119
-193.01036105743597 139.86294065708677 35.42256257290474 110 77 95
-74.87995442277864 91.07193316586884 16.120489962340432 103 74 92
-74.47985927000165 90.90316345139449 16.054908590617057 102 75 92
-74.08274161583428 90.73565277038664 15.989815453727811 103 75 92
-73.68856152505205 90.56937915573668 15.925203704077411 106 79 96
-73.30811654194319 90.41703735496965 15.863322635192185 108 81 99
-66.38468613788388 88.34399386913995 14.778382570568306 104 80 98
-65.48792059151802 87.77565691017861 14.620195950396921 96 76 95
-88.35352349890852 30.548724271026927 14.265619404113902 106 88 110
-88.24323493242177 30.678039824103987 14.257935937230288 111 89 112
-88.14361805624685 30.810785169541465 14.251919466280569 114 92 119
-88.04402191818086 30.943498768150228 14.245904009624384 113 93 119
-87.95504853033206 31.079703227031075 14.241552352843657 115 94 121
-193.7367852465049 139.3290574764081 35.06675277518258 139 98 118
-193.5059796634278 139.68238503096984 35.05546415613692 122 83 102
-193.39388417354274 140.11988468129607 35.06538477934822 108 75 92
-74.85958870306297 91.03523682511182 15.912900648451147 111 84 100
-74.44863706899632 90.8537752228828 15.845846184431785 110 83 100
-74.06287050407983 90.69937508462297 15.783824556860917 108 82 100
-73.69076685315301 90.55884097262788 15.724486043643232 106 81 100
-73.32119654439305 90.41926297913838 15.665551478406456 105 80 99
-64.35419940838 87.15921011864843 14.242936213131955 86 67 80
-55.97726108885922 99.58915583294281 13.81040804830943 151 168 210
-51.54638996144089 96.39055094554509 13.01547568969274 151 170 214
-48.63784042248737 93.36712922775565 12.440146929039287 149 166 209
-88.38557243716573 30.55747600795271 14.106454966881271 104 87 113
-88.2752531564756 30.686820467015732 14.09880719295523 109 89 114
-88.16498283130066 30.816103836053575 14.09116260252804 114 94 120
-88.07598870534294 30.95234004176313 14.086809931453775 112 93 119
-87.98699457938521 31.08857624747268 14.08245726037951 111 91 115
-197.0622118142455 137.49822559222872 34.989786889684304 146 93 109
-74.85044384160749 91.01154373541758 15.707754263383963 110 84 99
-74.4174460079174 90.80443820508454 15.637022465725464 106 80 96
-74.04301378937011 90.66312541715453 15.578009605049523 102 78 97
-73.68205047075362 90.53553610490098 15.521611687344377 104 81 98
-73.33427654684289 90.42148860330711 15.467780321620728 97 75 90
-50.453122756538555 95.37008752595555 12.635335078607799 150 170 214
-88.41763385094762 30.5662310233798 13.947215920422014 106 87 113
-88.29664076620402 30.692126549298177 13.937976266579827 109 89 115
-88.19698281404268 30.824916663004533 13.931994981796556 114 90 119
-88.10796794270462 30.96118462667422 13.92764129607311 113 90 115
-88.02956502321216 31.100978093944583 13.924913686902256 114 90 115
-75.2664529239793 91.18349161297579 15.570916944050337 96 71 87
