ply
format ascii 1.0
element vertex 715
property float x
property float y
property float z
property uchar red
property uchar green
property uchar blue
end_header
-131.19070942603068 135.9414700945989 41.41314357472728 119 90 102
-130.74186883571 135.96319372661495 41.33880582546228 123 93 105
-131.3536190533353 137.06591850007604 41.593713430376006 128 98 111
-143.97980983045858 154.76715386034815 46.16875092514262 131 110 126
-81.59413413198476 116.2735608635464 30.205544932047204 111 90 110
-27.634446559442388 87.89279903155894 17.064874749126567 49 68 92
-27.675021418091998 88.39567675181549 17.14007100302525 56 71 101
-27.756661180535886 89.02216964924139 17.239105115113965 57 72 103
-27.886772767035733 89.79566403468876 17.36642455231661 52 66 94
-28.00602040116925 90.54298864572286 17.488323722020265 49 66 93
-28.16919450677959 91.42618186336979 17.636215515788212 74 106 140
-28.384735781808285 92.47216373245946 17.815204715156135 131 164 197
-235.61040305533044 77.09265809411995 51.00118933691753 163 178 229
-233.7020079720417 76.86260102583206 50.64420499642014 163 178 230
-231.75293126458098 76.6139613495231 50.27777180264569 163 180 231
-233.1146528466358 79.77317516414384 50.935155524740665 165 181 233
-234.97237047862677 80.79364193239505 51.389745331243326 165 181 233
-236.44209692089427 81.68920423205454 51.761253315216315 165 181 233
-110.48352832169807 65.82701767841264 28.10831137559106 85 35 40
-95.67134836752362 69.91177834682713 26.126766566450318 104 58 66
-95.7233892986536 70.20619155497162 26.175239270752957 96 54 63
-95.85032644286046 70.55503010559686 26.24382524613351 81 44 56
-95.49735378376013 87.56448490466977 28.47029535448178 57 34 41
-95.35868784096178 87.751480262685 28.47174379082647 58 33 40
-95.21999292757474 87.93855293693228 28.473197671967633 73 42 50
-95.01644195200815 88.06744198492189 28.45574840315475 99 60 70
-98.12753410207506 99.23589734957802 30.488791848258987 67 33 35
-99.0297129588892 100.47417862717599 30.809408247664418 71 32 32
-100.28842800396563 102.07245548163516 31.239338287107326 73 34 33
-79.839777489873 114.24887206556045 29.382639615404198 112 94 114
-30.798093087351912 94.14179503729068 18.300492640116055 150 166 208
-30.913218598674717 94.87350014531727 18.41853371505556 136 150 193
-28.185179336393098 89.4673975547799 17.225635357312967 51 66 92
-28.319501075797067 90.25002569288458 17.35380233479112 53 66 97
-28.501857025236852 91.17906637664635 17.50986002544128 57 72 101
-234.47723230098734 77.12143213658005 50.40360913188108 163 179 231
-232.44931660211807 76.84830581726754 50.023444516386 163 179 231
-233.4144369683008 79.8817281072227 50.59123806038698 165 181 233
-235.13827320587944 80.85738948554966 51.01346399456587 164 180 233
-95.66319204186217 70.16208069155209 25.9445721572301 112 74 92
-95.80479787559851 70.52118020777533 26.016425152182112 111 78 97
-94.89582664340547 87.64391795835878 28.14384479353547 79 47 52
-94.69314219281469 87.77250452803169 28.12661918130213 104 64 73
-94.42654726874517 87.84314331838539 28.09083825663888 105 63 74
-94.16057712257825 87.91362706451613 28.055142585495506 92 51 61
-96.815458576074 97.94155790645432 29.84136313039851 68 30 30
-97.2305979470439 98.69528796583049 30.012167800959066 70 31 30
-97.70414150207853 99.51079965804253 30.201105197689667 67 32 31
-98.32848199100505 100.48040299432627 30.436137519581937 67 32 33
-99.07307918243595 101.57529438555643 30.708249673577388 82 51 54
-103.56022537480034 110.60323754034445 32.67183283212244 124 97 110
-106.45827972772848 115.21771935451125 33.77796443323929 122 100 118
-79.59909964561331 113.90379594315804 29.049725946180285 111 94 114
-78.76128796097217 113.14618932144273 28.806753376045055 111 94 113
-31.90362537844337 95.57316513034151 18.521940487265415 154 171 215
-29.91781721444987 93.24188748593984 17.874676866087395 57 62 92
-28.70296457509683 90.94572394949495 17.362784307510957 48 63 86
-28.830103981005944 91.71374538300269 17.486671497125144 49 64 91
-28.99300209077418 92.59210809097891 17.631322852029207 57 75 104
-235.25737699052914 77.38190611119096 50.16148316548086 164 179 231
-233.08215527213062 77.06201637356864 49.753398230628854 163 179 231
-231.9479534160734 79.0065128826245 49.819406118341846 165 181 233
-233.78334898050608 80.01358957562348 50.26107803592847 164 181 233
-235.23497334178742 80.89771470435247 50.62196912580734 164 180 232
-229.93780253646108 81.44026433395057 49.80269558751648 161 177 227
-95.74441255029528 70.47673780437188 25.785388963683037 126 87 107
-94.13860882577744 87.5790475592457 27.773631829159662 109 65 78
-93.8896570329488 87.66396505580232 27.74297449306824 103 57 67
-93.64118691368267 87.74870668098487 27.71237494487875 82 37 44
-93.47203184830109 87.90512933502414 27.70458047243949 73 32 37
-93.36596049577686 88.11915376705994 27.715002042467273 72 32 35
-95.90483161234721 96.70116221566242 29.275240783472054 64 28 27
-96.1891475749903 97.32063691728841 29.404859192317875 65 28 29
-96.49345887781128 97.96291070009494 29.540851122984854 64 29 28
-96.8357511759524 98.64599032780586 29.68861928030491 60 30 32
-97.32334552726408 99.47677396606665 29.880329326323547 71 43 49
-97.97923573793575 100.4797013686212 30.123075733039286 87 60 68
-101.6863616439736 108.26910959524633 31.77513895149867 126 96 108
-78.58224394701789 112.88549738368687 28.49890673028654 107 89 108
-77.85724317247364 112.27734063689854 28.296665320969346 102 85 104
-77.39902388588335 112.03616506827818 28.18775209264368 96 84 106
-29.414425895914434 92.58025092193591 17.54825470798464 43 57 79
-233.7182641782107 77.27683131847272 49.48195516400692 163 179 231
-231.30054129299407 76.87232805826083 49.02561704362106 165 181 233
-231.16923740849393 78.36648874356061 49.19922093010048 165 182 233
-232.44713861144317 79.18144279424814 49.51908237939462 165 182 233
-234.01607307622763 80.0995832320139 49.901006147736645 164 180 233
-235.19295626710658 80.89107191921131 50.200941798482056 164 180 233
-235.40659494748826 81.35960302349253 50.29789622291611 164 180 232
-232.93119743450438 80.91022949087099 49.826063495676976 164 180 232
-95.69900762415031 70.44297964017466 25.558576535685656 128 83 102
-95.93078112281694 70.86774251338869 25.65282971897356 121 79 96
-93.38858410735519 87.5147898967255 27.40693652085081 92 47 51
-93.2356343120778 87.6851180363338 27.403703751617645 85 41 44
-93.14541685019546 87.91282575727469 27.41844634792233 81 38 42
-93.03939063347892 88.12642994641993 27.428705716646892 77 37 39
-92.94892973049645 88.35467920348002 27.44347855425216 73 34 35
-95.1821822388953 95.6516573813483 28.770924792327346 60 25 23
-95.49459708679923 96.29394311013365 28.907096466876347 61 25 25
-95.74160557275461 96.8752916014842 29.02438107847016 61 26 26
-96.00791202016731 97.47848667251678 29.147744294437775 61 29 29
-96.29390702386418 98.10413001581301 29.277330019493082 71 44 48
-96.7401123960576 98.89185981812003 29.454856787657484 84 59 67
-125.85389775172531 164.49209171314777 42.896490670903894 105 85 104
-77.70927829585071 112.05907764417977 28.00241749551501 100 79 97
-77.25254436120417 111.81920994335167 27.89482234126829 95 79 98
-76.81258233836368 111.59987775188083 27.792712753154873 94 88 109
-32.30766997174492 95.41660673884405 18.249260263732157 156 174 218
-234.28946680207352 77.4705616106395 49.194937465853826 164 179 231
-231.7941451267413 77.04149439812376 48.72627453224873 164 180 232
-231.32844593278833 77.65641747394503 48.728918587091215 166 181 233
-231.59657328590467 78.13038330074035 48.83475174962577 165 181 233
-231.86594296058018 78.60652686631013 48.941072899114744 164 180 232
-232.94831441425788 79.35707063820499 49.2175415984658 165 181 233
-233.90614252302254 80.07011856592476 49.468534032130556 165 181 233
-232.54577656316158 80.00218132181148 49.234554258576445 164 180 232
-102.85176168029848 53.0163560982704 24.268411982240586 107 80 95
-95.63878487865156 70.39865714849657 25.328202268613996 125 77 92
-95.90009334748555 70.84435655255317 25.429241869875852 119 74 89
-92.92595312678203 87.70750811069243 27.12334530604977 91 45 49
-92.83568761850306 87.9348134392886 27.137875580227863 86 43 45
-92.74529972175034 88.16241283761116 27.152423723936234 82 38 41
-92.67040494234085 88.4047420834679 27.171446127009165 77 33 36
-92.61100491868349 88.66195712761525 27.19496328042725 71 30 30
-93.8637800664821 93.04337787879538 27.970398807133012 55 22 21
-94.13079915755124 93.62863744743116 28.090478311235344 56 22 20
-94.3836597700261 94.2030903261407 28.206813125696872 57 23 22
-94.63868391026442 94.7824591372638 28.324143427948815 55 23 21
-94.9126478989438 95.3831326143262 28.44737095934047 54 23 22
-95.17219961247979 95.97269601205882 28.56677245607825 54 23 23
-95.40003027141492 96.53402373375643 28.677262504871088 57 28 31
-95.62969012459452 97.09985083215658 28.78863869317744 66 39 43
-95.87838283660413 97.68721710813058 28.905957911542433 82 58 63
-96.32007537461458 98.4689238686332 29.080420176812563 90 64 74
-127.2995214815314 165.7389885393836 42.93011665308529 111 88 106
-77.57550108153059 111.86060478162588 27.714066291678996 109 86 107
-77.10665583389275 111.60313039246415 27.603078957597038 104 86 106
-76.65476891054941 111.36632738078505 27.49757875655362 95 87 108
-76.19301132651745 111.11270301086184 27.388263765343744 103 90 110
-44.698847031023305 132.52892854846866 24.951985897471737 153 171 214
-41.668757381156944 124.58833071082796 23.42089965950572 150 167 210
-233.84354357670716 77.71964922766837 48.74615477016859 165 181 233
-233.2358951981294 77.90714633569728 48.67047011583206 166 181 233
-233.37441239310152 78.34007556896903 48.748827098062925 164 181 233
-233.51340712869234 78.77450182055263 48.82745479381067 165 181 233
-233.44845095991346 79.14221170176576 48.864025268579915 165 181 233
-232.5686944353039 79.23734019460512 48.731797325516624 165 181 233
-103.50712121352959 74.34829835912448 26.913011986825015 110 64 73
-102.45481076224038 74.15894966721119 26.715908558509827 120 77 92
-96.09442830850661 70.9820163495324 25.263485192470505 114 67 82
-92.9675981886033 88.67471499640894 27.022876582953753 85 40 43
-92.87690518647516 88.90382121483292 27.037416396892983 78 35 37
-92.80178789392639 89.14784019353338 27.056429281668795 75 31 34
-92.72653883594623 89.3922538756219 27.0754712350049 73 32 33
-92.72974765520689 89.71074400256559 27.116911057769663 69 29 30
-92.8591461900085 90.14900389181459 27.19445560986843 66 28 28
-92.98932446690124 90.5898895186157 27.272465488521416 65 26 28
-93.13622006058428 91.0485193078699 27.35549959904384 64 26 28
-93.30005270755026 91.52527974407732 27.443643667642327 61 24 23
-93.51332964501124 92.05137190961446 27.546243152525467 55 22 21
-93.7606868279625 92.61259411162631 27.658951079366044 52 21 21
-94.01013663217819 93.1785642456424 27.772612510896074 52 21 18
-94.27816202128561 93.76521355225228 27.89198031395488 51 22 19
-94.51543125434222 94.32500107014575 28.002847592373005 48 20 20
-94.77132848577949 94.90558973120852 28.119445516374498 46 21 22
-95.02942320100198 95.49117022584538 28.237045493925866 46 22 25
-95.25593394752948 96.04873689898139 28.345861038360084 52 28 32
-95.43326845133137 96.56070843205055 28.44074517652416 64 40 45
-129.05008087446188 167.36193868084524 43.05538602531641 109 84 106
-129.01195942286262 167.9033679770739 43.11867836238718 111 89 109
-128.97370163854202 168.4465045232073 43.182167626690166 109 89 109
-128.93533206814737 168.9913886108339 43.245863024385194 109 86 106
-76.64388958154362 111.33870160650959 27.254067169400077 88 78 99
-76.19552572078065 111.10382508679425 27.15027784509187 107 89 108
-75.73738190116939 110.85222527398258 27.042734480344052 114 89 109
-75.41239100794677 110.7861516714613 26.980886157088296 116 91 108
-75.08879527080421 110.72035032942192 26.9193018801891 115 88 105
-42.65529121953487 124.09997795212844 23.31274907634292 157 174 220
-44.20300578218194 131.67561999271382 24.540030175245583 152 168 211
-41.333593021319025 124.15067361253345 23.102250503836597 141 154 199
-39.08143381276101 124.12891425807432 22.729671139106287 115 149 185
-40.51884785168987 128.97069002080494 23.587651814076658 147 168 206
-233.19787568372448 78.28943967707244 48.306358915352845 164 181 233
-93.08490127357233 89.40652221040376 26.902411625092977 84 39 41
-92.97810924030756 89.62234866892597 26.912486373547026 83 38 41
-92.96593650275979 89.92719241934769 26.949299450028942 78 35 37
-93.11222073423788 90.38205659009479 27.031010914528725 75 33 34
-93.24347406434902 90.824733608163 27.108723470582632 74 32 34
-93.37552738015253 91.27008193505151 27.18690627248609 72 30 33
-93.54055586241549 91.74871221107321 27.274694979763353 69 29 28
-93.73905905505393 92.26144340935357 27.37227517345104 61 23 24
-93.95532401445122 92.79357881564322 27.475217492022665 53 21 22
-94.17328287296245 93.32987005539452 27.5789645648593 50 21 20
-94.42593702982913 93.90217204301482 27.69294495996828 47 20 19
-130.6975423097555 171.23432918917078 43.44169678448166 114 90 112
-130.58948658356292 171.69929293771338 43.48327184573123 116 92 114
-130.48120628825214 172.16527331838225 43.52493971403731 119 95 116
-130.37268089730506 172.63224809893268 43.56669421710239 115 94 114
-129.76236864794038 172.44798355226746 43.443848811795384 117 94 116
-129.15533856899813 172.26470828506817 43.32166383886157 119 95 117
-128.51641206504084 172.03637591726556 43.188550095400835 118 92 113
-75.72689891875895 110.82499455422851 26.801286392222913 114 90 109
-75.41500988027957 110.77736864398499 26.74443121128405 112 87 107
-75.10437501691233 110.72994678859914 26.687806253607157 116 92 112
-74.78215427601533 110.6644271423324 26.626991233495268 110 85 102
-74.47405982305521 110.61742278477264 26.570833138417044 107 82 100
-49.35271683420998 143.61771037440153 26.67931701497897 157 174 221
-43.91468975070676 131.39915038493865 24.238703548720736 145 158 201
-41.35840585783332 124.72764342729923 22.973347859044093 123 129 175
-41.17069420605066 124.73416810500419 22.943607562475176 87 90 133
-40.977067124514214 124.7225253658155 22.910591829657196 67 72 104
-40.7713226880618 124.67468647616519 22.870996215148203 45 50 75
-40.55996874167088 124.60893694671584 22.82820766476575 41 54 77
-40.61252949739603 125.30519387994235 22.925375879001518 50 66 90
-40.6845822727038 126.06290318342785 23.033539208471776 49 64 89
-40.882304443882866 127.75160971017729 23.280651101302222 50 63 91
-210.47931984092153 118.98140496946058 49.359768234992465 83 63 75
-198.0719584719746 139.77517579724798 49.977062528462454 108 61 71
-110.95354597460387 82.51500427974365 28.68623858024346 84 44 51
-130.61347699568267 174.15011289364853 43.41417929457416 118 94 115
-129.92734871420626 173.8666374135632 43.26761258272869 122 99 119
-129.21006782940785 173.5382125058575 43.11034712652878 118 95 114
-128.56838876349568 173.30517279677807 42.977318598103984 114 87 108
-74.79770043014511 110.67400291028355 26.39599474188145 118 93 112
-74.48957509619457 110.62697953135067 26.340295499866322 110 86 104
-74.03086152987787 110.36211857360041 26.232809489695782 116 91 108
-73.55077724811086 110.06333210195089 26.117594558503015 117 88 106
-212.88060369156867 117.9671992476692 49.19265569386966 95 81 98
-198.7566348264885 139.7305772462229 49.64769515762209 118 67 78
-199.9618939406735 141.08600696543715 50.010032788105306 113 64 76
-172.19928836948634 131.06792512042628 44.311522430391676 126 73 83
-132.7246477679636 168.9782576798232 42.721761920726905 110 86 104
-133.05787374324683 169.98981360711403 42.901460747722325 104 79 100
-133.39400449303886 171.01017731250147 43.08272477328323 108 83 103
-130.63840087381897 175.39745014097028 43.189137077432264 112 91 111
-129.87751106645132 175.01378722830015 43.01933460989352 119 96 117
-129.12239249930792 174.633033735144 42.850819993739165 122 99 120
-74.02107145375378 110.33538721272667 25.99461338264957 110 85 103
-73.51622006031425 110.00083292253578 25.871960149177927 120 93 110
-73.04067312924684 109.70504317701766 25.758842103881744 123 96 112
-33.52932818079334 96.9779479502239 17.839921927643626 162 179 224
-94.84444724754647 32.58010422800625 19.45289191828659 165 181 233
-199.52967216709985 140.26347918283759 49.40219390445583 118 68 80
-200.4301988848296 141.40908774084735 49.68694651037851 116 69 79
-98.58492689168102 104.27572122216297 28.91438511138595 110 86 107
-130.98560910189366 165.62765126408564 41.64976481783531 106 88 106
-133.1288512249856 171.2619976380957 42.687108114357514 103 79 98
-133.05945858940055 171.77742363409178 42.73983129243304 98 76 93
-132.9898773494257 172.294255066537 42.79269833048686 95 72 89
-132.48437148566484 173.47429552658303 42.858336074993325 110 86 107
-132.15594710100916 173.66347718682348 42.829557822504064 111 86 106
-131.79124692563084 173.80516041490068 42.7891419486715 109 83 101
-131.42713201138508 173.94659786954114 42.74878865697111 115 89 108
-130.62854024781282 173.52217916094386 42.56942636797583 115 90 108
-129.83643029221383 173.10121057765951 42.3915205383408 110 85 100
-129.0507117642264 172.68363488581625 42.21504973089729 106 79 95
-73.50663793377609 109.97433859668848 25.635051355508846 116 86 105
-73.04363210461297 109.69661038108629 25.527145433341666 115 86 104
-72.59661450689492 109.43887911922188 25.42425273284102 114 87 105
-72.25005073621489 109.32439730043379 25.35503588147483 116 89 107
-70.15167487127796 108.9546664125027 24.975943432654642 114 89 104
-199.34849688716847 139.61794195147175 48.85881686701256 107 63 74
-200.05785752622728 140.6268814092793 49.09414800136427 96 55 64
-200.7111819117018 141.60201478681535 49.316510561703645 108 63 71
-167.4978194572461 137.1090865772907 43.533828480666905 103 57 65
-75.67198355242154 110.69784379993634 25.832792222595838 108 88 105
-73.48460296252239 109.92991055573671 25.39413644348067 119 92 110
-73.03425649306969 109.67034655158714 25.291397088127532 116 88 103
-72.61186471537414 109.4482725972734 25.19765362506979 117 89 104
-72.2774095412507 109.35145796941012 25.133105898392568 113 86 101
-71.96869430754764 109.29035890917565 25.076987809206784 109 84 99
-71.64929607305359 109.21194424611177 25.01706584102672 107 83 97
-67.30590773696537 108.90072567602719 24.294697628091892 70 51 62
-66.95149995381638 108.74043341453957 24.219231553339448 67 46 56
-66.39444490460866 108.26070293905954 24.07271446613839 65 45 55
-65.7804268688353 107.68686361114011 23.905696627651544 63 47 60
-92.713167960719 31.56952183263613 18.66152854607237 164 180 232
-92.37965268277746 32.084193494061246 18.67185571809518 165 181 233
-92.54710568892868 32.29723466953201 18.72385329293542 165 181 233
-92.6600086172721 32.49279391189913 18.765209280546472 165 181 233
-92.74003558905842 32.67794751944756 18.80016765430447 164 180 232
-199.93730995684112 140.0218728168319 48.56515201047072 98 56 69
-200.46296105760433 140.90507839125553 48.75438813272217 66 33 45
-200.9296457350683 141.75150100004186 48.92995175391771 96 55 64
-73.03722059275978 109.66193154169065 25.059892079625996 115 92 105
-72.61488688109664 109.43992377735293 24.966992410752585 112 88 101
-72.30476450700671 109.37850889724469 24.911099589545998 105 78 92
-72.00803111387224 109.33500993075319 24.85947128130317 88 62 75
-71.70044115907523 109.27406879192894 24.804031506051917 79 57 70
-71.39413258213914 109.21337019304059 24.74882131081683 78 57 70
-71.10097084506181 109.17045106432309 24.697821254679738 78 57 69
-65.68931635702702 107.52995366246228 23.653497237434188 87 70 89
-65.02292093929019 106.86773750378897 23.469079706397572 104 87 106
-92.84319944824226 31.45940379008901 18.50461825434782 162 178 230
-91.97941519340078 31.332448773167453 18.3555889340089 163 179 231
-91.86128411011332 31.448342621477337 18.351211438336993 165 181 233
-91.89512084216787 31.61444832261255 18.376400938087812 165 181 232
-91.97263599246905 31.79553208219046 18.410154150549264 165 181 233
-92.10513614788184 31.99558720440719 18.454701818483343 164 180 233
-92.24931108485801 32.20035380270588 18.50162350562015 165 181 233
-92.36115320697077 32.395051168256686 18.542328217557348 165 181 233
-92.45138908547626 32.583156475593775 18.578894878711772 164 180 232
-92.5198196083904 32.76449658958842 18.611271857645114 163 180 232
-199.75508258836973 139.37673550886873 48.0236678783022 120 69 79
-200.40397908242738 140.3415613091723 48.24004175992309 99 55 66
-200.74354296407478 141.09707757485464 48.38336884755737 81 45 58
-201.08522659722504 141.85729578051695 48.52758893240998 98 59 72
-161.54223808253101 140.10301325861184 42.19251203645969 77 35 42
-125.92100244084862 157.09576903181429 38.71630714973436 116 88 105
-72.63013460881665 109.44931572736259 24.740430163974114 92 68 86
-72.3199800562457 109.38788102668234 24.685015474925397 97 71 89
-72.03530180296383 109.36202182898481 24.637819069264882 102 77 93
-71.75162717734231 109.33624086361371 24.590787500302497 98 76 94
-71.45701365215938 109.2929699943477 24.539961227075246 94 73 93
-71.16354253686607 109.24987101086118 24.48933253259683 100 78 96
-70.85939757122631 109.18943823957413 24.434968933662 106 82 100
-70.5565232393951 109.12926020145186 24.38083272248025 109 86 104
-64.90281833775829 106.66469354623351 23.20920221761837 107 86 104
-64.17782852675815 105.90319212009985 23.00546181438432 108 83 97
-63.57468543631944 105.32840568995223 22.84301696556937 103 78 90
-92.26091861783459 31.272867380012645 18.229207567601744 164 180 232
-91.66533499465912 31.23272759721854 18.132982572987125 165 181 233
-91.5153316541829 31.337602105307738 18.122419511667275 165 181 233
-91.47305874112017 31.47795928132517 18.132617561704 164 180 232
-91.4522782724222 31.625671317412348 18.146990313532392 165 181 233
-91.46383671140525 31.784467624519863 18.167646690887942 165 181 233
-91.57280568155049 31.976348996963647 18.207194468347552 165 182 234
-91.70401329730542 32.17644677741741 18.251133969021417 165 182 234
-91.81406699740502 32.370166731835106 18.291066922779088 164 180 232
-91.91368307560184 32.56105600761581 18.32906059381634 164 180 232
-91.80551160553037 32.681518053495346 18.326774265811004 164 179 232
-90.23754363947926 49.2430856974871 20.05525443244055 113 88 108
-200.34521064603732 139.7801254998856 47.72759687142634 120 69 79
-200.87266284634708 140.66262988195797 47.913521067648276 115 70 83
-201.27770207662047 141.46458598872394 48.07107114284994 104 68 85
-158.9697704678331 139.88351278990177 41.38666800925195 105 55 62
-72.6820989508071 109.51196927242304 24.52583880955984 124 102 122
-72.38385315435539 109.46808888372745 24.47482543078493 122 98 118
-72.08676931005925 109.42438138279823 24.424011027524095 120 97 116
-71.79083520507957 109.38083780299911 24.373392658316934 120 98 118
-71.49605615693658 109.33747478973989 24.32297311888338 119 97 117
-71.20241127646875 109.29427047140793 24.272746601050958 120 96 117
-70.90989720487389 109.2512285884367 24.222713033827528 119 91 111
-70.61851925967214 109.20836578623606 24.172875212933036 115 88 106
-70.3165763263773 109.1482245044028 24.119360645701423 115 90 107
-70.06233267069844 109.15790992697806 24.081473028607736 116 91 109
-69.8203849472466 109.18495468612079 24.047537559536156 116 91 107
-64.08084178770781 105.73610669907136 22.756144438741067 106 83 96
-63.48930532142558 105.17919773014329 22.59909478028634 108 83 95
-62.92529153718572 104.6609425227673 22.45086734571375 108 82 94
-62.339572557542326 104.10309530348813 22.294599403544115 105 77 89
-91.8803207319677 31.152000044511205 17.994264353827397 164 180 232
-91.36411779922425 31.13719683033395 17.913944325926604 164 181 233
-91.16128780897995 31.224175603239704 17.89330750898251 164 181 233
-91.03349738235865 31.335654842475176 17.886977361795257 164 180 232
-90.90576331179702 31.447082607506015 17.880649734143738 165 181 233
-90.78872656290183 31.562013054606457 17.876362781670895 165 181 233
-90.84201727222016 31.73407964999523 17.90472902142775 165 182 234
-90.98105966411154 31.935599978215457 17.9496156090337 165 182 234
-91.09934162138195 32.13089830721004 17.990609597938004 164 181 233
-91.21818724561487 32.32713755360822 18.031800146217993 164 180 232
-91.12159872470188 32.450386870377926 18.031605093403048 164 180 232
-90.90671436488628 32.53298175737297 18.008617300724467 165 178 229
-90.6322241706211 49.64961066203587 19.981657521478823 117 87 104
-199.8507466410003 138.92239172270527 47.11556682011598 82 43 50
-200.87574656391533 140.1425629238254 47.41522266795779 114 65 74
-201.4066466857461 141.02871885827028 47.60034815120556 121 71 82
-201.814517754601 141.83392213679184 47.75721683076181 112 70 84
-116.1615125254758 146.69919921379093 35.291631281364964 112 88 108
-72.13828665891474 109.48680126519518 24.20999483227203 114 90 112
-71.84210943301419 109.44311627256056 24.1597678734028 114 90 111
-71.53511716982516 109.3819984538598 24.1058425825741 114 89 109
-71.25320131307063 109.35626442756262 24.059899554763113 121 94 114
-70.97228995411565 109.33063056198843 24.014121223832547 120 92 110
-70.68059534449606 109.28757361248888 23.96465054633251 114 87 103
-70.39002568498273 109.24468581726619 23.915371022555135 114 89 103
-70.13547629123613 109.25424547954982 23.877748248840184 116 89 104
-69.87007701688941 109.24636597761896 23.83642109316917 114 87 102
-69.6055213794409 109.23850621722615 23.795224681525298 116 90 108
-69.3303576428699 109.21333301813193 23.75037549175757 117 90 109
-69.1131407224719 109.2748380691975 23.724550115910645 115 88 106
-62.85131620416803 104.5294539726061 22.21277555047221 116 87 102
-62.29572554844109 104.01934553987736 22.068156728789976 116 85 100
-61.71875845395355 103.47011664558218 21.91567901226543 114 86 100
-33.93370424400047 97.51477495984678 16.985166275436523 157 174 220
-42.93686057871151 123.03281800361066 21.359412673077063 160 176 223
-91.55657450814483 31.04963099570642 17.77139882621236 164 180 232
-91.08620813090943 31.049277973818782 17.700382181433046 164 181 233
-90.80997707035183 31.11162470000592 17.665965117998226 165 181 233
-90.57699343093202 31.187717418876737 17.639675503590347 165 181 233
-90.34464194291267 31.263602772835803 17.613457115161484 165 182 234
-90.20605359870905 31.677146748281842 17.640730652905287 165 182 234
-90.3109158568255 31.86659912026141 17.678628536451313 164 180 232
-90.41626605874654 32.05691893808666 17.716701121699497 164 180 231
-90.3416096014521 32.1863219054744 17.720513797975183 163 179 230
-90.182247376967 32.28669200122942 17.70816199465372 162 177 227
-90.01252658482379 32.38330421604366 17.69380928032764 161 176 227
-89.84303624915039 32.47978394271742 17.679475903146844 162 176 228
-200.50292087677698 139.36681041103958 46.83176143775721 69 41 50
-201.4088949842618 140.50678502161858 47.10129620599745 98 56 66
-201.87969665690176 141.35277908626415 47.27091172303906 120 70 79
-112.52172156242965 144.20903418927853 34.12012830141643 58 50 60
-112.27789115364305 144.91799406198973 34.16594297657439 76 58 70
-71.57420542938543 109.42655383780837 23.88857235339283 121 94 114
-71.3040408282589 109.4183188574466 23.84684657802734 118 88 106
-71.02289939557625 109.39255631773268 23.80142217109958 116 89 106
-70.75453882448495 109.38441164689402 23.759979135991106 114 89 105
-70.46359440990898 109.34130416084997 23.711054502362973 110 83 100
-70.20873037044053 109.35072529200912 23.673694762682096 113 86 103
-69.94299757366225 109.34267909633536 23.6326597174337 114 88 106
-69.65505488885826 109.29987440610478 23.584223308561153 111 85 105
-69.3682085508637 109.25722577128519 23.535970515362806 111 86 106
-69.16230668106586 109.33606022203446 23.514086843864266 116 90 109
-68.9681103590606 109.43211861721582 23.495976386023102 116 91 112
-68.76282497433762 109.5107067161891 23.47415703383981 118 93 116
-61.71363326670376 103.44825369104692 21.704085062570886 111 83 97
-61.22861046518621 103.04189875110235 21.583549941115884 112 86 99
-60.76726117977188 102.6697220362479 21.470569423749286 113 89 103
-33.59943813206839 96.19822458067374 16.617053269146986 158 173 218
-91.27785040930388 30.961911031597854 17.55810461061426 163 179 232
-90.79940498773315 30.95842754419213 17.48614350557519 165 180 233
-90.44033026069032 30.99301505892074 17.436426850471374 165 181 234
-90.11456830128273 31.037790982875894 17.392867662224432 165 181 233
-89.7695493138607 31.075441541267224 17.34560652442278 165 182 234
-89.52402748881865 31.75587801103625 17.38735720168233 164 180 232
-89.48098601016402 31.894600802173972 17.396918084510336 164 180 231
-89.38590084453304 32.01562712009461 17.396654103765677 162 178 229
-89.29079958258387 32.13668265140377 17.396391084636274 161 176 228
-89.19567447136167 32.25776474176976 17.396127561425153 162 175 227
-89.14199116535536 32.393347785705316 17.40373468759971 162 176 228
-201.15912700625154 139.81397660725045 46.546203172855705 85 55 71
-202.00823756118075 140.91647252827508 46.80034881554679 95 56 70
-204.7441474276582 145.46013036833662 47.73355413099916 90 60 75
-98.90947670115136 131.2660970122225 30.26729087212871 88 68 86
-97.78891164445912 130.27770193747102 29.98570362775252 89 70 88
-71.6133209463257 109.47114094818147 23.67116227222738 117 91 112
-71.34300468723627 109.46282940227441 23.629773495553074 119 91 108
-71.08543295895193 109.47213538672138 23.592322644376353 115 90 108
-70.81679493784125 109.46385133475314 23.551188046523443 118 94 111
-70.53728256005179 109.43807957143143 23.50641021000784 119 92 108
-70.27042268136769 109.42986979230318 23.465550128182855 117 88 105
-70.00442323917162 109.42169517327248 23.424822793655917 116 89 109
-69.71617967248443 109.3787130335403 23.376754248522058 116 89 108
-69.4175532834229 109.31850854886756 23.325146585582765 120 94 111
-69.21151691044652 109.39733675182832 23.303421461082863 118 93 112
-69.02859554049803 109.51078153155134 23.28914578043411 118 93 114
-68.83448434778504 109.60672868767395 23.271178534844758 124 100 120
-68.62930521081351 109.68517795194589 23.249537922309454 125 101 119
-61.24234148081694 103.05035647114784 21.379524147307496 107 79 90
-60.79015474337307 102.69305023167574 21.27068524726966 113 88 102
-60.34243137778381 102.33927349121221 21.162920963245288 121 98 111
-59.90811359214031 102.00363111148077 21.05925307981248 108 82 102
-43.28832526078564 123.40129648378249 21.04121318664589 160 175 219
-49.57931621934051 141.47687313292968 24.06673084297069 155 172 216
-90.56707311198971 30.885398628564804 17.283035568957807 164 180 234
-90.22002162292338 30.92353790957494 17.235941991205973 164 180 233
-89.87477685525772 30.961482833837753 17.189094057322208 164 181 233
-89.53131109570529 30.999230394267894 17.142487315900873 166 182 234
-88.82632151531999 31.97895670917057 17.149801175455217 162 176 226
-88.73163509306137 32.09939428121938 17.149511065362507 161 176 228
-88.67797101272816 32.23418728762113 17.156940524675544 162 177 229
-88.64477297107575 32.376332458499306 17.168242988831967 162 177 228
-217.09636283786375 120.76305069088788 46.2977909392681 110 83 96
-216.53939297159565 120.93453738357961 46.23479883323695 109 83 93
-200.53537043566627 138.86904113516164 45.90932820938408 93 64 85
-202.32728534822928 140.61153373960337 46.37383910443349 91 63 81
-204.51227054772153 144.2265350023544 47.110336796151394 91 53 66
-205.0039599997572 145.1030206004826 47.283261908273175 96 63 80
-205.56563612301974 146.03255100560258 47.472616039731335 96 64 81
-205.00438128563317 146.17774019552877 47.405987273069385 86 56 71
-186.59685535009595 155.7417450211555 45.7688582092982 98 51 60
-91.88763842679403 123.92615600818293 28.097983874782287 107 91 114
-71.61648568937629 109.46284348489108 23.44223923526979 121 95 113
-71.35813183221133 109.47214707845563 23.405002958209664 121 94 109
-71.08866968293015 109.46385815795979 23.364112079824512 117 92 109
-70.83187583896597 109.4731405266947 23.32710463521123 122 97 115
-70.55233681710867 109.44735235176348 23.282722696365333 125 99 115
-70.29713613430695 109.45662174031574 23.2459499390238 122 95 110
-70.03105409894263 109.44840716146938 23.20556861062266 122 97 113
-69.75426395459719 109.422786641019 23.16161329809197 126 98 114
-69.46695098372916 109.37985866720086 23.114122708470802 126 97 113
-69.24932993459812 109.4412881613721 23.08887400545881 126 98 115
-69.03212205871785 109.5025962289452 23.063672691872533 130 100 116
-68.80398372355978 109.54642985647946 23.034856615095215 131 100 117
-68.56504885721519 109.5728092447622 23.00244793411831 133 102 118
-61.10687816974464 102.8187217984824 21.125979023191384 113 85 99
-60.665609224876135 102.47824449315351 21.021705404364415 110 83 98
-60.21946531549902 102.12628403593092 20.915398497903215 110 85 101
-59.79565093494587 101.80698940652562 20.81613000845473 107 83 104
-34.04299555967013 96.923131629893 16.441161621585355 162 178 224
-49.178093945149705 140.3581772051049 23.64222539889257 154 171 215
-90.32546442828888 30.80931499672794 17.07905420750886 165 180 232
-90.00081071442595 30.85440703102265 17.036451478844157 165 181 233
-89.66733727094129 30.895861705322876 16.99214220970245 165 181 232
-89.33550743316218 30.937111968813856 16.948051319359156 165 181 233
-88.98485234519019 30.97132407202631 16.90039985880571 165 182 234
-88.83972813867749 31.073737322166334 16.890646236169808 165 182 233
-88.24921819078716 32.08731043101281 16.918369387290358 162 177 229
-195.86497895590549 114.83048594450871 42.073712033593274 60 33 40
-189.2024280952095 111.41929630229487 40.70963169625439 47 31 35
-96.23856959967294 62.636466744543306 21.542422568395775 123 71 84
-201.69464221175036 139.65764198409508 45.73421960437646 97 64 86
-203.57295769790895 141.46212202135683 46.213970747814145 97 66 86
-205.03317773919 144.05267095172508 46.72107976229064 104 61 70
-205.5273322449378 144.92933858094707 46.892690731790516 86 50 62
-205.95885836641827 145.7664058148153 47.05062823514621 97 65 81
-206.39341631189666 146.6093555894839 47.209675543413994 99 67 85
-205.7624926992699 146.70767913862144 47.12809019079853 94 63 80
-204.93535910693927 146.66594060179273 47.00186014687647 80 52 66
-187.90137524473968 155.13152650376625 45.45549193901154 113 63 72
-179.9585595166936 156.85633435251742 44.48340133369751 87 60 76
-151.97928607952895 145.15457598600108 39.051272207936094 119 67 75
-151.23694716015447 144.9687492794817 38.92122574608824 118 66 74
-102.61695992018517 110.64964178858517 27.902248795355053 125 94 109
-90.50595531800182 122.10627167706616 27.41694414466681 108 88 109
-89.87208439245151 121.7044446902448 27.278437176495846 106 85 107
-71.63163483993488 109.47217471557329 23.21714172235752 119 94 109
-71.36133765877055 109.46387024583717 23.176493853832625 121 93 110
-71.09191024121277 109.45559082096084 23.135976592779986 120 92 108
-70.83514480551503 109.4648714755005 23.09930282263983 119 93 109
-70.5556466461217 109.43910462498891 23.055330961021284 124 99 117
-70.31216866062701 109.46588113544065 23.022585317070373 125 99 116
-70.05768976674625 109.47512211120929 22.98624298621207 127 98 113
-69.80393524488717 109.48432421752102 22.950002684348796 127 95 111
-69.52789504771438 109.4586697439029 22.90655153153836 128 97 112
-69.2757128939632 109.46787097511668 22.870542130787904 134 104 119
-69.02425361693858 109.47704629333961 22.83463600270067 134 102 117
-68.76218298898776 109.46886198619683 22.795210286189942 133 100 115
-68.48966793319886 109.44339186388666 22.75229784064486 133 102 118
-60.514146835993515 102.220030472201 20.764767238238683 114 87 102
-60.07894822509047 101.88490783756795 20.662981448480295 117 92 109
-59.656816188145974 101.56750444877548 20.565116565892605 112 88 109
-59.212043462960985 101.20973449387623 20.459366360988408 110 85 108
-34.335623443878134 97.67312243292427 16.40528208084442 161 177 223
-48.56360761679844 138.6630049097656 23.12507548386256 154 172 216
-90.07473249777766 30.730226046302757 16.87427479217729 165 180 232
-89.77231187435926 30.782203228124125 16.836055277801506 164 181 233
-89.46087205215755 30.830548779781292 16.796116856666366 165 181 233
-89.1405780650802 30.875270893900158 16.7544844708636 164 180 232
-88.82178122185202 30.91978253023773 16.71304652623624 165 181 234
-88.63635150845067 31.00837269361189 16.69595076940773 164 182 233
-88.53236222699425 31.12417736544918 16.693752836752367 165 181 233
-88.56412277683617 49.33888131750054 18.73390610142555 114 89 104
-96.03163991381138 63.216352803597005 21.37190360288338 119 69 80
-202.86687668352735 140.45506075352841 45.55714775475481 103 70 91
-205.81874080652608 144.06028272634873 46.389787192698115 116 70 81
-206.18425800595372 144.84706645812213 46.53092585579429 88 48 58
-206.48547086513202 145.59257786945145 46.65809047332511 84 50 63
-206.85533915449668 146.3890386977963 46.80094402695668 98 67 84
-207.16032307286818 147.14354058783857 46.92966236002653 100 69 85
-206.5259495751972 147.24135471738268 46.8482376794106 98 69 85
-205.6939535459405 147.19810120531884 46.72227742762557 97 65 82
-204.93227345597475 147.20182488247067 46.61180395368944 108 66 79
-205.13232062298763 149.52392960068119 46.90042774718285 115 62 71
-205.70121969241376 150.48304009015993 47.090433726188806 118 63 72
-152.87499991462604 149.1006466488722 39.2452151203809 113 62 73
-89.54393684492409 120.83566375877382 26.866460470319318 105 83 100
-88.97275434479722 120.51165199982925 26.747095602919853 106 83 102
-71.63479223708265 109.46387272752004 22.98832783636841 124 94 111
-71.36452988333481 109.45557753571237 22.948054543229798 126 95 113
-71.09514593435179 109.4473204872409 22.907913395711187 126 96 112
-70.83841760465951 109.45661234575338 22.871575848531833 123 92 110
-70.55896030780592 109.43086685044518 22.828013798578016 123 95 113
-70.32720118694706 109.47514053056557 22.799220695116954 126 100 116
-70.09595985858557 109.51931188428223 22.770491539573765 129 102 117
-69.84207554304476 109.52846306321507 22.734552318489186 132 103 118
-69.57740114196491 109.5201560580386 22.695091230253528 133 103 118
-69.3021091953603 109.49446975213834 22.652142209572013 135 107 123
-69.01639279679269 109.4515166041181 22.60574593554645 135 105 120
-68.72044828150985 109.3914167553883 22.55594441779017 133 102 116
-60.36347418766253 101.96316273700013 20.50916772754685 116 89 104
-59.93911624665304 101.64470879538297 20.411799489057582 117 91 107
-59.51865730552998 101.32918541887783 20.315326385025877 115 94 111
-59.093238350806224 101.0021786363738 20.216847881311818 112 89 110
-47.95569658565301 136.9864130435544 22.616692674040713 154 172 216
-89.82541430988114 30.65158311977001 16.67064564674178 165 180 232
-89.54499528601166 30.71037307307447 16.636692475013145 164 181 233
-89.24512338328915 30.76214978414395 16.599157653073135 165 181 233
-88.94651549751602 30.813704766946433 16.56178066281789 164 181 232
-88.64917663064323 30.86504374556352 16.52456285868593 165 181 233
-88.44403738082201 30.94670966155213 16.503998685229938 165 181 234
-88.28978981666162 31.04521650793907 16.49263806190506 165 181 233
-203.98772863992392 141.21742163614368 45.363898212814036 113 77 95
-206.80716930591637 144.204890952666 46.10092654350589 117 72 86
-207.04337231886035 144.90250338413438 46.21212979978275 99 58 67
-207.28080338302382 145.60369516156427 46.32390595017856 74 38 49
-207.51942583876306 146.3084619324716 46.43624922498352 89 58 71
-207.22741160179913 147.7314670223305 46.551452418026074 104 72 91
-206.39095145663748 147.68681781604653 46.425848800142894 105 69 88
-205.62528587315776 147.68946570013753 46.31568717289382 115 68 81
-204.79692589624946 147.6451477049438 46.191288698654304 120 69 78
-204.96243090966223 148.3065143404953 46.288285737200056 120 68 78
-205.39501434777478 149.1614000312294 46.44520699536413 120 68 76
-205.8306494021299 150.02232946265252 46.60323667997091 120 66 74
-206.33684480142566 150.93800002642965 46.777497588498214 120 65 73
-205.43082974819595 150.8363605758974 46.63555912610026 120 67 77
-191.37080057447494 154.57370405504997 45.020473862696676 61 31 35
-123.60038870280479 126.73227393907848 32.1657835306988 116 82 98
-88.80590523781707 119.85825206676152 26.386356548403626 109 82 97
-88.27626259928704 119.58531974929285 26.279774984355672 109 82 101
-71.09837676234721 109.43904715679999 22.679922488618114 130 101 117
-70.84169424175359 109.44836314075128 22.643923633331134 128 98 114
-70.56226913647146 109.42262609896807 22.600768448773877 124 96 114
-70.34223371326712 109.4843999256905 22.575856073163532 127 100 115
-70.12261618197184 109.54604720992323 22.55098999167416 129 101 117
-69.89183351417066 109.59010781717646 22.522568833637838 130 103 117
-69.63848422029479 109.59914533465557 22.487020039749215 133 105 120
-69.33997606353057 109.53848143534164 22.437250396907068 135 107 123
-69.01992171701035 109.44335222076884 22.380561993786312 137 106 122
-60.213583556643144 101.70762826267928 20.25489592601265 111 84 98
-59.791013533261776 101.39117499992672 20.15894886016193 113 87 102
-59.390025271324646 101.10642549817848 20.069620365749717 107 83 102
-58.97493939643249 100.79550720338332 19.975364909878813 106 83 104
-34.14112651385795 96.71135350617548 15.941308084977063 160 177 223
-43.07910587551482 123.24510840244108 20.16429499146718 156 172 216
-89.72203180491519 30.620740853239603 16.49399540211924 165 180 232
-89.44216028523708 30.679519024668103 16.46042100323283 164 181 233
-89.17358717822525 30.74146153381953 16.428807610292715 165 181 233
-88.90597296965575 30.803183386094034 16.397307142645673 165 181 233
-88.62916545957887 30.861294316008085 16.36409771663049 165 181 233
-88.40390448436528 30.93614824308401 16.34008720296844 165 180 233
-88.1893121444928 31.014201382957076 16.31795149332507 165 181 233
-207.6383793884642 144.7737786252032 45.83315464165554 97 58 67
-207.87762022758105 145.47552686598175 45.94410069103337 72 36 44
-207.983104257315 146.08745671415934 46.02610494132616 77 45 56
-206.8905471497322 148.03635199504987 46.083093607703496 115 70 87
-206.05522140460818 147.9909386739399 45.95873076042853 120 69 81
-205.29055040787316 147.99290501178123 45.849648774106846 122 69 79
-205.3909634410342 148.6090813373376 45.931392648720696 123 70 82
-205.75897544496067 149.41880631907142 46.07255386905722 125 71 83
-206.129360916512 150.23375010594225 46.2146251204363 122 68 80
-206.50215056620047 151.05396886530238 46.35761693546655 121 65 75
-205.5950658344461 150.95192298961967 46.216803401118916 119 67 75
-194.96819003400879 155.17808480950944 45.16008494535197 110 61 65
-88.14208063095786 119.39710763739629 25.977680729308965 114 84 101
-87.35228354136062 118.77760822977113 25.797037382358695 107 79 96
-71.0660551522931 109.37813760257323 22.44116641420426 131 100 116
-70.80957790766679 109.3875260752176 22.405534064527263 129 98 114
-70.54212180323869 109.37941002031715 22.36641799035649 125 94 110
-70.31052893023593 109.42371121929814 22.3381608705469 126 96 111
-70.09108792220987 109.48538543635516 22.313540753627198 130 99 114
-69.84890300696702 109.51202244123375 22.28183773567649 130 101 115
-69.584297276976 109.50373685926232 22.24311053403467 131 100 115
-69.25186980757324 109.39122728838768 22.1832903119067 133 103 117
-68.89843076761707 109.24469956934848 22.11674625307515 134 103 119
-59.74184475070466 101.29799538479158 19.938829250003906 117 90 104
-59.34146940955399 101.0139318549624 19.850534068240055 109 85 105
-58.953260459809854 100.74657000384519 19.765804540975182 109 86 106
-58.55958367383473 100.46722380509274 19.678982743382132 108 82 103
-33.796122365859155 96.18466125903782 15.671070481290437 161 176 224
-59.994917154887986 180.73312421601116 28.662859311318677 41 49 71
-89.670528455998 30.606891692080833 16.32692077177011 163 180 232
-89.34984564183503 30.65212225659648 16.286402598276204 164 181 233
-89.11241007053137 30.724196510738675 16.260576849151455 165 182 233
-88.87565982754359 30.796061143632258 16.234825471072444 165 181 233
-88.63959360667083 30.867717609890256 16.209148436431132 165 180 233
-88.38400843763041 30.932381382901465 16.179950893242445 164 180 232
-88.10916673373589 30.9900426698095 16.147268941915748 164 180 232
-87.84536901848004 31.05088263921325 16.116494777322753 163 179 231
-87.78274260220805 49.1157297159217 18.0618851895502 98 79 98
-207.7647347092363 144.3229409278364 45.351820440127405 67 40 50
-208.4084413458277 145.30064485324283 45.548742603934805 61 34 41
-208.58276468147204 145.95951714289387 45.64470510574221 69 40 48
-206.55390542835002 148.3410458857324 45.615036835266636 124 71 83
-205.7197131169214 148.29486969879702 45.49191325101551 125 73 83
-205.7543412125435 148.86519433357654 45.5585146977627 124 71 82
-206.05701699451222 149.62904179628103 45.68400915748748 126 71 84
-206.36146427572436 150.39733342985534 45.810235246831915 124 70 83
-206.66766791491267 151.1700860959361 45.93719264576797 122 67 79
-205.69237969675743 151.01907209964668 45.78274738875825 121 70 79
-196.86975343190448 154.41835139395252 44.901128388325496 73 36 39
-88.07544436783887 119.29756844411384 25.695619577451076 115 85 105
-87.25378317641292 118.63580307968472 25.50767593733069 114 86 106
-71.02193797529604 109.29978192939137 22.199145505411654 126 95 110
-70.76573354909046 109.30928074109545 22.163892513840434 125 95 110
-70.51026660630174 109.31874909691543 22.128740661035483 126 95 110
-70.27886547013513 109.36310132151029 22.10077046093613 129 98 114
-70.03636180042025 109.38990192287031 22.06932931604579 130 98 115
-69.79448218173583 109.41664022479866 22.037969802156425 126 95 110
-69.51872497526448 109.39113245786146 21.996160963359973 129 98 112
-69.15261502302918 109.22708776610158 21.926570507971647 127 96 110
-59.70170004337627 101.21946098747547 19.72197944694261 125 102 115
-59.31066962820638 100.9503328675373 19.63749211022212 117 92 111
-58.93160336634906 100.69768387829707 19.55648170801264 109 85 106
-58.55554905690511 100.44704700234315 19.476115492930468 108 84 104
-43.54802798446243 91.2551464630191 16.356550046575936 109 87 104
-89.27823433509069 30.6315377116754 16.11637037832375 165 181 233
-89.05132611264767 30.70695766164027 16.09260826456611 165 181 233
-88.84537643534685 30.788946159003793 16.072489044116864 165 181 233
-88.65002175376279 30.87414090377243 16.05419915623177 164 180 232
-88.35403464056216 30.925227018926005 16.018142981200143 164 180 233
-88.02918742551849 30.965934254418176 15.97692779218317 164 180 232
-87.71589624653491 31.0098283085149 15.937674674437819 163 180 231
-87.28588328301196 48.84859341720386 17.78592533254482 124 104 122
-208.5344887758821 144.84770649685007 45.06598516681353 76 50 64
-209.0479996301312 145.73784890590818 45.233258456304156 76 50 64
-206.1505272855529 148.59799637386845 45.13280092785185 124 74 84
-206.11887923902873 149.12212503842616 45.18443791289824 125 73 83
-206.35582785000238 149.83981995090062 45.294464083273 124 73 85
-206.59399617893996 150.56121850736872 45.405057612883766 123 73 83
-206.8334215616073 151.28636952185417 45.51622896192009 120 70 80
-205.85695451972458 151.13487222493802 45.36303872733583 118 68 78
-198.63885787462743 154.6579308505024 44.727397096324474 70 35 37
-180.523065892405 159.55652661740336 42.71016566749154 91 62 79
-180.23756924830127 159.87446174223575 42.704131368684166 94 61 77
-87.13906844969648 118.47267982366739 25.214428653005736 116 90 113
-86.33110561554577 117.82244885225926 25.031517011051573 119 94 114
-70.96607897612365 109.20406595170176 21.953985535391645 128 97 112
-70.7219606363004 109.23116258257993 21.92263901438686 126 96 111
-70.4667570630447 109.24072943347113 21.88786191047913 128 99 114
-70.23558885887195 109.28513208409726 21.86018364585759 129 100 116
-69.99334114760582 109.31202117574497 21.829077337129682 126 96 112
-69.72862859057769 109.30405424511193 21.791090342859402 121 90 107
-69.45329566895077 109.27877428108124 21.749761168546414 120 90 106
-69.05367344525338 109.06346646231081 21.670665217811493 122 91 108
