ply
format ascii 1.0
element vertex 718
property float x
property float y
property float z
property uchar red
property uchar green
property uchar blue
end_header
-75.65671519068545 38.99217185229709 -23.78331951581154 74 84 100
-75.40752716583748 39.011248581549935 -23.74293506283988 71 82 101
-71.54312346971925 43.61460938115309 -24.19291395164734 86 89 119
-71.52732478753616 43.76011717282584 -24.226407377275716 87 90 119
-71.51886590036032 43.910365179494974 -24.262415087511727 89 90 120
-71.51037918062822 44.061002091987916 -24.298514925234155 88 91 121
-71.5092720326242 44.21646844587962 -24.337158548558538 87 90 118
-71.50816255564874 44.37237369669261 -24.375911411001226 87 88 117
-71.51446463195728 44.53319418721744 -24.4172352910889 85 87 117
-71.51335696817779 44.690002644870646 -24.456214153881763 85 88 119
-70.3879442220921 52.55077745532731 -26.216361488051785 103 73 88
-70.40842949050152 52.74659756281031 -26.269000120639703 105 73 90
-70.43678575933166 52.94881482596392 -26.324663284910933 95 62 81
-70.47308338835704 53.15754311839404 -26.383392181522503 104 68 86
-70.50168369512657 53.36137256426674 -26.439502377351186 113 77 94
-60.954321527325334 61.30368708232698 -26.694032540751582 116 80 98
-60.55952089676919 61.12827481651718 -26.578669961764795 119 81 99
-60.228002021954495 61.012838653300435 -26.489758934564883 114 75 93
-59.91198684349782 60.91113797144724 -26.4070889490004 112 73 91
-57.93371094228439 60.18949351735787 -25.868333733108695 106 74 89
-57.76314229715956 60.22384531787476 -25.84601105855991 112 76 92
-57.67355686517346 60.33940725538027 -25.858652754122918 110 75 89
-57.58392028453763 60.45504614282727 -25.87130440837534 102 72 87
-57.48802858990514 60.56446502648405 -25.881268579228113 99 71 86
-57.26863148385801 60.54818034905672 -25.837446738129177 101 72 88
-56.93389319533363 60.413242222393315 -25.74307969257911 102 73 88
-50.80698670115102 55.084776651849076 -23.301582810987505 95 74 91
-42.53620118730225 68.1560449627592 -25.068919345915415 76 86 96
-41.24151348237341 70.98038450925989 -25.54001091099285 82 81 98
-41.22827122684745 71.22345931118664 -25.598345261594282 83 81 98
-41.21932782521594 71.47474306478735 -25.659509587722383 82 82 97
-41.11449652231632 71.56850746606861 -25.663942603319732 82 83 98
-41.00099322460842 71.64786527015467 -25.663204744923586 80 81 94
-40.89185962761776 71.73440142770377 -25.665052197600836 74 80 85
-40.78274713641378 71.82091870757611 -25.66689875777481 65 75 76
-38.37132641424518 82.25320669188004 -27.836540122570607 84 93 103
-38.37241377312017 82.58605348264963 -27.91990097199805 82 93 103
-32.16416827421873 104.17275708389364 -32.188587539892325 83 89 101
-82.7024614427663 38.567976148078394 -25.097798875798002 69 77 96
-76.65061535607592 38.61959574500462 -24.007398994856405 76 86 104
-76.47647918606076 38.677795907123894 -23.990265737343243 77 87 105
-76.37285859233714 38.77047741219122 -23.994647555516615 74 85 102
-76.2692379986135 38.863158917258545 -23.999029373689986 74 83 100
-76.16561740488989 38.95584042232587 -24.003411191863353 74 82 98
-75.97655248651616 39.005956489109494 -23.981526109636587 75 82 99
-75.7183679526475 39.02119551877962 -23.938281096053533 78 85 102
-75.46121265180514 39.03637726827197 -23.895209346564464 76 84 102
-71.57294977884206 43.62970892843773 -24.33976397447674 87 91 120
-71.54980715710539 43.770906104537374 -24.371001430877982 88 91 122
-71.54876080528669 43.925592262594655 -24.40965473247985 88 91 121
-71.54031554471541 44.07629743224547 -24.44595939018949 89 93 122
-71.53924352248767 44.23182824407679 -24.48482011714464 89 88 117
-71.53817599729763 44.38780228443075 -24.523792965483363 85 83 112
-71.53710474716547 44.54421650612194 -24.562875670993126 87 84 111
-71.52859545437286 44.696570329000856 -24.59958265660982 87 85 120
-71.52750978322878 44.85385034619805 -24.638880147457634 94 99 148
-70.49469491338616 52.805398773967994 -26.447335053300673 90 74 94
-70.5232545442236 53.007952060642054 -26.503406239013003 73 60 78
-70.56761322055485 53.222761984130514 -26.565435709809545 88 66 82
-70.58856383165504 53.421189374429694 -26.619083555932814 102 72 89
-70.6095982275131 53.62035311719108 -26.67293158696728 106 73 89
-71.9875437631915 59.10717407194122 -28.30198132374725 91 61 76
-61.03048123546167 61.37175387073258 -26.8729789718865 122 85 100
-60.56108854134354 61.12393114474062 -26.725167995127418 118 80 99
-60.203036813090215 60.98255857971634 -26.624387785958838 110 77 97
-59.85437311330031 60.84874448070432 -26.52721723321464 106 74 92
-58.03757051111821 60.08225793424697 -26.0035043048464 101 76 94
-57.730235090220056 59.97986629775682 -25.92175931716687 99 77 96
-57.56665107298903 60.02051536212393 -25.902142560043636 96 75 95
-57.489652163198045 60.148058665218294 -25.920132331716637 91 75 94
-57.41874654753683 60.281978078780895 -25.94083416177494 88 76 95
-57.341583606434924 60.4098033119806 -25.95886482451713 88 77 94
-57.13529064821117 60.40633763893432 -25.920383557133515 88 76 96
-56.82615913536016 60.297096322611694 -25.836591049167325 90 79 98
-50.90836181381401 55.18455740510665 -23.473831173818514 81 76 94
-41.24058338140174 70.96823209885908 -25.674741339166747 62 66 81
-41.23168741624394 71.21837004398469 -25.735932922663274 62 67 80
-41.22275128734689 71.46961523453423 -25.79739522991102 57 61 74
-41.11793054724942 71.56337018811436 -25.801827798837717 61 64 77
-41.004440314752 71.64272489021184 -25.80106363618078 61 65 76
-40.89531648713457 71.7292514015355 -25.802896500560745 60 67 72
-40.781904175257104 71.80854681017126 -25.802131654760455 64 73 79
-38.4015833041298 82.29989124093736 -28.00269333756096 87 97 106
-38.40714960959868 82.64201039819459 -28.089619553259574 86 97 105
-76.82335445474706 38.70233242330351 -24.19702825298171 78 86 106
-76.64084632659642 38.75672652156656 -24.17727583775807 78 85 106
-76.52918215186989 38.84573233142174 -24.179254455095048 77 86 106
-76.41753868657723 38.93471961811051 -24.18123219668938 78 86 106
-76.29810727632466 39.01981296273669 -24.180798552537667 76 85 104
-76.1085922360126 39.069937001804355 -24.158683105330546 77 85 104
-75.84974260104028 39.085077102760515 -24.115019568518512 81 87 105
-75.58421297678247 39.09628925856334 -24.069139312690215 80 86 105
-75.31213582169154 39.103600622706395 -24.021073489448703 80 86 105
-71.62492015503113 43.65788834038434 -24.494059852290658 89 92 123
-71.60920707563113 43.803580357229684 -24.527946302288502 88 92 121
-71.60084191895668 43.954017575325594 -24.56437825440072 88 91 120
-71.59986208466114 44.10927056359537 -24.60338037916855 85 84 111
-71.60629761174968 44.26940607252212 -24.64497503318742 65 57 82
-71.60531665844155 44.42555463663747 -24.684202973038236 66 52 76
-71.60433849976269 44.58214798863167 -24.723543678593746 66 54 90
-71.59591413046049 44.73467696711567 -24.76049267512187 98 101 161
-70.56550767012754 52.85297314599576 -26.620320014349836 90 90 104
-70.59423051984123 53.055794422984576 -26.676775944738413 79 81 97
-70.62306197251168 53.25940273501791 -26.73345042517555 81 78 95
-70.64413392371574 53.45803065671958 -26.78744454600485 84 74 92
-70.66528278249334 53.65739074653356 -26.841637555537304 84 70 90
-61.18860817413286 61.519374846258145 -27.08735791477857 105 82 101
-60.62304687506871 61.17841136370399 -26.897558442654983 103 88 110
-60.20463754536495 60.97824943114883 -26.77028786943188 99 88 114
-58.248016204436325 60.08107829203878 -26.184933717964647 89 80 103
-57.94573311858749 59.98474683173202 -26.10516999758349 85 77 101
-57.63920957093306 59.88284634226593 -26.023222908295462 86 79 101
-57.46367415134997 59.91115674976157 -25.998166743100125 82 78 100
-57.36832153664608 60.01981648687536 -26.008097771231252 79 77 98
-57.27293530801442 60.12852709340812 -26.018035471212222 79 76 97
-57.17137523286166 60.23105749287776 -26.025280888116026 79 76 96
-56.9659859043111 60.22790199492769 -25.986807004221802 79 76 95
-51.064950034901145 55.34170855359382 -23.671145335626594 76 75 93
-41.300482279315176 71.05560843257763 -25.84569369332542 62 67 86
-41.29171146783171 71.30624720802257 -25.907339531867187 62 66 86
-41.28726425576246 71.56518920105606 -25.97187402943245 57 64 83
-41.18666850607715 71.6662849657223 -25.978934281413586 59 66 84
-41.08169975793483 71.76017230233428 -25.983373109176654 61 66 83
-40.9767310097925 71.85405963894627 -25.98781193693972 62 68 84
-40.86743163330763 71.94070065034632 -25.98962754877391 63 68 84
-38.491952727365124 82.13909849408108 -28.12767318957876 86 93 105
-38.484583267381275 82.45368380899326 -28.20571456362255 85 95 105
-38.481583988835986 82.77890234093456 -28.287241173962403 87 96 105
-83.26090294789525 38.96594054523624 -25.589404762793933 78 85 103
-76.81376052475068 38.83984483813704 -24.367471986173687 79 86 106
-76.68610488122367 38.92127575562293 -24.36456412759698 79 87 108
-76.55852660402465 39.00265828001596 -24.361658274452974 77 87 109
-76.4388574970341 39.08787922353199 -24.36118576903718 77 86 110
-76.24105988193229 39.134124940023355 -24.33640765705533 78 87 108
-75.97376324276317 39.145276167912165 -24.28990096832021 80 88 107
-75.70757880934434 39.15637926687617 -24.243587352597228 80 87 107
-75.4271463658109 39.1597013358851 -24.192670451218103 81 87 107
-71.69257672080039 43.54063903337595 -24.61453079695082 90 89 120
-71.66956593890424 43.6817380462979 -24.646071071542192 89 89 121
-71.66129435077269 43.83191604130166 -24.682634493307745 87 89 120
-71.66039917487402 43.98688750366443 -24.7217751633731 83 84 113
-71.66691761013335 44.146723190374736 -24.76351789386799 58 52 77
-71.67345477096616 44.30704146693337 -24.8053864813076 49 38 61
-71.67257420481195 44.463373042999585 -24.844874817756587 49 39 67
-70.65747743123453 53.097999884497774 -26.847545346836508 79 77 97
-70.67858555625038 53.29609313555097 -26.90168428487909 76 74 95
-70.7076580536286 53.50070098765009 -26.958945527651494 77 75 93
-70.721042052006 53.694478224197155 -27.01056413750594 79 77 95
-72.39779012251324 59.62752193845599 -28.824858247894493 109 73 90
-60.685108483696126 61.23298210293192 -27.070243436423485 93 89 112
-60.212878303780265 60.980430647351916 -26.919028381557403 91 88 112
-58.16195262080733 59.98964751324808 -26.28919310113615 79 76 98
-57.860417739266644 59.89376109073257 -26.209218759788182 79 76 99
-57.554650531084064 59.79231840100078 -26.12705400352965 80 76 99
-57.36107832226715 59.80220293888819 -26.09383337730358 79 77 98
-57.24751939193875 59.89213277271619 -26.095682959224526 78 78 96
-57.13398263754961 59.98204277168944 -26.097531603388507 79 78 98
-57.014370648678685 60.0657458198682 -26.096684651773938 81 78 96
-51.232472839623895 55.51019266851106 -23.874079207054518 77 78 98
-41.364893485829874 71.15034080988447 -26.019676862109847 64 67 88
-41.35624938569646 71.40151032829144 -26.081786322719985 63 68 88
-41.35194901405374 71.66101807237865 -26.146812356466768 63 68 88
-41.25559986890228 71.76948915342582 -26.156541026923076 62 68 87
-41.15484343971859 71.87075035224643 -26.163627579031793 64 69 89
-41.05406984758919 71.9720373050306 -26.170717495428914 65 70 90
-38.57946003258979 82.30138477545462 -28.333842580216146 83 90 107
-38.567887956399446 82.60804064035717 -28.409484797782643 81 89 106
-38.55625856217424 82.91623538518195 -28.485506747034897 82 90 106
-82.79290563187266 38.89874085426482 -25.63026367692714 82 89 108
-76.84361944729491 38.997104034442145 -24.550577265977843 82 88 109
-76.7078706224213 39.07472229046727 -24.545153505048987 82 88 111
-76.57222019186322 39.15227334701429 -24.539730886959497 80 88 110
-76.36611087103253 39.19461292906485 -24.512249226795937 78 88 109
-76.10594700716999 39.20955095672054 -24.46774542897628 79 88 107
-75.83131770231624 39.21665105914797 -24.418557635508414 80 87 109
-75.55017763514655 39.21983669069972 -24.36716305383508 80 87 109
-71.74461897445453 43.568764927961304 -24.768991767530288 84 87 118
-71.72165220716 43.70998010445773 -24.80072150310234 84 87 118
-71.71343992156679 43.86028322141809 -24.837507526475925 83 87 119
-71.72003021294799 44.019797720763634 -24.8793902330653 73 77 107
-71.72664723177382 44.17979809750586 -24.921401748931057 63 66 94
-70.72868642897099 53.1459990537011 -27.021494347467986 71 72 98
-70.74206358056594 53.33859244631931 -27.07306888067621 70 72 95
-70.76338501371886 53.53764670161978 -27.1277654548557 69 72 94
-70.78478229850228 53.737434200826485 -27.18266301213527 68 71 92
-70.79040787813626 53.92625539376455 -27.231836607550697 72 71 92
-60.74727340253937 61.287643371771445 -27.24322361382088 87 83 106
-60.21448195728616 60.97612623253041 -27.0648832768807 85 81 104
-58.372592756552294 59.98832309624024 -26.471069122074553 82 79 99
-58.07615588287274 59.89850031693144 -26.3931269167437 80 77 99
-57.77536334306526 59.8030539597456 -26.312942478719705 81 80 101
-57.47035212389261 59.70206957423101 -26.23056305175669 83 81 102
-57.27108291087832 59.70592511440738 -26.19454231046369 84 82 103
-57.13942661073907 59.7772819531045 -26.188282531733048 82 82 103
-51.416175163681565 55.695456938365666 -24.085074732313732 81 81 103
-42.59318015589429 68.2044599739311 -25.635120866518104 70 76 92
-41.425093692850474 71.23815769071689 -26.191476196767674 63 68 88
-41.420959446084964 71.49702802173913 -26.256692373282675 66 71 90
-41.416805643883386 71.75710187011703 -26.322211684973656 65 71 91
-41.32472472842296 71.87298277576085 -26.33464970850959 65 69 89
-41.232592177700205 71.98894107682086 -26.347097871032705 66 69 90
-38.696291603887104 82.19375194644785 -28.47723834204632 84 88 111
-38.676160153685046 82.48220336768901 -28.547023875935142 84 90 110
-38.65150109826363 82.76296900214075 -28.61400960887648 83 90 109
-83.74601873837966 39.332619799249805 -26.063721477038715 79 89 110
-76.84984068919559 39.14313430124261 -24.726830682684604 81 88 113
-76.70601161394313 39.21687449571306 -24.718848876410068 82 88 111
-76.49154361883971 39.255285668586566 -24.68862067417202 83 89 113
-76.23073068811496 39.27012049886864 -24.64369516261746 80 85 111
-75.94764983525111 39.27320087588485 -24.591598621825398 78 84 110
-75.66585657035301 39.276263694501324 -24.539738132517986 79 85 110
-75.34696768456712 39.25991078204475 -24.475974045131874 81 86 108
-71.79742807856448 43.44290402508195 -24.88431765423861 82 87 110
-71.78192980761379 43.58821778919887 -24.918644367898054 82 86 111
-71.76639835086887 43.733883778105685 -24.953055104125184 83 86 113
-71.75082579058046 43.87989866909254 -24.987547532602306 84 88 115
-71.76490309544008 44.04392544893546 -25.0321929379592 84 89 115
-70.79213898568338 53.18834218467405 -27.192802236429216 76 81 107
-70.80563749719703 53.38115593397746 -27.244713293518522 77 81 107
-70.82708704688265 53.58043601923087 -27.299766127272715 75 80 107
-70.8406983567067 53.7746263303655 -27.352050863845726 73 78 104
-70.84641679091644 53.96363007101129 -27.40153250171427 72 76 101
-72.90954945008811 60.23192588892483 -29.392594054134793 96 67 79
-60.76905799743751 61.30297405689089 -27.398838672533714 84 84 105
-60.182910615617565 60.939408331175095 -27.196206393142344 82 83 104
-58.29889230905037 59.909475649164555 -26.580414059219166 83 82 103
-58.00931019861388 59.826207071842624 -26.504984657738262 80 82 104
-57.715287031759935 59.737276061595445 -26.42727513929766 80 84 105
-57.41694915677978 59.64275689122319 -26.34732813344925 83 84 106
-57.20577680027523 59.63445862449662 -26.30575100343353 85 85 106
-51.555311105742476 55.834374220160036 -24.276731039391525 81 84 104
-42.605229502609355 68.21320936349906 -25.775502537453235 68 73 88
-41.48504953970406 71.06087695722378 -26.295658982722202 64 67 88
-41.47667174808233 71.31184819194311 -26.358380117779227 63 67 88
-41.47265105670896 71.5711476962155 -26.42404853908239 67 69 89
-41.47301802410797 71.83891461102412 -26.492705596585267 66 69 91
-41.38525240116545 71.96222751461593 -26.507895696906115 68 68 91
-41.29302281209652 72.07834819212088 -26.520409543695628 69 70 91
-38.775491163600506 82.33858484713386 -28.67824040140938 81 88 107
-38.75106191014934 82.61888522114333 -28.745475438429306 80 87 106
-38.726528194172474 82.9004131303203 -28.813005392762797 82 88 108
-30.769513750235532 109.68638314267537 -34.18769101124951 78 88 98
-84.04644941687815 39.46829319312701 -26.30096241605253 79 88 113
-76.8006719217933 39.2620527787176 -24.88605381855752 81 88 113
-76.58582390995346 39.30043749133432 -24.855554362608537 80 87 112
-76.31670913556417 39.311285884048104 -24.807767569150172 78 84 109
-76.02535335265235 39.31036356075092 -24.75277077107981 78 84 110
-75.7353962327342 39.309449288367006 -24.69803891960203 79 86 110
-75.40069784140361 39.28522546918882 -24.62889802202504 78 88 108
-71.77561284550787 43.42762365572885 -25.013862050440686 79 86 100
-71.76749105666853 43.577213722106336 -25.05084129098115 78 85 100
-71.75194418435191 43.7228210558554 -25.08539982300401 79 85 102
-71.74376617465116 43.873168978228826 -25.122563575336255 81 86 105
-70.86930093240049 53.42377892721315 -27.41661563357772 83 88 115
-70.89089131037962 53.62329433638481 -27.472030371477636 84 89 117
-70.90462279104297 53.8177062400125 -27.524654370839887 82 87 114
-70.9104471902264 54.0069224647301 -27.574454849428275 80 84 110
-73.0320774697626 60.32532643018673 -29.59961723185633 82 72 86
-73.25294833647895 60.708999984588274 -29.739889908665248 79 66 81
-60.58234637691444 61.115297782031 -27.463075297707793 84 86 107
-58.281821957357685 59.886731891932 -26.7144562217447 84 85 112
-58.01110160356093 59.822140933559005 -26.646948959753686 83 87 111
-57.72946340185552 59.745557453758664 -26.574302750329775 84 88 112
-57.43718365240506 59.657140133385035 -26.496610368949842 85 87 112
-57.21373085286651 59.63656395358381 -26.44931665555874 83 84 109
-51.45103615123953 55.720357286198904 -24.35817309986253 81 86 106
-42.55996793610056 68.13458942820682 -25.882650090177894 72 76 97
-41.47130586686013 71.29240509330181 -26.490887087530922 64 69 89
-41.46727338070075 71.55158002300699 -26.556842938119008 65 68 90
-41.46762563311624 71.81921558535906 -26.62580072218879 67 68 89
-41.38428113514084 71.94975321763457 -26.643737843788152 66 67 90
-41.29207119358873 72.06584867246764 -26.656291199300192 66 69 90
-38.76615391204954 82.30510682923517 -28.817221818225065 80 86 106
-38.7461527543463 82.5941832127538 -28.887873286633045 71 78 101
-38.72606214179736 82.8845882609528 -28.9588499514289 75 84 105
-84.3766164621252 39.617540047360286 -26.54833015055268 78 88 112
-76.68821485237528 39.34962466792037 -25.02536856077319 79 87 111
-76.40285974528979 39.35253369999798 -24.972168386824286 79 86 109
-76.1110086748555 39.35151262998317 -24.916723424308906 81 87 110
-75.80504489067869 39.34268684968157 -24.856591329677077 83 89 111
-75.45448172010322 39.31056511444861 -24.782000868805962 84 90 110
-71.76119833305783 43.41668491670107 -25.145818665579363 78 83 102
-71.74566522572204 43.5618640738041 -25.18043471850503 77 83 99
-71.737499370189 43.711765376354926 -25.217665170962494 78 85 99
-71.72930687304574 43.86205472843689 -25.254990961501232 79 85 102
-70.9330667190038 53.46647079123954 -27.588781220864636 90 92 121
-70.95479144184678 53.66621697329603 -27.644556323781018 87 90 121
-70.96864300867676 53.86085059631642 -27.69752038811469 85 87 116
-70.97457328521843 54.05027943122656 -27.747640456489417 86 86 114
-70.97255374306263 54.23442493174632 -27.794890817723136 83 85 113
-73.40328235028562 60.82504107903043 -29.959242406280854 76 77 96
-60.403449255014095 60.93526595757295 -27.529850262476085 86 86 112
-58.264761476128214 59.86400276671015 -26.84838494752344 88 89 115
-58.00665797806862 59.81188015120381 -26.786102465883744 87 89 112
-57.74364692727237 59.75384476928665 -26.72136267148064 87 89 112
-57.463566490427304 59.67767256343909 -26.648704153583736 87 87 113
-57.22778598287399 59.6447944979103 -26.59562023577839 83 85 112
-51.36736742959831 55.62777187225031 -24.44851195682467 83 87 110
-42.514813048332314 68.05615488591836 -25.989543845910383 78 82 105
-41.4659435100419 71.27297420235675 -26.6233141874481 66 71 90
-41.46629081483293 71.53923129923467 -26.692251540085138 65 69 90
-41.46664227296382 71.80678546852238 -26.761525186674564 65 67 88
-41.38331078422946 71.93728483474494 -26.779525304134193 65 67 88
-41.29112047881397 72.05335507537946 -26.79211814222994 65 67 89
-38.75682368634493 82.27165570151682 -28.95608180259962 82 89 109
-38.741248813555636 82.56950139206437 -29.03017961691931 78 86 107
-84.72787907666691 39.776411590876016 -26.803306175734434 81 89 113
-76.78293362295148 39.39498671737819 -25.193060822448675 81 87 109
-76.4891750994903 39.393860228005266 -25.136896062782352 80 86 109
-76.18900897018648 39.38881747299243 -25.07849466557899 83 89 111
-75.87481001721167 39.37598013474596 -25.01539827088803 85 91 112
-75.51604370056361 39.33983383576797 -24.93776674745952 83 90 113
-71.73941366993584 43.401426202894555 -25.2751681535852 76 83 102
-71.73124447164935 43.550873858914834 -25.312459406692597 79 86 104
-71.7230569044495 43.700712602104765 -25.349848818970244 79 85 103
-71.01878746997646 53.709203937558975 -27.817344502060585 91 92 122
-71.02479807907929 53.89820222081529 -27.867612861530134 90 92 120
-71.03082737912116 54.087818622524814 -27.91804543968261 87 90 117
-71.03687992105957 54.278059479319666 -27.968644749137777 84 87 115
-73.56305441781666 60.94865479736978 -30.182962064562854 74 77 97
-61.40988989646257 61.698745653789295 -28.066434441028346 88 87 112
-60.23887733718742 60.76921436934417 -27.60210414693843 87 87 113
-58.25398941082429 59.84750548418331 -26.985010515485335 87 90 114
-58.00844522557706 59.80781291250296 -26.92799172874426 86 89 112
-57.757826605809186 59.76212703714908 -26.86844999779848 87 89 112
-57.48381936810313 59.69206875294752 -26.798124854212286 84 87 112
-57.24184275054884 59.653025475704965 -26.741953374865282 84 86 114
-51.294047452849355 55.5459559682866 -24.543175899784348 88 90 113
-42.46976490331049 67.97790575357516 -26.096184959916382 79 82 107
-41.460580567072455 71.25354879368278 -26.7556589661478 66 71 90
-41.46091679040763 71.5196815392587 -26.824897161032077 67 72 91
-41.46565574930298 71.79435451434823 -26.89719255182108 66 71 91
-41.38234135063843 71.92482236653127 -26.915258117780958 64 69 89
-41.290166594645214 72.04086063939597 -26.927887879589104 65 70 90
-41.202318526636766 72.16426871013196 -26.94325615019784 64 68 89
-38.74750049531508 82.23823146631555 -29.094820513880034 81 88 109
-38.74078044491612 82.55379239100276 -29.175564189747327 81 88 108
-30.856390505397254 111.01588681406173 -35.07395471781795 78 87 100
-85.0163069884722 39.90656865723777 -27.039926560217758 79 89 109
-83.65022635259899 39.43171078113496 -26.654541704537206 82 90 112
-76.59143601189174 39.443153185164384 -25.307030718623007 80 87 110
-76.28282023656685 39.434051129688804 -25.245608546947103 81 88 111
-75.96023694654102 39.41715685746324 -25.179478905212427 83 89 111
-75.58540095952279 39.37303975915227 -25.09624209531794 82 91 111
-71.74053978786046 43.245799227302314 -25.3721294878044 78 84 104
-71.73239054351151 43.39482436277231 -25.409492950392647 78 85 104
-71.72421708716813 43.54423543434234 -25.44695258002254 80 88 107
-71.71601837840423 43.69403337260211 -25.484508420690716 79 89 107
-71.07491797999124 53.74641823645169 -27.987347711804002 92 91 121
-71.0890026471427 53.94147055317213 -28.040986445810216 91 89 120
-71.09514403192962 54.131304513947896 -28.091742520426084 88 88 117
-71.09330095039377 54.3158320589555 -28.139585056682424 88 88 117
-71.07543162527632 54.489017432836725 -28.181399061479937 87 87 117
-73.71455420457704 61.06559620549989 -30.40400026837183 75 82 101
-61.342787839998486 61.62775271414282 -28.183838123906366 91 90 120
-58.23069224257431 59.81861029241472 -27.115912506222 87 87 115
-57.997777285129004 59.791372376208734 -27.064236792130433 85 87 114
-57.75344652189101 59.75190545807885 -27.007182999533402 84 88 114
-57.48565190956058 59.688036036945846 -26.939266584979077 84 87 114
-57.23759301064035 59.642879940845404 -26.88001361193438 86 88 115
-51.19086173959169 55.433135807514354 -24.62363615505078 89 89 113
-42.437950681724644 67.91984515538908 -26.210310528331487 78 82 104
-41.459604381798144 71.24129962413669 -26.890633724952604 67 72 89
-41.464324448306606 71.51454482266342 -26.962903332243354 68 73 89
-41.46467015802121 71.78192946735037 -27.032805362801742 69 74 89
-41.381372836574826 71.91236581357775 -27.050936324565225 68 75 89
-41.29360354435096 72.03565505846575 -27.06634501168312 69 75 91
-41.20576524146587 72.15904766066627 -27.08176749057119 67 74 91
-38.7514613194552 82.23155166476168 -29.242956407236917 79 86 106
-38.744750394058755 82.54705693630002 -29.324076562032037 80 87 107
-84.83764449333286 39.82336457188088 -27.13161478820525 77 88 107
-83.7038903964149 39.4547276526523 -26.816683464482654 78 88 108
-76.74932697323506 39.52024605191983 -25.495498336807515 83 90 110
-76.45544792699026 39.51881980833639 -25.438568113212195 82 89 112
-76.14733680384998 39.50952405298602 -25.376833715290722 81 90 112
-75.7709860361971 39.46498204997726 -25.292716873970917 83 90 112
-75.33578970544771 39.38957351449549 -25.189174851795052 82 89 108
-71.78509669414659 43.269365135479035 -25.52406473525979 78 85 105
-71.77699699103174 43.418492887771805 -25.561642870763094 79 86 105
-71.76148809326641 43.563661848716244 -25.596756194453672 81 87 107
-71.74593951027681 43.709178571065976 -25.631953146921603 81 89 107
-71.13112982122219 53.78368701591144 -28.15757619629661 90 90 121
-71.14531474681077 53.978926893223026 -28.211544531173054 89 90 121
-71.15155502352545 54.168948627167985 -28.26261450537326 90 91 121
-71.1578111974679 54.359591082386046 -28.313850440217717 90 91 121
-71.13199084880124 54.52700440762169 -28.35281714577764 90 92 122
-73.80400612085278 61.1326226898861 -30.6006063368755 82 88 107
-61.46098620676649 61.736509799648715 -28.383721716401702 94 95 123
-58.13242740021954 59.715500268677445 -27.21276192860279 87 89 117
-57.89391926770655 59.68235809890606 -27.158164143679645 87 90 118
-57.644119042320504 59.63707220421927 -27.098206254416777 88 89 117
-57.377140500076294 59.57363461606222 -27.03017875560702 87 88 116
-57.123739610068895 59.522732149368316 -26.9680539260789 87 89 117
-42.467452162451444 67.95522122940731 -26.360517732892834 79 79 101
-41.489284317951956 71.27915219542982 -27.044601106321217 67 70 91
-41.48090428787837 71.53101628286016 -27.10908728390795 69 71 92
-41.476884821153774 71.79124177888696 -27.176606992763563 70 71 91
-41.39798220263086 71.9289622864363 -27.19756566985178 70 75 91
-41.31459363540883 72.05956809934182 -27.215793871715587 71 78 91
-41.23111874413146 72.19030316746957 -27.23403938241029 67 76 86
-38.82189761464198 82.35862120906415 -29.43895393719813 78 84 108
-38.81091541674263 82.66596037863084 -29.517498145617473 79 87 108
-32.25241488318564 103.67491408466536 -33.76890171659797 78 93 97
-84.72482463654093 39.77024079630534 -27.24334506517171 76 85 105
-83.77583700496976 39.48612516489295 -26.9847287990099 77 84 105
-76.63670544587929 39.60790981403442 -25.63491648576451 82 87 108
-76.34314733072038 39.60626855538 -25.577659454304914 81 87 109
-75.95742434553217 39.55734705549272 -25.49009440628407 81 88 107
-75.49730772230205 39.46964011677592 -25.377901374668294 81 88 104
-71.83707471490442 43.29726371705565 -25.678715976014242 77 83 104
-71.82164631083182 43.44218406389692 -25.7139443785921 78 85 105
-71.79878635239507 43.58310229310275 -25.74667890860757 79 85 106
-71.19370610050994 54.01055172731853 -28.379227899969823 93 94 122
-71.20803447341653 54.206638028897565 -28.433708589668587 92 92 121
-71.214389036329 54.397468801802596 -28.485259922779004 91 92 121
-71.18862477210264 54.565041571386715 -28.52446095514821 93 94 123
-73.58817232975643 60.746797147969616 -30.61904603640508 87 91 112
-73.90260291670369 61.206992129270105 -30.801262063589498 88 92 113
-58.29846181534887 59.670460975545 -27.375581320092927 89 91 119
-58.03450436559688 59.61274915080248 -27.309268535389315 91 91 118
-57.790450483922776 59.57375221165428 -27.251743534523985 90 91 117
-57.53521706307047 59.52268601874567 -27.188871891163775 91 91 119
-57.26295503845974 59.45358131140969 -27.117947328955257 89 91 119
-42.49259540788668 67.9839486763253 -26.508261224212294 73 77 98
-41.514607876329336 71.30987603066585 -27.195984655139178 64 67 88
-41.501882051192595 71.55469613940954 -27.258079346830055 65 67 89
-41.48910516192801 71.80056125360606 -27.320439717568398 64 68 90
-41.414598821116726 71.94556635078776 -27.344254713185663 67 72 92
-41.33559255662753 72.08348916080013 -27.36533108611534 71 74 94
-41.25649079142505 72.2215806673169 -27.386433457471018 70 74 92
-38.89700897084911 82.49505058669904 -29.63877802371493 76 82 108
-38.877264984979696 82.7851947780122 -29.711465976280213 77 85 110
-84.64015848566416 39.729980077285084 -27.363553436701693 77 86 107
-83.83876187848867 39.51338412992458 -27.150137931818104 78 85 106
-76.81876529423805 39.69739416658189 -25.83213448434736 76 84 102
-76.53991103710844 39.70348408144062 -25.779456527135718 75 82 102
-76.1447235676758 39.65013859830759 -25.688381518101565 75 82 100
-75.65946527222707 39.55002369839008 -25.56737849570592 76 82 100
-71.90444891761118 43.1804997858734 -25.798200566701528 75 82 103
-71.8817182086308 43.320875035727695 -25.830967819180763 76 81 104
-71.85894882228567 43.46156596500559 -25.863811181499013 77 83 104
-71.8361188923719 43.602560899838466 -25.896723303394978 77 84 104
-71.25015432106096 54.04809822703668 -28.550212595201728 92 91 121
-71.26459515571308 54.244382137721075 -28.605030109115855 89 91 121
-71.27104803538354 54.435401335539915 -28.6568975090472 91 91 121
-71.25337540874614 54.60910528192325 -28.699480073290047 93 92 120
-73.6860663709354 60.820374714455944 -30.818805325161808 90 93 114
-73.99245615211058 61.274319883276746 -30.998731857710546 88 93 115
-58.19392638829957 59.561549708630174 -27.46903583784945 91 93 121
-57.93072980121335 59.50422638513877 -27.40260483846364 92 93 121
-57.68120526910332 59.45943066407739 -27.34215494063243 91 94 119
-57.426740767330095 59.408746950145726 -27.279183216224475 92 96 121
-57.1492424295508 59.33402493037874 -27.20535790715498 94 96 122
-51.75122043043888 55.807188285656544 -25.21994566455098 86 92 108
-42.57633665394563 67.85427083904415 -26.625550117372917 76 77 100
-42.52214986824815 68.0193875460666 -26.65874834923483 74 75 99
-41.54433975248226 71.34779308652323 -27.35024384685599 65 69 91
-41.51847718861575 71.57118294654423 -27.404396290523305 64 68 88
-41.50132708445644 71.80988114699389 -27.464300992042844 63 68 87
-41.43122269423955 71.96217800721632 -27.49100349440359 65 70 90
-41.356608466768 72.10743176907181 -27.514961866415444 66 72 91
-41.286279295885365 72.26020035477804 -27.54174559008405 67 76 94
-38.94380634394361 82.90477459038095 -29.905987061109805 82 89 110
-84.59276217943412 39.70674430279889 -27.4952764828047 78 88 110
-76.70589966578345 39.78519706567957 -25.97176445457405 76 82 104
-76.30929772423075 39.731438403773325 -25.879791228139492 75 81 104
-75.79896772047077 39.618909723136596 -25.749902762152736 75 81 103
-71.94910129590333 43.20403979999106 -25.95042152210627 76 85 102
-71.91901783157182 43.34019436913287 -25.980776241189464 81 87 106
-71.89627158612677 43.48095774801204 -26.013794635169052 80 87 105
-71.86607056165238 43.617675568882674 -26.044276276675088 78 87 105
-71.32123071683434 54.28217625320651 -28.776577000003858 92 94 122
-71.32777548300952 54.473379258582355 -28.828758632557626 91 93 121
-71.31016608651474 54.6472478120907 -28.871595828491134 92 93 118
-71.29250964481659 54.82157490089754 -28.914545878505262 92 95 118
-73.77528125492456 60.88698689338506 -31.01538941511004 90 92 114
-74.08250041266281 61.341790763199384 -31.196621818541125 89 93 115
-60.37299846388789 60.87058851164257 -28.38660347958726 95 97 124
-58.127119428996586 59.489874495554965 -27.579258779820517 93 96 118
-57.85823961281229 59.426688877176105 -27.509786417209103 91 95 117
-57.603076452968445 59.37603464189844 -27.446336007799264 92 97 116
-57.33697537475504 59.31347664627754 -27.37757485375228 92 94 113
-57.054134094252206 59.23309565514746 -27.300791001868603 94 94 115
-51.50949380433908 55.551421027919965 -25.234949020249047 84 90 102
-42.59712590916614 67.87628860982903 -26.770734773171256 73 73 95
-42.54294294693951 68.04147392071174 -26.80409861190015 73 72 95
-41.565310869811945 71.3713892277005 -27.499114618603354 68 73 93
-41.53507547630472 71.58767058751124 -27.550770094535316 67 72 92
-41.50914434620855 71.8119502694142 -27.6053976554601 67 74 91
-41.44345005581454 71.97152303089305 -27.635013244757587 68 76 94
-41.37323603882098 72.12409186625023 -27.661879274880338 71 79 98
-41.30730275369285 72.28422196879683 -27.691596433936525 71 82 100
-39.00604392956677 83.01562334939983 -30.097766687363126 81 87 104
-38.954996516594484 83.24466841622433 -30.14874459533416 81 85 102
-30.830120323517576 112.49791974212805 -36.345231548475226 74 85 94
-85.37683616671198 39.91155924227019 -27.851558356194197 77 88 108
-84.6567123820957 39.734361667583094 -27.66234086727687 77 88 108
-76.87405063444774 39.72143745906556 -26.126145102665927 80 86 108
-76.58703477003617 39.72350060980178 -26.070171225218374 79 84 107
-76.18367662995112 39.66609927327838 -25.975379852965744 78 82 107
-75.68259937192798 39.55802389592021 -25.847789827165794 76 82 105
-71.90511278464342 43.175989731893054 -26.07152375198883 83 91 108
-71.88239162149502 43.316334460993055 -26.104586416931244 83 90 110
-71.85222659672456 43.45265422652376 -26.135106526497314 81 88 109
-71.829402834877 43.59360092422835 -26.168309991461484 81 87 108
-71.34576754784692 54.296278006700426 -28.935663020293404 90 93 119
-71.34430219908221 54.48158384189202 -28.984937428398215 91 93 118
-71.33477345638543 54.66147174857256 -29.031174698049423 92 92 118
-71.3171475404035 54.83585740510965 -29.0743456234836 89 91 117
-73.50703186466207 60.46082727293326 -31.010115322273254 91 93 117
-73.76653915264161 60.875109399874766 -31.172029762234438 89 93 116
-61.251517084131486 61.719476351019615 -28.933126016505717 95 96 117
-58.316259952252516 59.670649567814614 -27.807056974541325 89 93 109
-58.002552186767296 59.5637262560231 -27.716676154305134 88 92 108
-57.71561998289746 59.48199994637623 -27.638307927066208 90 91 107
-57.4120630375571 59.38249045499196 -27.551909181875164 88 88 103
-57.09837274288267 59.27151155691817 -27.460447071223246 86 89 105
-51.51679410393998 55.553353317519345 -25.366714841619423 83 88 99
-42.641207721961486 67.68689184935967 -26.864040449645355 67 69 89
-42.5871570430303 67.85163520967441 -26.897458795542416 71 71 92
-42.5373777028829 68.02341814591789 -26.93360119747837 72 70 92
-41.55112775805905 71.33756516775087 -27.625787821992876 73 79 95
-41.516487481713035 71.5464733453857 -27.674841490418427 73 80 100
-41.49053580577872 71.77053797996045 -27.72966015177936 73 83 103
-41.42486343553248 71.92997444545958 -27.759370276003015 75 84 104
-41.354678955417704 72.08242009194849 -27.786321966877562 77 85 105
-41.28876807052116 72.24241349725452 -27.81613407978943 76 85 106
-38.96346021627556 83.24690864193562 -30.301509057243425 81 87 105
-85.35688826357693 39.90089840658945 -27.992939949684715 79 89 110
-84.73005277110715 39.766265245476184 -27.83260595184711 78 90 109
-76.7786117604052 39.671727007136425 -26.232287804649584 74 78 103
-76.4606730262781 39.658036212541546 -26.165635790341092 73 77 103
-76.0506788558303 39.59703933501008 -26.068038487466495 75 79 103
-71.89861879244134 43.01661168596159 -26.164569823349545 85 90 110
-71.86855453726653 43.152267140125424 -26.195068738982563 84 89 109
-71.8384241512654 43.28819000617988 -26.225626415836764 83 89 111
-71.81562608454367 43.42871748124154 -26.258873739858192 81 89 111
-71.79277496679771 43.569552734811055 -26.292193263177907 81 89 111
-71.36888809313561 54.49575479703658 -29.144348842101504 90 91 119
-71.35132705375328 54.669710131439004 -29.1876162542722 89 91 118
-71.34179552589113 54.85014563316311 -29.234215408201763 87 92 117
-71.33223479427352 55.03109667229957 -29.280947314208614 88 92 116
-73.5072351973763 60.456166859124856 -31.169578841619526 93 95 117
-73.75779892040521 60.86323569571794 -31.32859555050161 93 94 115
-60.69985735654084 61.38543611993777 -28.882582399549644 90 95 112
-58.166257215593966 59.71992723866622 -27.933201982346137 87 90 106
-57.82238173122473 59.58220397670912 -27.828082487462517 87 87 106
-57.48731734263394 59.4516571667621 -27.72663664712171 86 88 105
-57.14266509555311 59.309974000890264 -27.620299187416386 85 89 106
-42.631240569225525 67.66235581102859 -26.990543613614857 69 74 94
-42.58158684844309 67.83366193950512 -27.026742642086102 68 72 92
-41.53257359152351 71.29661412435836 -27.749540540534127 78 85 105
-41.502312624272065 71.512522419811 -27.80156621628563 77 85 105
-41.47195058312255 71.7291771455093 -27.853772455087263 78 87 107
-41.40630412648957 71.88848413580213 -27.883579424161116 78 86 108
-41.34053559968186 72.04807733252997 -27.91343912526032 77 87 107
-41.27026048785907 72.2006634524498 -27.940523265824975 76 85 108
-38.96743173197995 83.2400462860198 -30.450937702260315 82 88 107
-85.35579716507158 39.89881695378613 -28.140298001089604 82 89 110
-84.80349807584537 39.79821434917555 -28.003125064886156 82 93 109
-76.99446086551986 39.63178435525479 -26.40271103374669 72 75 97
-76.667613079866 39.614217826425424 -26.33286366575245 71 76 99
-76.33473925330682 39.59279356919014 -26.260774468104355 73 78 98
-75.91815174800037 39.528223890854505 -26.160362020929963 73 78 98
-71.86212270253631 42.99302216538379 -26.287862295515364 81 87 107
-71.82467219515414 43.12428545238042 -26.315840772734646 81 86 107
-71.80189838884769 43.26439492153376 -26.349130978301048 82 88 109
-71.77906553646987 43.4048071386988 -26.382491157882853 83 90 110
-71.74880460249119 43.54118894225393 -26.413283614168474 82 88 109
-71.37595367198342 54.68394524609262 -29.347318032833556 89 93 113
-71.36645360348659 54.86443958564211 -29.394155272496466 89 92 113
-71.35692422708868 55.04544959583487 -29.44112589421194 90 93 115
-71.35547354415866 55.233063525869476 -29.49148862542839 91 94 115
-73.28563425936329 60.069396992411725 -31.18166235345239 91 96 118
-73.50743641716122 60.451505886052914 -31.329004223918737 90 94 115
-73.74016657621475 60.844241406455566 -31.481391800927266 91 92 114
-60.32208145728898 61.21879390872715 -28.909765476108866 91 96 110
-57.94190536725333 59.695059364078446 -28.024283093148203 89 89 107
-57.556607845624484 59.514869360016576 -27.898888314815828 88 89 108
-57.18701116992033 59.34848299173726 -27.780347669141978 88 90 109
-42.62127610343181 67.63783127633856 -27.11694426287812 74 80 97
-42.571632666776516 67.80904487237426 -27.153279748526565 69 75 94
-42.521868566150346 67.9806579852939 -27.189699060022622 70 77 96
-41.5140388643175 71.25570768821213 -27.87314193586843 81 87 107
-41.48376407588763 71.47141470319707 -27.925347719380518 80 86 109
-41.45778090690923 71.69509260486609 -27.980560316805853 77 86 109
-41.392153747215836 71.85428643332524 -28.01046692925642 74 85 108
-41.322021498051974 72.0065021853057 -28.037592243942576 77 85 109
-41.251771882948674 72.15895829471009 -28.0647590718082 79 85 109
-41.18140857686405 72.3116618885139 -28.09197006899677 76 83 109
-38.971401393721266 83.23318343938529 -30.60033288440863 79 86 105
-30.280256790469597 111.67725040604276 -36.548425698813574 76 93 100
-85.8839748782962 39.985385308983474 -28.417688517132344 81 90 108
-85.34527999080117 39.8924478935351 -28.284573000825194 86 93 110
-84.85840125918261 39.82169403962619 -28.16785388639607 86 96 109
-76.92270374504442 39.594102309535785 -26.516498052413684 70 75 96
-76.57271389823325 39.56478803470958 -26.438439423146136 70 75 97
-76.2092410367096 39.52777646584213 -26.355592198327265 70 75 95
-75.79385646470098 39.46357395259514 -26.254971257312977 70 75 96
-71.82567392216812 42.96946297681242 -26.41100880427739 80 87 107
-71.78821464113474 43.100627553886184 -26.439081533613802 80 86 106
-71.75804394894953 43.236323119072296 -26.469843222623027 81 87 107
-71.73518658410866 43.3766108640922 -26.5033154240405 81 87 107
-71.39920669413605 54.88476593193798 -29.557419411039856 89 91 110
-71.38972142408646 55.06586517942052 -29.604639695023412 90 92 110
-71.39642594746365 55.25965604932479 -29.658545410785607 91 93 111
-73.29462791953661 60.071777491427284 -31.343992269298255 92 96 118
-73.50763552401679 60.44684435371744 -31.48839146917091 91 96 117
-73.73144131137963 60.832384841476205 -31.637794493294674 91 95 118
-61.1882826479928 62.061154996777155 -29.45851839747355 91 94 108
-58.06187816995519 59.808339004954384 -28.221217491750505 88 92 106
-57.62603592827826 59.5782066166057 -28.071492752428288 86 91 105
-57.21925287885184 59.374885943812515 -27.93486120781412 85 90 105
-42.66522822083796 67.4492206194794 -27.20953325459755 80 89 103
-42.620090582084956 67.62657934290871 -27.248597339533777 79 87 104
-42.57045459038675 67.79774458990019 -27.285080462267103 72 79 95
-42.520702364263755 67.9693158305541 -27.32165042107292 74 80 97
-41.50428609371796 71.22915032717896 -28.002227391617634 77 83 107
-41.46962204511533 71.43754025322691 -28.051806198525213 77 84 108
-41.44362795610564 71.6610464535402 -28.10722176352992 76 85 109
-41.378020019184916 71.8201271694476 -28.13722775629298 80 86 110
-41.30791049529104 71.97223618958904 -28.16444105933973 79 85 110
-41.23768379338059 72.12458541015623 -28.191696040649582 79 85 110
-41.16734765128515 72.27718873984202 -28.218998022725696 79 85 108
-38.984357277379026 83.24452624672365 -30.756433163210257 81 87 106
-85.72122970522472 39.91005901307074 -28.513166962356532 80 91 108
-85.23131384798188 39.83902215649189 -28.395123279382076 83 92 109
-84.80145111772622 39.79409766332751 -28.296291833343155 84 90 107
-76.97819314703877 39.61999908425751 -26.67296325442909 70 73 97
-76.5962398887203 39.57475007463409 -26.583694089781563 71 73 96
-76.20914335346907 39.5258834025376 -26.49240310584287 71 74 96
-71.7966132595352 42.95019018205333 -26.536648102807177 83 90 107
-71.7664935307568 43.085547010424435 -26.567464259936628 81 87 107
-71.7363154741574 43.22117473827818 -26.598342485089084 80 86 106
-71.70607846548134 43.35707392396837 -26.629282804662544 80 87 106
-71.44685813338 55.104482230306715 -29.77811622243158 91 97 109
-71.45366544049372 55.29846833340483 -29.832346710348116 87 94 106
-71.5582550757675 55.566719101962256 -29.926510482258248 89 92 108
-73.24228816006882 60.025370103736044 -31.48067320024463 93 95 116
-73.45488664665017 60.399922208605226 -31.625559917992646 93 95 117
-61.00881021610479 62.09038470258217 -29.579101704945682 90 93 107
-57.68328226029911 59.62939833021078 -28.238625646262406 86 91 104
-57.21502190004742 59.36483155547461 -28.072209224329995 86 92 105
-42.72989601940776 67.53716274271032 -27.381255932000588 85 99 117
-42.680389592802925 67.70822248244791 -27.41789558544256 90 102 121
-42.630767240464344 67.8796879644751 -27.454622447894142 74 83 98
-42.576626983871265 68.0448620483425 -27.488724897938738 74 82 94
-41.51643723006898 71.23835350420725 -28.14535823625709 73 80 107
-41.486179587962816 71.45397191836842 -28.198017082058975 75 82 109
-41.455817542661535 71.67032948609624 -28.250856309125517 77 84 110
-41.385827013513 71.822193574221 -28.27813909915708 80 86 111
-41.315723804864746 71.9743042659217 -28.30546638841966 80 85 110
-41.24112518679258 72.11937434187364 -28.329969642344984 78 84 111
-41.16642219204008 72.26465234806369 -28.354508529897956 79 84 112
-39.02430264168991 83.31052557528824 -30.932896408604254 83 89 109
-85.56857036006745 39.83930911776794 -28.611362148833436 80 93 108
-85.13640814422742 39.79427081076096 -28.51149465619718 79 90 108
-77.03374425109166 39.64592447792717 -26.829615803241616 71 73 97
-76.62767906426308 39.588679442766725 -26.73169297089759 72 75 97
-76.20121907834718 39.52005153937009 -26.626522975607436 72 76 98
-71.73744913712007 43.066207585772105 -26.693088679662285 83 90 107
-71.70725988745362 43.20175005405342 -26.724077686946316 81 87 107
-71.67700486308144 43.337559683920944 -26.755126505194344 80 86 105
-71.50406954879813 55.14314970156299 -29.95182217483159 89 97 109
-71.51910447008076 55.3434283891846 -30.009692996206123 88 94 107
-71.6076402177181 55.59972447128137 -30.097786592800293 86 91 106
-60.856953852695945 62.146348309284285 -29.712243148694466 87 92 104
-57.77150962111384 59.71143580208391 -28.420711831621453 88 92 108
-57.21686559681171 59.36085028334351 -28.212392385361678 89 91 110
-42.82648322518328 67.42792352035278 -27.505810698492816 90 98 115
-42.794735108256894 67.62533866991885 -27.553421301286612 103 114 134
-42.74083211666494 67.79006009839611 -27.587594474715367 101 110 131
-42.69121883776227 67.96181953229298 -27.624563190469587 83 93 110
-42.63708205856748 68.12728131082963 -27.65889167543371 80 91 103
-41.52859817517021 71.2475705523124 -28.28852263956338 72 80 106
-41.498355647909754 71.46322213443484 -28.34143035204671 73 81 107
-41.47240327842994 71.68683839517193 -28.39738736948711 77 84 110
-41.39802206364577 71.83150168613136 -28.421921667053997 80 86 109
-41.323537114438444 71.97637234225436 -28.446491717499605 80 87 111
-41.244564998450365 72.1141628549223 -28.468214694370776 79 86 115
-41.16987007048636 72.2594192367206 -28.492847802279748 80 88 116
-39.00417954346862 83.5885670980973 -31.155468595243722 80 88 106
-85.44473872641477 39.78162738339836 -28.718478048210823 81 94 111
-85.04172210807707 39.74962312178086 -28.627589615561337 79 91 110
-77.52317883754726 39.74173000622163 -27.094026881896383 72 78 100
-77.09734568717208 39.675869411273545 -26.989180619411638 73 79 100
-76.65913037309723 39.60261378922362 -26.879778695768206 74 78 100
-76.20112498584493 39.51816120477817 -26.763266718427676 71 75 99
-71.71577144682001 43.05115643671403 -26.821256674426937 82 89 107
-71.67822481205876 43.18233979568498 -26.849684603768186 83 89 108
-71.64061213467278 43.31375932077987 -26.878164027242406 82 90 107
-71.56135569241182 55.18186759903124 -30.12575795059093 87 94 111
-71.58465172216015 55.38846323228118 -30.187316858630695 85 92 109
-71.6652554816224 55.63892217204578 -30.272610757256665 84 90 109
-71.74628737925448 55.89071704001368 -30.358359241005335 86 93 112
-57.90961121231729 59.84312469673819 -28.626991536527285 83 88 109
-57.22479190911277 59.36294826995475 -28.355457342676264 83 87 111
-42.90025959763526 67.52917826754337 -27.68352583179349 85 91 110
-42.859736881050154 67.71373535365244 -27.726025394371625 88 95 114
-42.8058324064734 67.87875933346346 -27.760427717197405 89 94 115
-42.75181376605351 68.04414586138618 -27.794906487445495 85 92 110
-41.54075656204246 71.25678128587194 -28.431712609999703 75 82 107
-41.514922797379654 71.47966199122091 -28.487743066790557 73 82 108
-41.48899626844431 71.70335488473576 -28.543977981408904 77 83 110
-41.41022278518988 71.84081697106063 -28.565735396607508 77 84 109
-41.33135042401214 71.97844041858704 -28.587517046579542 76 84 110
-41.252383051079576 72.11623218667698 -28.609325632622838 79 86 113
-41.16894312914666 72.2468881589823 -28.628260892621036 82 88 113
-39.03522339236153 83.6366632483216 -31.325855651311656 81 91 109
-29.445972080031122 110.39005033114942 -36.72989533348026 74 88 97
-85.91585951879597 39.84180787976368 -28.979555977904536 83 92 111
-85.3494879090151 39.7369003890758 -28.834579182768426 80 92 113
-84.97526145331545 39.71781692662902 -28.752663971892787 79 91 114
-77.65201931383822 39.804031904859734 -27.276647738827254 75 82 101
-77.19302034906758 39.72183402188749 -27.159935012259226 74 79 101
-76.71433618383843 39.62845761011829 -27.036102534280595 71 76 100
-71.649224352072 43.16295219473179 -26.975168555047183 80 87 107
-71.61160683564937 43.294290287908176 -27.003747208187832 83 90 110
