ply
format ascii 1.0
element vertex 718
property float x
property float y
property float z
property uchar red
property uchar green
property uchar blue
end_header
-33.14992584942416 74.63751802711714 -16.35330821303974 86 51 58
-33.06567687028419 74.78019868105706 -16.37815733438391 80 51 61
-32.9614210669999 74.878212263975 -16.393272862069193 78 53 64
-32.85695815714204 74.97642304775918 -16.408418913628733 79 54 67
-32.75228731428455 75.07483117067612 -16.423595481759243 77 53 65
-32.650676114835335 75.18100973405417 -16.44044760777388 78 53 66
-32.56840840578117 75.33296487351613 -16.467226212146965 79 52 64
-32.48260444018062 75.47782533180516 -16.492443678469346 91 55 64
-32.39326330326106 75.61549063542141 -16.516079969918835 96 55 61
-32.303656324564 75.75357970079118 -16.539789405008765 97 57 63
-32.213778525619404 75.89208562034155 -16.563570399071267 99 59 67
-32.12687155985982 76.03873290205405 -16.589097037104253 96 56 64
-32.036441515330075 76.17809752577776 -16.613025677409123 88 50 58
-31.948977524652953 76.32567397581006 -16.63871378549809 75 40 49
-31.857993319802404 76.46591310506224 -16.662793136468775 74 45 54
-31.7667346090557 76.60658518613553 -16.686947095185566 71 47 55
-31.671972445934788 76.73982425602591 -16.709473956845375 70 45 55
-31.576939625354985 76.8734414503431 -16.732064675555513 71 47 57
-31.48806677105634 77.02326614345765 -16.758140908004748 72 49 58
-31.398900693077433 77.17357336302335 -16.784300826820363 78 48 57
-31.312650047862974 77.33234083375099 -16.812267526908776 90 49 56
-31.222893916529973 77.48366015254723 -16.83860403062329 92 51 56
-31.107271861623293 77.57132990724253 -16.851181769156437 80 44 48
-30.9914585383169 77.65914002944808 -16.86377938682372 62 33 36
-25.879761758126943 82.24395185672135 -17.560945312660895 124 75 91
-25.54016187889652 85.2669069202207 -18.148325154284777 103 52 61
-25.62359997778046 86.08985043198315 -18.315639987668725 119 68 75
-25.86956783375356 87.47513388635784 -18.60173180177762 120 70 80
-23.396399442975746 88.01506592740398 -18.604985804711294 123 74 90
-23.10788245678079 87.5399548196741 -18.49826203457228 124 76 91
-22.838058210167503 87.12939151719027 -18.405173552572425 122 76 90
-22.573428429078618 86.73265836292659 -18.31505671152241 118 72 85
-18.89675043517492 80.60012279429299 -16.9395073392981 89 64 79
-18.676116792014664 80.28846589171481 -16.868178007719397 89 64 79
-18.4534920396444 79.96279896153659 -16.7939762147958 89 62 77
-9.088090899431355 77.71953752342708 -15.952838031633437 125 76 89
-9.472888500258435 90.64027120235427 -18.540799318284204 122 75 93
-9.30492822917498 90.56254389290142 -18.518250950712872 102 66 84
-9.137350449840747 90.48499254568 -18.495753724132978 96 66 82
-8.97118008227694 90.41797276979133 -18.475412010108933 97 68 85
-8.814413213664407 90.44420089637518 -18.47402663067747 97 69 85
-5.499293042064903 93.28526319839203 -18.899820173485118 127 77 92
-5.350605538895003 93.52058840706441 -18.940393987838647 128 78 90
-5.199413579819755 93.7238302528689 -18.974476387400365 128 76 90
-5.044668935014054 93.87244573335335 -18.997536235950797 128 78 92
-4.889524335716044 94.02143774899645 -19.02065417691192 128 78 90
-4.733417134363234 94.15968444465484 -19.041592804088523 129 79 94
9.624840222654665 99.35819535075842 -19.47127852199379 126 81 98
9.77736134799065 99.24120272408217 -19.44156534777274 100 72 97
9.927057837100287 99.10050826579058 -19.407253578242837 88 76 105
10.075042937887527 98.94831149121886 -19.37072449861691 93 84 116
10.222494397258561 98.79666015623239 -19.33432647000201 95 83 118
10.3694146225802 98.64554692309581 -19.298057930451606 102 91 126
10.517061752775815 98.50684722569954 -19.264229554500822 109 99 134
29.455727051825583 87.18578350106779 -16.212845207516587 72 79 88
29.73527912869707 87.62267578279655 -16.28802462839899 69 75 84
30.01747677746665 88.06370290631357 -16.36391557046918 66 72 82
30.30548564417563 88.51813353360019 -16.44222947717055 69 74 82
-46.596012514829766 74.63993479898211 -17.0629476200758 106 86 97
-44.46040447332987 71.67675823517655 -16.37746382272683 92 74 85
-44.040105101783205 71.23473803233539 -16.270893619807353 89 72 83
-43.69290268294732 70.90905871053256 -16.190780884578896 87 71 79
-35.56652801388022 70.29520990820996 -15.722782599158547 83 50 50
-35.45309603286966 70.35050646879785 -15.72907142106984 87 54 57
-35.34290669630523 70.41257533033911 -15.73685740358247 88 56 59
-35.2325907599191 70.4747118161423 -15.744651591147239 80 52 55
-35.112156956783046 70.51671274570677 -15.747974160588997 67 47 46
-34.95519702753935 70.48471781788551 -15.734891872380306 58 42 41
-34.80176474218526 70.45947847092613 -15.723315479261682 42 32 31
-34.65181576204829 70.44098664188621 -15.713241481457123 40 31 31
-34.401199900825034 70.79633105846666 -15.773947116953368 55 37 36
-34.338986208384284 70.96073799502359 -15.80431362016857 48 29 28
-34.27979078387828 71.1326281997635 -15.836310496798621 59 33 33
-34.230165055015426 71.3258370904575 -15.872993257484502 77 44 48
-34.180300687453524 71.51996832930057 -15.909851062223842 86 50 58
-34.13019658597977 71.71502984007573 -15.94688545531128 85 48 55
-34.076568204288854 71.90405507807077 -15.982558502546128 85 49 56
-34.029264538087894 72.10797541644865 -16.021490181390508 86 49 58
-33.981718850332044 72.31291155551041 -16.060615522072368 83 49 56
-33.930644310650415 72.51180444612217 -16.0983779225273 56 28 34
-33.885911505526224 72.72589921158438 -16.139461263922502 64 29 32
-33.84754706196209 72.95544683506681 -16.183917062683182 96 54 60
-33.805658255118345 73.17908978896048 -16.227037932402432 98 56 65
-33.756916364068 73.3894664108273 -16.26720474189092 97 55 64
-33.697987431519 73.57907658446622 -16.302770342166077 99 59 69
-33.61892232411454 73.72568979745597 -16.32884969537767 92 55 66
-33.536281697455024 73.86545481233935 -16.35340252876302 85 55 66
-33.453382366830375 74.00566561852511 -16.3780338825398 81 54 64
-33.373523367678594 74.15370432612205 -16.40436573350737 84 54 64
-33.30659578806152 74.33188856437782 -16.437298146290825 94 57 67
-33.23938971453383 74.5108160456997 -16.470367955561507 99 59 66
-33.16530058619016 74.67553012202625 -16.500292301035824 91 53 60
-33.08433365375743 74.8258518823015 -16.527035487730778 84 51 58
-32.98003585318955 74.9239735673016 -16.542309296888106 78 53 65
-32.875527460869215 75.02228529661946 -16.557612324469943 77 51 65
-32.77081394720904 75.12080163611263 -16.5729477267659 77 51 64
-32.67243102693557 75.23466878483518 -16.59163349703713 77 53 65
-32.59014572937203 75.38682889052166 -16.61868981349076 81 53 66
-32.50431433153678 75.53187269752371 -16.644167035009016 92 56 67
-32.41494526692632 75.66972138939467 -16.66804969638789 97 56 63
-32.32530668870423 75.80798671890591 -16.692004566738238 98 57 64
-32.235396707896705 75.94666900209518 -16.716031629366828 99 60 67
-32.14846293715113 76.09350727704482 -16.741822335435945 98 59 66
-32.05800254332446 76.23305570262002 -16.765999931281982 88 51 60
-31.96726798572956 76.37302928438399 -16.7902512489784 74 40 49
-31.87302296471844 76.50561742659465 -16.812870951578873 73 44 52
-31.778507340534386 76.63857594545597 -16.835553529682674 72 47 57
-31.680498540736124 76.76405324584037 -16.856585997787246 72 48 58
-31.582232438770387 76.88986773534295 -16.877675243045733 74 51 61
-31.493346826254275 77.039741757595 -16.903992590944682 75 51 62
-31.404170758607787 77.19010558606153 -16.930395948510057 77 49 60
-31.314704911531056 77.34096684824024 -16.95688687568638 90 53 59
-31.22814622078485 77.50031301773814 -16.98520454896508 91 53 58
-31.11250586411794 77.58801717700545 -16.997905750301967 77 42 47
-30.9934865228755 77.66782624500182 -17.0088785981325 67 39 43
-30.874295699654496 77.74774914907336 -17.019867024249024 70 45 52
-30.75493296156509 77.82778596164539 -17.030871024826013 71 48 58
-30.651186265658698 77.94832495311766 -17.050668658407375 71 45 53
-30.54403099923849 78.06105894925481 -17.068754770731385 89 51 57
-30.439776328397098 78.18217058271374 -17.088645815553654 99 55 63
-30.33212581729021 78.29543638824971 -17.10681768175203 101 58 66
-30.214844392894243 78.3844678232805 -17.11971572101463 99 57 66
-25.898021689785356 82.30683614275667 -17.724018505755677 121 71 83
-25.63090958256269 84.50911026778938 -18.15480937903988 120 76 92
-25.606340235806226 84.95761340936325 -18.24380741305253 99 61 76
-25.632845618635816 85.58279495606358 -18.370441830270376 75 35 46
-25.769640621995457 86.5879302653679 -18.578033901465115 95 48 55
-23.156487021142336 87.73052404681181 -18.696554534865598 120 73 89
-22.88584366381097 87.31813689160225 -18.602282584417672 112 65 79
-22.622963096057248 86.929468417762 -18.513101676793966 111 64 75
-22.365057287293418 86.55419475897044 -18.42682093491634 99 62 77
-19.092131278769546 80.80483426475334 -17.133738657604 102 70 89
-18.856360881522672 80.43269984956744 -17.04902724303159 101 71 88
-18.634421953817835 80.11405294009988 -16.975640652999733 103 71 87
-18.410562765579847 79.78159306449417 -16.899399538100123 104 71 88
-8.760030598059055 89.89934360800093 -18.521188146889845 101 69 87
-8.62086541208267 90.09974604784854 -18.555516332820634 100 69 88
-5.156075197841746 92.96894259739334 -18.98453462026357 129 78 91
-5.001929820166231 93.10450856510327 -19.005210856059353 129 79 93
-4.846855654450063 93.22946282464531 -19.023717307186192 129 77 91
-4.69200876073034 93.36563381504041 -19.04448524386231 129 80 92
-4.5384045193886795 93.53505154451463 -19.07198043447703 128 78 92
-4.3910748018361545 93.84845412910106 -19.128647871027276 135 87 102
4.3929267825081295 100.78379917469583 -20.148307307505085 125 75 88
9.742419567283672 98.8696594102184 -19.537075701844966 107 74 95
9.891617167250432 98.73011130872399 -19.502730620083753 93 77 100
10.041512498612839 98.6029254872064 -19.47083775801192 95 83 109
10.190940950382247 98.47613372701773 -19.43904381421434 93 80 107
10.341136168820883 98.36156872647254 -19.409671954536236 89 75 107
10.492148836519133 98.25913833799353 -19.382701529433437 94 79 110
29.468868220037795 87.2222230512198 -16.36186526824138 78 85 99
29.7425132751465 87.64139415925794 -16.434407574977847 80 86 98
30.02172128197309 88.07348609253981 -16.509307825384443 80 87 99
30.32229653918555 88.56486162196796 -16.595203194690992 79 86 99
-46.49031680745498 74.4719890543481 -17.166994636680954 93 74 83
-44.31145737568098 71.43736263213758 -16.45949461777958 79 65 74
-43.91057015505348 71.0261426513456 -16.359110018315604 76 63 73
-43.58608240972864 70.73687324314886 -16.28668055291067 81 65 73
-35.45874703164787 70.36453351865433 -15.864151860936191 88 53 56
-35.345188169620414 70.41989795300006 -15.870511373895837 91 55 61
-35.23152379408707 70.47531874339737 -15.876877790783677 86 55 58
-35.11108968798086 70.5173198453018 -15.880237906501288 70 48 48
-34.96406661198905 70.50549829626115 -15.871564609148454 52 40 41
-34.82047952172689 70.5004090010404 -15.864401183239396 40 37 38
-34.673715412395744 70.4885983093056 -15.855741145345817 38 33 35
-34.553251417102665 70.53056570891813 -15.859093160555206 52 39 38
-34.48825991540423 70.68717129860268 -15.888025891761558 61 44 40
-34.423023347194786 70.84437521199132 -15.917069301019007 50 35 35
-34.36081016997226 71.00898417501621 -15.947741182937603 43 30 31
-34.301621328491294 71.18109091669163 -15.980060353158274 66 45 46
-34.25529192123991 71.38142026505304 -16.018643149178757 84 50 56
-34.2054469378578 71.57582795634343 -16.05587679965547 86 48 57
-34.15536804572023 71.77118043111433 -16.093291754131368 85 47 57
-34.10175721252519 71.96048239674687 -16.12933077477985 85 48 56
-34.051189291141 72.15768154380252 -16.167098746155887 86 49 58
-34.00037380529478 72.35582775902807 -16.20504790085296 71 42 49
-33.94602104577462 72.54785469198859 -16.24160696912828 31 17 20
-33.17408613806704 74.69861431617979 -16.644110266198094 95 56 65
-33.093108140082926 74.84901609514306 -16.67110405795917 88 53 62
-32.99208085525888 74.95471866981337 -16.68819103122067 82 56 67
-32.890834279519495 75.06065918862934 -16.705316815698094 78 55 66
-32.61190939263084 75.44075880122453 -16.77036381101459 83 55 69
-32.526053528844784 75.58599320323293 -16.79610299306644 95 59 70
-32.439920210115886 75.73169201712588 -16.82192435600856 99 58 67
-32.350248230587134 75.87016487648391 -16.846131500041533 97 56 64
-32.25704378820847 76.00132559786118 -16.86870723992023 97 56 64
-32.16683065255001 76.14060887104725 -16.893055358163434 98 59 66
-32.07309730604648 76.27254699405239 -16.915765911428398 90 53 59
-31.98233875753059 76.41264913383483 -16.94025653353863 74 41 49
-31.88158893550232 76.52971491656139 -16.959656121154488 74 45 54
-31.783827003010458 76.65491156340387 -16.98082962421086 73 48 60
-31.679352613452544 76.76470508911395 -16.998597677280195 72 49 62
-31.577863621035025 76.88262989593416 -17.01813962376427 74 50 62
-31.48898158712455 77.03248084927458 -17.04468428562865 77 53 65
-31.399809170673578 77.18282159914102 -17.071315715962594 79 52 62
-31.31034412852571 77.33365252082828 -17.09803389494288 89 54 60
-31.220584217524536 77.48497398963117 -17.124838802746304 94 54 60
-31.104960267954276 77.57264482207697 -17.137651341829898 80 44 49
-30.989145046979285 77.6604560237424 -17.15048413245135 71 41 48
-30.873138003648883 77.74840768680512 -17.163337169741798 72 47 56
-30.753774432740318 77.82844497311365 -17.17444437935195 75 51 60
-30.65002630623092 77.94898477836264 -17.19441930370806 73 49 58
-30.546021745702852 78.0698229261712 -17.21444368195954 86 49 57
-30.441756638680395 78.19095236399369 -17.234515910489307 96 56 62
-30.33409855626837 78.30424318832858 -17.252856094711312 100 58 67
-30.216807052637893 78.39329217727459 -17.2658764502488 102 57 66
-30.099321857377294 78.48248968094964 -17.278918603210474 110 63 73
-29.978535878608376 78.56364737267414 -17.290191911998136 119 69 81
-29.85757080173233 78.64491243458635 -17.301479310804147 123 72 85
-29.74569821877161 78.75097426796704 -17.318175794474225 122 70 84
-29.633592197201807 78.857253190726 -17.334906262511304 124 71 86
-29.521254540752864 78.9637566416772 -17.35167229812962 123 71 85
-25.86295531891214 82.69855383511084 -17.951619272550044 114 65 76
-25.83159986881068 83.10211507910395 -18.03199098075345 124 77 89
-25.70188931131844 84.2234369573045 -18.253490127178328 123 75 93
-25.680579603576927 84.67852629709822 -18.34472405530858 124 76 93
-25.66759340424157 85.16673060872222 -18.44301844886822 118 75 92
-25.720459878798952 85.8817082550247 -18.590041462764063 92 52 66
-22.923444121411837 87.46786522455184 -18.79173057065486 80 44 57
-22.66249877755098 87.08770257940712 -18.703611574339362 83 48 62
-22.408977426581973 86.7305800817846 -18.62047472486994 92 59 77
-22.09839304395358 86.14445510681466 -18.48853333796491 98 67 88
-19.055189073593624 80.65338428376313 -17.246746879247585 102 71 92
-18.818088011690662 80.27432564177072 -17.159869866016773 103 71 89
-18.594826336035606 79.94868382632754 -17.084399529316038 107 72 90
-8.567858381012597 89.55915071023614 -18.601999380926497 102 69 90
-8.427934302502292 89.74789992612267 -18.6342398241949 100 69 87
-4.80937946500778 92.53663416055377 -19.044330480344 129 76 93
-4.654547949639759 92.64942661063145 -19.060554858353917 129 77 92
-4.5015347435552515 92.80565691873414 -19.085651972353137 128 76 91
-4.355751508287706 93.1253044696679 -19.1441457694527 135 85 102
-4.2080594854112165 93.42505295267692 -19.19852897767518 149 102 122
-4.05806636501155 93.69351193084309 -19.246478564093838 150 103 123
-3.9063751211538453 93.94122383365692 -19.290154859511077 152 104 125
-3.751298416194709 94.12342073099727 -19.32042141599789 148 104 126
9.854091830090661 98.33878702119718 -19.5928058177648 95 75 93
10.004644225930468 98.2245132187752 -19.563237775251118 89 73 96
10.158384859097412 98.14589962602673 -19.540753848568112 84 71 98
10.31057242768215 98.05570171245897 -19.51599072427628 82 71 98
10.463637416842126 97.97744725601069 -19.49360837212539 85 72 97
10.600054017324554 97.74731591416375 -19.441185874178977 91 77 103
29.464018041302243 87.20497526540203 -16.500899468818254 76 87 97
29.737587172581758 87.62398867839028 -16.574054285868723 76 87 97
30.035218675801744 88.11063231082136 -16.659874752203613 77 85 95
30.408239280349004 88.81512303362958 -16.786583701896106 79 87 97
-46.385095897273686 74.30479778939144 -17.27057700870216 82 63 69
-44.167803736833086 71.20654524484559 -16.542595335501254 82 68 76
-43.79027608533677 70.83258681853017 -16.450002375892023 81 67 82
-35.34746944117014 70.42722069043224 -16.004190348459503 92 56 60
-35.233795778399674 70.4826509779438 -16.010620818836227 91 56 61
-35.113352560586065 70.5246614665807 -16.01401998356057 78 51 52
-34.97294263505588 70.52629342180944 -16.008315608668934 67 48 45
-34.83591222660987 70.53465163784709 -16.00413000126679 58 46 44
-34.6956451152011 70.53627518060132 -15.998430049602256 46 40 38
-34.57838568949151 70.58502145422284 -16.00334151042999 50 40 37
-34.51339063006914 70.74184518816843 -16.032568885770182 56 41 39
-34.448153218282364 70.89927453545917 -16.0619095014002 57 40 40
-34.382663694603146 71.05729564766237 -16.091360109922366 70 49 49
-34.3234813120763 71.22961894944437 -16.124002317497787 83 51 55
-34.277174293651846 71.4302010650009 -16.16296838796953 88 50 59
-34.230635786685745 71.63178174859257 -16.20212840408278 86 49 60
-33.25697580119097 74.55681020576512 -16.757528607403735 99 60 65
-33.18287738354089 74.72171330740517 -16.788014281962592 96 59 65
-33.10519239202389 74.87971579310697 -16.816936683694642 91 54 62
-33.00743430844378 74.99303053039858 -16.835871064016757 84 52 61
-31.392237540827672 77.16759858589239 -17.21044725620433 80 52 64
-31.302778912613306 77.3183750064214 -17.23738788842156 91 54 62
-31.213025593078505 77.46964194681992 -17.264416009192466 95 54 62
-31.10061125473268 77.56529086682235 -17.2791129538362 85 47 54
-30.98798830131048 77.66111402088956 -17.293836505265165 77 45 53
-30.87198030764327 77.74906622453689 -17.30680731523456 74 49 58
-30.75261590391555 77.82910398458189 -17.318017733877873 76 52 63
-30.648866346803143 77.94964460360761 -17.338169949008737 75 51 61
-30.54486035213044 78.07048356720749 -17.35837205693936 83 50 57
-30.44373952290512 78.19974155153864 -17.380417323362998 97 56 63
-30.336071054845124 78.31305012515615 -17.39892429996882 102 60 71
-30.218769471550843 78.40211666826154 -17.41206702498173 103 57 68
-30.101274142545122 78.49133173579054 -17.425231746457126 109 62 72
-29.98047533545966 78.57249965372252 -17.436611255170106 118 69 80
-29.859502899177173 78.65378950855438 -17.448008196392905 122 71 85
-29.74452923763715 78.7516392250724 -17.463044475566882 122 70 83
-29.632422002576856 78.85791883810693 -17.479925328209365 124 72 85
-29.517011400853733 78.95615902353657 -17.495022549649466 122 71 85
-29.40444403951345 79.06285620656777 -17.51196888138424 121 71 84
-29.273329691501726 79.11999689651523 -17.517998655255557 119 71 81
-29.139066251706645 79.16887883183439 -17.522206646896453 120 69 80
-25.892486244418375 82.79807303782191 -18.123656629046014 102 59 71
-25.875273373577155 83.2479898964968 -18.21478590667554 123 75 90
-25.82968198912126 83.6107578728404 -18.286899806560236 123 74 90
-25.78372152142469 83.97645937404688 -18.3595968382617 121 73 89
-25.748714251956496 84.38243737634208 -18.44098899575018 125 77 94
-25.73329298407808 84.85804753341874 -18.537441678354764 124 76 93
-25.734872348764586 85.39596628030739 -18.647348302102795 125 77 95
-22.70473947565746 87.25640029623335 -18.8969387784996 89 61 78
-22.45307379876336 86.90767331990665 -18.814909926695535 93 65 85
-22.141557215083207 86.31913086585067 -18.681339089353575 99 69 92
-19.018384340009728 80.50249783063252 -17.35933309030374 105 74 93
-18.77802259769208 80.10824568405445 -17.268494429985704 105 72 89
-18.55157523007817 79.76749875646088 -17.18917942415298 107 72 91
-8.375349720372556 89.20157030424981 -18.677965205748784 100 70 92
-8.234746385491164 89.37876121020855 -18.70810024967858 100 69 91
-4.320965627462908 92.41315684173341 -19.15940757535261 135 86 103
-4.173812137797441 92.69777670601226 -19.211197098705043 148 104 124
-4.025839952293215 92.98398104183708 -19.263274954684316 150 105 126
-3.875219281808242 93.22817111502967 -19.306659949355804 150 105 126
-3.722141634338383 93.4297033750441 -19.341228909655616 146 105 126
-3.5684931028099816 93.63199684214146 -19.375928754426862 136 103 127
-3.413865705605195 93.82401196608659 -19.408487752541657 133 102 127
-3.2598558918208913 94.04992062405094 -19.44799409556643 133 103 130
-2.6442580280897046 95.21196436329792 -19.658803523023867 152 110 129
9.813369397570268 97.91532628179294 -19.675132199820347 87 72 90
9.966875859932184 97.83726895861753 -19.652592761578696 89 76 97
10.121251451023392 97.7710686239927 -19.632437053273428 85 73 101
10.276549153255855 97.71667221716055 -19.614651962085347 88 76 102
10.432821529269544 97.67402660713255 -19.599224378904847 86 74 99
10.572638480555652 97.48023222279357 -19.55364100432367 82 70 97
10.708046636493588 97.25261675294435 -19.501341211821725 82 72 99
29.483168119413207 87.25934163930077 -16.653466666979877 80 96 98
29.802714488917058 87.81467552128105 -16.753120960652687 80 96 99
30.25086266056849 88.74556639772742 -16.923931133230383 80 94 99
-46.27094854587576 74.12319856545881 -17.37017000413344 82 64 71
-44.684238115090515 71.80505246701645 -16.824158183434946 84 67 74
-44.02934807578617 70.9841519111342 -16.626778868493055 86 68 78
-43.6706299984548 70.64007355058928 -16.54040207838014 88 72 85
-34.848052631355905 70.56218474923247 -16.14245975181607 69 47 46
-34.717601371845625 70.58401010160277 -16.141306928561175 60 41 38
-34.60683726790906 70.64629970505887 -16.14933826835653 64 43 39
-34.53856135777961 70.79660592218899 -16.17733223283363 71 46 45
-34.47003593338214 70.94744928795943 -16.205426000399935 73 46 47
-33.26577742748828 74.57982947299 -16.901237610572 92 52 59
-33.19497926880568 74.75231671913606 -16.933689672266418 88 49 54
-33.11398126397228 74.90291688603943 -16.96119346037953 71 37 44
-31.38787654048172 77.16031426473126 -17.35129420542793 82 53 65
-31.298418719235336 77.3110603436089 -17.378461836746595 92 54 61
-30.442576571767702 78.20040307857205 -17.524538723175084 97 55 63
-30.341185444522484 78.33001653798367 -17.546838394578796 103 61 68
-30.22073443698894 78.41094857057443 -17.558289063722338 103 58 66
-30.103228960690938 78.50018120439627 -17.571576406796062 111 65 73
-29.982417311956404 78.58135935085252 -17.583062141918706 119 70 82
-29.858335008005515 78.65445384565099 -17.592741801333407 122 73 88
-29.743360256502687 78.75230418217774 -17.60791315665955 122 72 85
-29.62817076831126 78.85033751840686 -17.623112897968994 125 74 89
-29.515840111865778 78.95682529342922 -17.640177236805165 125 74 90
-29.400209409415467 79.05524207474171 -17.65543683407775 124 72 87
-29.269106792794755 79.1123732572606 -17.661525611064125 120 69 82
-29.134855232436973 79.16124561147171 -17.665777510400822 121 69 82
-28.99749673852511 79.20184436811954 -17.668191309463527 120 67 80
-28.86309161956795 79.25077337639677 -17.67244822727886 123 70 85
-28.737596538599796 79.32470027012064 -17.68223813019709 122 74 90
-25.919099671628288 83.39437495731298 -18.39821691460964 121 74 88
-25.876431755934053 83.76756240773479 -18.473212675358795 123 74 91
-25.830577340571327 84.13458729572602 -18.546801573222133 122 74 90
-25.80140067078549 84.56076277681011 -18.633292055272708 126 79 96
-25.789084855246767 85.04779212713073 -18.733042768011916 125 78 95
-22.184896413582717 86.49451472555427 -18.874921200850896 99 69 90
-21.852525534907503 85.81599684320766 -18.7208207279447 100 71 90
-19.25203346475736 80.8675831500795 -17.589328854836296 105 74 93
-18.979748880306012 80.3438036877512 -17.469691412894015 107 75 95
-18.736191041328986 79.93457153569003 -17.374883816448648 105 72 92
-8.180799276854275 88.80708676399979 -18.744903512862397 104 73 97
-8.035108656849996 88.92273981298908 -18.76241100800205 103 73 96
-7.879373088691383 88.92849160305506 -18.75685400433435 102 73 96
-3.842288854654421 92.4721601365164 -19.311774091989765 150 103 124
-3.6908190438102575 92.68143597394813 -19.348309216906262 145 103 125
-3.539168258870995 92.90235310355243 -19.387233557258046 135 102 128
-3.3864863390491386 93.11332568524618 -19.42406558869385 135 103 129
-3.2339635721658375 93.34695956099941 -19.46557067859468 133 101 128
-3.082951792363849 93.64746004039169 -19.520909624449615 131 97 123
-2.9307096149081726 93.93866856392454 -19.57428201058395 121 82 106
-2.776949528344868 94.20930088447064 -19.62335186101785 132 88 110
9.923548088420668 97.39498300077005 -19.72954469957482 73 65 86
10.080834044407583 97.36428015457588 -19.716414238623337 84 79 102
10.237933308354066 97.33360799898547 -19.703298178517812 80 74 97
10.396071798923076 97.31455817265523 -19.69253027789605 80 74 97
10.541651900914953 97.17995215713881 -19.658511910456433 83 78 105
10.68173613103774 96.99977842693082 -19.6153486315012 79 76 103
10.822495766977708 96.83183185451013 -19.57467380056358 84 80 106
29.364739542456856 87.2992209902293 -16.809180370646 84 96 103
29.852106802171917 88.35738634433282 -17.005969620300334 86 98 103
-44.66117322445327 71.77014925154077 -16.95305063585404 77 59 65
-43.921538175857656 70.8115025590954 -16.7217810891384 82 63 71
-33.378237680671795 74.50538979618335 -17.029311003695994 79 47 56
-33.307711932670365 74.67760787968507 -17.061994901932884 67 38 46
-33.233588921701084 74.84299671856336 -17.093104119983376 62 34 39
-33.152558203377545 74.99392823180943 -17.120910616108215 62 37 45
-31.504833313359672 77.08194573101356 -17.482639442072646 78 54 66
-31.41241787855687 77.22451004783625 -17.508212604593997 88 56 66
-31.32292492569184 77.3754795004907 -17.535658240691493 96 56 63
-29.523885988823718 78.98229113804514 -17.790882603140695 126 74 91
-29.408228417918036 79.08076703985367 -17.806289083762696 124 74 90
-29.274033482279535 79.12962232669103 -17.81058525961582 122 71 87
-29.13671952852363 79.17021372955756 -17.813029725550226 122 71 83
-29.002371125681577 79.2191256553423 -17.817330973894 120 68 80
-28.86492809144873 79.25975413565848 -17.819777513474172 123 71 85
-28.73941996518819 79.33369124733333 -17.829659861081925 121 73 88
-28.613758579812142 79.40773140745569 -17.839556926084686 117 72 89
-28.48793573098952 79.48185276650669 -17.849463814446455 115 74 94
-25.96294292510833 82.53249926113688 -18.372833354473062 83 60 75
-25.93771070195216 82.9526605781471 -18.458970452152837 82 50 63
-25.93763240637242 83.45897089200254 -18.564090423824375 115 68 81
-25.89217799907377 83.82350027076055 -18.637795692289444 123 75 90
-25.843518629741304 84.18169984286733 -18.710047071370987 123 73 89
-25.81154082075357 84.59895682603081 -18.795287217475405 126 78 92
-21.958517965306616 86.23982340077538 -18.968081055859354 98 68 89
-21.626643922795896 85.55602428503232 -18.81164508286351 100 69 91
-19.266949432014208 80.9361620928513 -17.749617368414267 106 75 96
-18.984488710148376 80.36958834220214 -17.619673633412674 108 76 97
-18.733098746944364 79.92694692569883 -17.51681541306294 105 73 96
-7.982712754135101 88.35700019274618 -18.798674751667434 106 76 99
-7.829723151031256 88.38259635800567 -18.7973227526689 103 74 98
-7.676733547927402 88.40819252326517 -18.795970753670368 102 74 99
-7.523743944823556 88.43378868852467 -18.794618754671834 105 76 100
10.034861104499912 96.90337900777098 -19.7880226006345 96 98 119
10.193638012876722 96.89608552184241 -19.779589663380296 100 102 123
10.351088570228136 96.8773151230989 -19.768831611156465 98 102 123
10.501008981337518 96.78981677372188 -19.744131944570185 102 106 129
10.646841567826629 96.66825652366164 -19.71253825318911 106 109 132
10.79096910379346 96.53567463005379 -19.678730474377275 106 108 131
10.935898612506326 96.41487669400557 -19.647334410624595 105 108 132
29.18661961566357 87.15994857052114 -16.930501879476516 78 88 97
-44.74362021007787 71.90599518088445 -17.122181607370486 79 60 65
-43.8312028265469 70.66721563277827 -16.822830876516065 82 65 75
-33.43359289684686 74.63289244640077 -17.19696241889301 82 49 57
-33.35973274373191 74.79815301073643 -17.228319017180542 68 43 52
-33.28226273746026 74.95649350635443 -17.25806860923755 66 43 52
-31.542351316762534 77.1777821298197 -17.646765506930347 82 54 67
-31.449879113325686 77.32066628247985 -17.67262139068172 93 57 68
-29.28201738961349 79.15518456839054 -17.961579764385018 121 73 88
-29.144661076251957 79.19579089713875 -17.964055749719616 119 71 82
-29.00724768005585 79.23641451698224 -17.966532851080718 121 69 83
-28.86977716167155 79.27705543450512 -17.969011068120533 122 72 86
-28.744246294981334 79.35101986780164 -17.978989042299464 119 71 87
-28.618559472786306 79.42508006033805 -17.988980222577045 122 74 92
-28.495694734561194 79.507593198508 -18.00086475405167 123 78 95
-28.37264849951714 79.5902218506718 -18.01276550686867 121 82 102
-28.243508111308643 79.65619793458211 -18.020912851693357 112 78 101
-28.117178918420905 79.73064426739288 -18.030956692447283 104 73 94
-27.987758326731544 79.79677560185637 -18.039124247760267 103 70 88
-26.01183958110807 82.19674418644577 -18.454874949820034 98 68 87
-25.972926166011746 82.56896696635943 -18.531090578455615 88 64 80
-25.947729649125833 82.98948070008746 -18.618017254013665 78 51 66
-25.944883405395288 83.48708412521381 -18.72206248142195 101 57 68
-25.89661050052937 83.84262783272838 -18.79437593022746 124 74 86
-25.84511980274037 84.19168902681645 -18.865191168627906 123 73 87
-22.09031554991643 86.76552527318567 -19.239314919811594 98 68 91
-21.76020995849506 86.09254964340083 -19.083952803190062 101 70 95
-21.43061091761407 85.4113072787412 -18.926882317115606 100 71 95
-19.010929343507154 80.48768934786328 -17.790023190202167 108 75 97
-18.747406394412085 79.99391934721977 -17.675097047534372 105 75 95
-7.630309186346615 87.88829451558087 -18.840118290748542 104 74 101
-7.480707173574071 87.94305618233342 -18.845020487063458 109 78 103
-7.331820769204043 88.00763726176275 -18.852009701943356 109 78 102
10.14855233577947 96.45108003048524 -19.852870314011707 106 98 120
10.30650760677441 96.44398174351359 -19.84445613937892 107 99 121
10.459469968056156 96.39143035665177 -19.826745649093404 107 99 121
10.608474518828835 96.30496248770021 -19.802108558447788 105 98 119
10.75713031156368 96.21869171439118 -19.777528025640688 103 98 121
10.904171860187276 96.1213370226517 -19.750697949542158 107 101 124
29.008972192000847 87.0210481286443 -17.051502986972732 74 83 90
-44.90167746889982 72.16421554282552 -17.320991511683953 87 68 71
-33.48913674148886 74.76082950388395 -17.36518199191358 86 51 60
-33.411916055103774 74.91907491033712 -17.39517215841384 73 47 57
-33.331085860115145 75.07033822209807 -17.423529322839276 72 49 58
-31.5767247750647 77.2658863242161 -17.809469879455598 82 54 64
-31.487431323377645 77.41705613736801 -17.837433665380132 93 55 63
-29.01212640132597 79.2537109532225 -18.115796980924053 123 73 87
-28.8746283854577 79.29436431026888 -18.118306901907864 123 75 89
-28.749074764575994 79.36835606774808 -18.128380582342842 120 74 86
-28.626355769743274 79.45079098136941 -18.140361427178977 122 73 89
-28.50345560485791 79.53334135478845 -18.152358642557086 122 72 89
-28.380379017561594 79.61602187530416 -18.16437553799248 125 77 94
-28.25416177618415 79.69042655225654 -18.174507071293295 126 82 102
-28.124838369672855 79.75651865219707 -18.182747012126143 117 80 101
-27.995379596736594 79.82267984466117 -18.190995559377875 107 72 92
-27.865785221253635 79.88891016915356 -18.19925271096185 103 69 87
-27.74479038742786 79.98053136499169 -18.21324853894379 102 68 85
-27.626494668802522 80.08076546412728 -18.22918137560606 104 70 88
-27.510869471371695 80.18967143616234 -18.247062404716008 110 71 91
-27.392117399671804 80.29030699998631 -18.263059827246003 110 71 91
-26.385994366751618 81.43067413320115 -18.459327144462847 102 73 95
-26.281505411029556 81.58618986159745 -18.4875373154296 103 72 96
-26.17947958421347 81.75098498057649 -18.517814745778427 102 71 92
-26.07989555046905 81.92515594942695 -18.550178852317238 101 69 88
-26.02180500650561 82.23292684580993 -18.6125725498361 97 67 88
-25.982917569576365 82.60546468834336 -18.689483802613605 91 67 84
-25.957756696615583 83.02633085318449 -18.777201279198493 79 57 72
-25.954966523676813 83.52436114990327 -18.88219271584089 81 47 60
-21.892998047711167 86.6260531256827 -19.357505986954152 101 72 97
-21.565090378282687 85.95546144188343 -19.201493633437718 103 73 97
-21.242375810325854 85.29548827315672 -19.047951701503052 102 71 97
-19.03942719196774 80.61455845473091 -17.96273334866213 106 75 96
-18.761738195392116 80.06100460691744 -17.8336401880052 104 72 95
-7.290055148760424 87.52171827840279 -18.901839852728887 112 83 106
-7.1473722861445 87.6536749225672 -18.923391402878792 108 81 104
10.41706076942614 95.98503707030517 -19.90636170344678 106 96 114
10.56916732597941 95.93313162880985 -19.888691147189558 98 90 109
10.719782731818004 95.87007765415873 -19.868733406652467 98 92 113
10.87011851525662 95.80714719456027 -19.848814080347353 103 97 119
11.004891034984835 95.6101895065191 -19.801293977265246 104 95 119
28.993629346800322 87.37421385358884 -17.268817795189698 76 88 97
-45.16387560794207 72.59099723936505 -17.561271244667154 88 67 72
-33.544865988581336 74.88919377527493 -17.533970441362655 86 48 58
-33.46426823720496 75.04038800109343 -17.562559751059787 77 48 58
-31.61117808523456 77.35419494245542 -17.972542031008505 79 51 64
-28.75390537365021 79.3856998473558 -18.277834521112474 120 71 85
-28.631163408521942 79.46816217121693 -18.289926472947354 123 72 85
-28.508242796729565 79.55074727401872 -18.302036611016607 123 72 88
-28.388113977761833 79.64183693482393 -18.31608038737314 123 72 89
-28.261861167138076 79.71627882278939 -18.32630975931035 126 75 93
-28.132502208891935 79.78240808164429 -18.33463236240028 128 82 102
-28.00300777863391 79.8486064509467 -18.342963650782494 119 80 100
-27.873375102555325 79.91486665392465 -18.351301952863494 106 73 92
-27.752349091155647 80.00653990842493 -18.365430037081154 103 70 89
-27.634024423318994 80.10683348471306 -18.381512372318948 106 70 88
-27.515474398277405 80.20731184086077 -18.397624010566673 111 71 89
-27.399586088666588 80.31648681647853 -18.415704373360363 108 72 90
-27.277702701996922 80.40884537487857 -18.429940176442646 105 74 92
-27.158476997633485 80.50989348666852 -18.44614302134856 100 72 94
-27.039027784442055 80.61114155076919 -18.46237847976051 100 70 93
-26.919349370508684 80.7125750377784 -18.4786432072163 100 69 93
-26.805117450904522 80.8314043969466 -18.498851412542376 103 72 96
-26.696275051938496 80.96775527307221 -18.523027298463376 102 72 96
-26.589956965983927 81.11314313177866 -18.549238224991893 101 71 94
-26.488952387689714 81.2763284137579 -18.57947216112165 101 71 94
-26.387605871287697 81.44007405937295 -18.609810135730793 102 71 95
-26.285912504755775 81.60437314958897 -18.640250458330005 103 72 95
-26.18667184931394 81.77802309494443 -18.672789424928503 102 70 93
-26.087068852497637 81.95229874432326 -18.70544542634529 100 69 91
-26.03178096923148 82.26914686246997 -18.77040688701813 99 70 92
-25.992917134514318 82.6419924278213 -18.848013186548652 95 69 90
-25.967794131580895 83.06321839614692 -18.93652435461319 85 62 82
-21.375444172321156 85.83800756597368 -19.322870797764633 103 72 96
-21.050127348507598 85.16121918691813 -19.16440936116554 103 75 98
-19.071988080817892 80.75873123947055 -18.13975635539963 107 76 98
-18.778034928810797 80.136524529316 -17.994302373340982 106 76 99
-7.106011791289219 87.16217178313183 -18.97054248681709 111 81 104
-6.9645000378275626 87.30274218020969 -18.994164487260903 107 75 100
-5.177353071588733 83.10097438721753 -18.02070727300943 129 82 98
10.528944576339205 95.55299240529108 -19.972290392166773 98 87 104
10.681470625493832 95.51282991639812 -19.95696700893808 98 87 107
10.833783811190134 95.47271696338295 -19.94166362471434 102 94 115
10.974492652518085 95.33267886851459 -19.905614041344386 102 93 116
11.112157375538514 95.17100669742496 -19.865096475888063 106 98 121
11.251865032474138 95.03200092933254 -19.829311037707 107 99 121
-33.58063360671149 74.9727199777143 -17.692719898801165 80 47 54
-33.49329808297003 75.10908052549306 -17.71806258425079 76 47 56
-31.622990586714216 77.38677284435039 -18.122969124841063 76 50 60
-28.507065636688527 79.55141688357044 -18.447918881955697 124 73 87
-28.38693583347022 79.64250710425159 -18.462084633833253 123 74 89
-28.260682283612137 79.71694941271923 -18.47240561708753 125 74 90
-28.13132270858614 79.78307902241995 -18.48080465604261 127 77 94
-28.004763513724587 79.85769632156742 -18.49114950436271 128 84 101
-27.872194366865344 79.91553829742979 -18.497627344338397 116 80 101
-27.75408311852696 80.01566502020164 -18.513821657060873 106 71 92
-27.632841581326336 80.10750632635639 -18.528098792206848 108 70 89
-27.517185882141135 80.2164725849437 -18.546298961467564 110 71 88
-27.39840088376422 80.31716100222702 -18.5625836222796 109 71 91
-27.2765164993214 80.40952012819513 -18.576943076699678 106 71 93
-27.154425084219923 80.5020300051241 -18.591325607277902 101 70 93
-27.034982689420936 80.60325415817705 -18.60769577955389 100 70 94
-26.91246985095919 80.69609773231181 -18.62213103891619 101 72 95
-26.79825271442642 80.8148787279481 -18.64250075712448 103 74 97
-26.686597479477705 80.94255887485453 -18.664893875547207 106 76 100
-26.580297551936034 81.08785925607526 -18.691305953372794 102 74 97
-26.479311161572504 81.25095715965634 -18.721773149871368 101 71 94
-26.375171062566867 81.40588967827546 -18.750347867556783 101 71 95
-26.276301437670938 81.57880496449302 -18.78301551214215 102 72 95
-26.177075044492373 81.75235276635634 -18.815802872157153 102 70 93
-26.080279875542853 81.93534796328983 -18.850725383534517 101 71 95
-26.02218384208019 82.24318502372665 -18.914156605286003 101 71 94
-25.983291122219036 82.61579749352784 -18.992340664700126 101 70 93
-21.45272764586972 86.15554179375995 -19.548974709455173 103 73 97
-21.127930058660265 85.48318315299781 -19.39023107771428 107 76 100
-20.80376117341928 84.80290102587684 -19.229816016216155 105 75 99
-19.122632824799844 80.97986676874127 -18.334608469351327 106 74 94
-18.817730402316812 80.31239262212802 -18.17780232026247 106 76 97
-8.999688563854031 78.2431186964675 -17.294855359196198 110 67 87
-6.913718549478581 86.68221375057787 -19.011706283412476 106 76 101
-6.774257030485 86.84037742626077 -19.039394366674365 108 77 102
10.63487471509703 95.08083190324449 -20.028330878762137 94 85 103
10.789015022940013 95.06327933758824 -20.017672232501358 100 95 115
10.93296411831454 94.95756369826445 -19.98855884253089 102 95 115
11.076516176470193 94.85214545390605 -19.95952699920517 102 94 115
11.219672121488149 94.74701701822639 -19.93057503397602 107 100 118
11.365031965983164 94.66404017801587 -19.906275907124243 106 99 119
11.492993291564991 94.4396059756971 -19.85241301913019 107 99 120
-33.606384906256444 75.03374802893572 -17.846459986010817 71 39 45
-33.515661347030814 75.16273389619595 -17.870264731400727 75 48 54
-31.628325064846944 77.40340488560138 -18.26977402448261 79 51 61
-28.000647543174743 79.84994903492226 -18.635461269399073 127 78 96
-27.87101363117536 79.91620994093493 -18.643952735813308 125 84 103
-27.749985639254454 80.00788432202452 -18.658326260687925 112 75 96
-27.63165873933368 80.10817916799971 -18.674685212094758 108 70 88
-27.51310647812973 80.2086587961543 -18.691073971916577 107 67 86
-27.397215678861855 80.31783518797553 -18.70946287119884 109 71 93
-27.272455496794173 80.40167314750151 -18.721974078481132 107 73 95
-27.15037342086675 80.49416638133664 -18.736477203897035 103 71 95
-27.0280862204852 80.58681778879308 -18.751005295515785 101 72 94
-26.905593265991584 80.67962747521673 -18.765558347772984 102 73 95
-26.788560189317085 80.78977681194074 -18.784106194507906 105 74 98
-26.676927882732745 80.91738406116028 -18.80667174493576 106 76 102
-26.567829308823043 81.0539571538969 -18.831289863911046 105 76 102
-26.461240532223606 81.19957750403995 -18.857977076742095 101 72 96
-26.359941916688253 81.36303035528512 -18.888758005209674 101 70 94
-26.261098456271554 81.53577957490583 -18.92165942882174 101 72 95
-26.161896429876887 81.70915387319285 -18.954679862573915 101 70 94
-26.06512374069041 81.8919681961836 -18.989850689606325 103 72 96
-26.009798558318575 82.20836152340117 -19.055768489837114 101 72 94
-21.185182621082014 85.72165832261526 -19.598225208177066 104 74 97
-20.861944609877792 85.04692917487434 -19.437791438007608 107 75 98
-20.543908044428985 84.38305730697346 -19.279939263747554 107 75 99
-19.185615035038605 81.25352978065135 -18.54215987492054 103 71 93
-18.869357692686073 80.53945443187618 -18.373533189818367 104 72 92
-6.722165474151808 86.18898980987383 -19.04827470593438 110 77 99
-6.5861164786119035 86.38312825066461 -19.08412608192851 120 77 96
5.217500065732089 96.97739630345433 -20.84344280729931 123 88 111
7.390875439730083 95.77988651936013 -20.48670127038308 120 68 84
10.739709663943701 94.61355302075619 -20.083791979276906 96 92 112
10.888025588688528 94.55261317577943 -20.063940222413642 101 96 118
11.03480892254471 94.48088150633427 -20.04182412681703 101 94 115
11.181289976743427 94.40930052781619 -20.019754218282305 105 98 119
11.328759636544241 94.34872225790397 -20.00001872942143 107 100 123
11.46290719215993 94.17992623635847 -19.95748490320913 103 97 120
11.595188763650045 94.00104896398902 -19.91285537913983 108 102 123
-43.60635780788071 70.31401167163496 -17.410369237410514 77 68 81
-33.63217929592602 75.0948779669918 -18.000447051124564 68 41 49
-33.53805496475618 75.21646023228979 -18.022679702144544 75 47 56
-27.51192251805589 80.20933227380105 -18.837798952591527 103 68 85
-27.396030473959488 80.31850937372404 -18.856342120118075 106 72 92
-27.2712694189342 80.40234782981865 -18.86896151068332 109 75 98
-27.146322007573968 80.48630261530614 -18.881597811205943 106 72 96
-27.02119269806869 80.57038846625741 -18.894254435051955 102 70 93
-26.895878546399295 80.65459813424852 -18.906929669220435 101 71 94
-26.778870837771276 80.7646818030966 -18.925619866919547 105 74 98
-26.664438991902472 80.88360820442863 -18.946353834928868 106 75 100
-26.552555007701603 81.01144395083234 -18.969144821669786 107 76 101
-26.44599880588985 81.15692022477805 -18.99602153091194 104 75 99
-26.34473061104829 81.32022172344074 -19.027022411785637 99 72 95
-26.245910874078486 81.49279754207777 -19.06015534722303 101 71 95
-26.146735481079517 81.666005696651 -19.09340997647934 102 71 95
-26.049985184767777 81.84863915825373 -19.128828506549194 103 73 97
-21.24275022314951 85.96144595231713 -19.807369769078814 103 73 97
-20.922764947692038 85.30178983625704 -19.649116780980947 104 74 97
-20.605553771404036 84.64320230876585 -19.491222330983724 106 74 98
-20.262590890440837 83.86710344511013 -19.306552239937318 108 76 99
-18.92718885993766 80.79315490643299 -18.576158238805743 103 71 93
-18.61318404615286 80.07909321497324 -18.406319598161957 103 72 90
-6.669403947903446 85.52876609974177 -19.052930482548874 116 76 95
-6.535706401963988 85.73870620687353 -19.092626282067783 125 76 92
-6.4021268294516 85.95886788972284 -19.13455500405682 128 76 90
10.99092586829875 94.09088013141744 -20.11888358907681 98 96 115
11.139380767264166 94.04157452685077 -20.101413730784774 100 97 119
11.29016252154888 94.01391494511853 -20.088555767856064 103 100 122
11.430393108306381 93.90015213214531 -20.057411356284188 105 101 124
11.568900114036836 93.77600671787673 -20.024082349115723 109 104 126
11.709613598113181 93.67364200613768 -19.99540004078667 109 102 123
11.852621594447527 93.59291016504886 -19.971328226658834 105 99 118
23.25919928839556 98.05836718764358 -20.427784143797776 116 112 138
-43.57590622937661 70.26693374113817 -17.532904405334722 71 68 79
-33.65801356494348 75.15610258985575 -18.154679924128438 72 49 61
-33.560482126077815 75.2702667423916 -18.175309623989897 74 49 60
-26.886169443763954 80.62958303348728 -19.04821120029456 100 72 94
-26.769189497860616 80.7396083741453 -19.06704525758794 102 73 96
-26.654783063715982 80.85846915122957 -19.08793729882585 103 72 94
-26.540108056542582 80.9775993519471 -19.108876274900656 105 74 98
-26.427971550029806 81.10566373892655 -19.13189332894182 107 75 99
-26.329534776667916 81.27745643897224 -19.165139645387114 101 73 96
-20.983948368277247 85.55817186505065 -19.861701293080063 102 75 97
-20.667577781205576 84.90494360552374 -19.703800352639337 106 74 97
-20.334030100811173 84.1699333835361 -19.527153296524926 107 74 98
-18.99134087362299 81.0740013276063 -18.785936774397033 103 71 90
-18.662141192374786 80.2964156986091 -18.600136400906322 108 70 88
-8.885803389956504 78.4943590468061 -17.758663064862084 110 78 100
-6.353333680621275 85.32088835634286 -19.142639987476734 130 78 95
-6.220030920471791 85.53897668042256 -19.18446557684102 131 80 96
11.248018215178634 93.64934233620689 -20.169587312788792 102 101 122
11.39420678287892 93.5899653888089 -20.149881327747952 105 102 126
11.540128591297277 93.53068314920488 -20.130208305243592 105 100 123
11.687106076013297 93.48217498859105 -20.112853643885128 109 104 125
11.835184189081017 93.44437875855449 -20.097801643856183 107 103 120
11.974964468736738 93.34288677044312 -20.069137378269453 103 97 117
12.113002592094265 93.23107094524453 -20.03828493891023 107 99 118
16.231169525507028 98.04552047146946 -20.908031656983315 120 112 135
-43.5329419689395 70.1995305578776 -17.65018566223244 80 78 90
-43.07358133270138 69.68868304157178 -17.516030736265424 80 77 89
-33.67038335521309 75.18707590607305 -18.301822157928708 77 54 66
-33.569455409499845 75.29371170841776 -18.320797556673888 78 51 62
-33.46494478267009 75.39296588001343 -18.337974587166833 94 56 68
-21.01521673838775 85.69205103743113 -20.046709776876536 105 77 102
-20.70266056612862 85.05552839428225 -19.891469327334455 107 75 102
-20.37931342285994 84.36403044812458 -19.723564360902497 107 75 101
-20.05267047190786 83.64770870494331 -19.550013133123763 107 75 99
-19.05593642501164 81.35678945970757 -18.99716516298323 103 69 89
-18.719137269842435 80.54852326682294 -18.802794930261843 116 72 93
-8.808359183908722 77.81917361467173 -17.74398333385827 110 77 100
-6.170177879300039 84.87096273341542 -19.183969032791424 131 83 98
-6.0378528702037215 85.09597163664755 -19.227707605084955 130 81 98
7.583198272750214 94.15143667878762 -20.6074193804543 133 84 101
11.354419344139822 93.2499657298341 -20.23487083399044 106 103 129
11.50502849192573 93.23360185748957 -20.224339627090007 105 101 126
11.655501672182531 93.21725394220378 -20.213818189692326 106 102 124
11.807166777439805 93.21150943360882 -20.20558927890914 109 105 121
11.950665902856834 93.14229214771329 -20.183684430188784 103 98 115
12.091158025289326 93.05210439765912 -20.157275432957988 104 97 116
12.23267407907584 92.97266999232401 -20.133199859417573 102 97 115
12.376644935125938 92.91443878902233 -20.113705284914708 105 101 120
16.19820142121429 97.83730474156678 -21.028141241678878 122 113 137
27.7486468939643 88.07039068395382 -18.336256291810543 83 96 99
-43.498414524974926 70.14582564525392 -17.770654532785272 93 85 90
-43.08072672816282 69.70268891740527 -17.65251906847449 88 80 84
-42.790182604363146 69.46431279967857 -17.58593058014074 90 80 86
-33.57506585144153 75.30956818699015 -18.46452152817972 80 52 62
-33.46717487009328 75.40122924256953 -18.47998904592148 95 57 66
-21.03259586252091 85.76905152923307 -20.21886462289451 109 76 99
-20.72646655382091 85.15958871884825 -20.068774647325913 109 77 101
-20.09484710200467 83.83024736071826 -19.743069441256306 110 79 98
-19.777044864547474 83.14114624081785 -19.57467491750915 113 81 102
-19.116952879502897 81.62426394586019 -19.20581875959484 107 69 89
