ply
format ascii 1.0
element vertex 727
property float x
property float y
property float z
property uchar red
property uchar green
property uchar blue
end_header
-59.00661351411708 216.55975140310736 71.39684564338872 135 107 121
-58.62982175431481 216.55714715588698 71.40336360836483 130 103 117
-58.12901487822377 216.08698980751706 71.25614652877819 129 100 113
-57.6303557534554 215.61883610824975 71.10955657341873 132 104 116
-57.133838019334455 215.15270131261954 70.96359896214244 139 112 127
-56.669402100009286 214.8037605639608 70.85615610510574 137 110 125
-53.707655605580364 214.89841124341248 70.94584156946303 139 108 125
-53.39015728558754 215.12682635678195 71.02835934840222 142 113 129
-53.086043341364324 215.41368244618508 71.1301344702765 145 118 134
-52.767109483397846 215.6432044279312 71.21305009924141 136 115 135
-52.43356621592954 215.81502659301734 71.27697995806368 81 72 98
-51.96143204026828 215.4059095430398 71.14958865652551 78 59 81
-51.47745609835419 214.94059575956604 71.00365936158238 119 94 115
-50.995552692017505 214.4772851053311 70.85835849199255 125 98 119
-50.52900066904832 214.07317864872905 70.73253132032612 130 99 118
-36.865380686175584 212.50278758176844 70.47591202093594 120 95 116
-36.50487058299855 212.55668612789583 70.50098315234335 113 88 109
-36.14416950672968 212.61061395108112 70.52606780696598 89 70 89
-35.77396869948395 212.60805525812097 70.53247175777696 94 81 103
-35.41297834835718 212.66201167893826 70.55757163609647 105 93 115
-35.060918843564146 212.77257307195498 70.60140293773048 89 75 96
-34.708483550923226 212.88323895714316 70.64527650874037 83 69 87
-34.364626601755596 213.05076745261107 70.70797446789634 81 68 81
-34.011353828114835 213.16173351937894 70.75196472265016 80 66 77
-33.72804018667848 213.72864997514543 70.94687450232597 70 56 66
-33.44321350043978 214.29860037422986 71.14282731077479 64 47 58
-21.310727169585665 216.1239669003331 71.99039815779382 75 51 66
-20.945174821115856 216.23824436152447 72.03573521305735 70 42 51
-20.584602559818215 216.41118008432056 72.10056697042758 73 38 45
-20.223447907412066 216.58441775178463 72.16551099884711 63 30 35
-19.86170656329702 216.75792673719818 72.23055715305965 62 27 31
-19.49937709124598 216.93170703063456 72.2957054579099 69 34 36
-19.156493059109867 217.34181522127665 72.43940797704677 72 34 39
-18.817234702098833 217.81277529591023 72.60336444254901 71 34 39
-18.4813508120841 218.34539633862497 72.78785002070352 70 34 41
-16.97314515468128 218.51387279680353 72.87369414437714 73 39 46
-16.583771663414293 218.3918839085096 72.84058333778215 74 40 48
-7.741923248365631 215.56422265040595 72.06948423148248 125 83 97
-7.3536467021423935 215.15548631331566 71.94057588373057 126 82 96
-6.968516187125892 214.8059769043957 71.83138813802346 126 81 97
-6.586207740190035 214.51514143863383 71.7417426447543 121 76 93
-6.204921494709513 214.22509326131 71.6523400699352 117 77 96
-5.823275147712254 213.87857584213472 71.54408335915463 119 84 106
-5.44539830572015 213.64731275689715 71.4742486454781 120 87 109
-5.069500720381397 213.4735551038295 71.42358241696286 119 88 110
-4.6952770574313 213.357010101127 71.39199286877938 118 85 109
-4.320477882474363 213.18370369628852 71.34145582425066 112 78 100
-3.9454036891581072 212.95392863766233 71.27206317194214 99 59 79
-3.571125891499411 212.72463333684394 71.20281514769869 107 62 79
-3.1969697478591605 212.4393463773041 71.11486305838835 131 83 98
-2.8243767341136476 212.21113361589778 71.04594357753558 139 89 105
-106.09881725478938 213.82749659955095 69.1902617256022 119 105 128
-105.50426743557813 213.3697316577986 69.04980877034683 106 95 118
-104.8294858803055 212.74444659548283 68.85526543991689 102 87 108
-104.10402515381018 212.01059112069942 68.62564008422926 116 93 114
-103.4105341769024 211.33746136459857 68.41556583495992 127 103 123
-102.69466434742822 210.61321831447356 68.18894650003033 126 104 123
-102.14262857981433 210.2241152932357 68.07047502511419 126 104 123
-101.61896138301611 209.89136838495895 67.97017331723845 120 97 119
-101.0969301198006 209.55965776940155 67.87018388581113 119 94 116
-100.57652944421129 209.22898340961424 67.77050682330972 114 91 111
-95.76064022811656 207.41491504663588 67.26210767759245 115 89 104
-95.13201586900766 206.82369704407517 67.07797947778258 119 92 106
-94.60335795007765 206.44829459278705 66.96360224944922 118 92 107
-94.12453268015204 206.1802787344239 66.88393028201696 110 87 104
-93.64693188843393 205.91294446417317 66.80446079455334 98 75 90
-93.17055206414594 205.64629175776963 66.72519384778984 103 76 92
-92.88393596632045 205.80225036604452 66.78263107185576 113 87 103
-92.71482876242715 206.2234215797774 66.9258888616452 119 94 109
-92.52140426661498 206.59305304774418 67.0524978510767 118 92 107
-92.35089976800495 207.0174884389457 67.19686762132204 116 92 106
-92.13246788756658 207.33634030621087 67.30709390905967 118 89 103
-91.86622721580204 207.5486303783349 67.38284933671602 117 86 97
-91.62295253809167 207.81523514617763 67.476202086443 123 92 103
-91.37904521265686 208.08252396465033 67.56979452501353 121 90 104
-91.13450164892986 208.3504968089363 67.66362671453935 122 92 106
-90.88933149255018 208.61918434229204 67.75770865460595 115 87 102
-90.64351781035563 208.88855585109238 67.85203047169166 121 95 110
-90.42042809147354 209.21323477193695 67.96428420698398 123 98 115
-90.21999045586821 209.59372545174145 68.09463885018933 123 97 116
-90.08892921871154 210.14080451947322 68.27898699020983 126 100 119
-65.90556940630485 217.01459099198212 71.0368416891037 126 102 118
-65.4930208876652 216.89443228352997 71.00500005907399 118 93 112
-65.08091660594931 216.77439903183878 70.97319141013898 116 91 111
-64.68653328170284 216.71312662442574 70.96056019866343 115 93 113
-64.2580471807158 216.53473953975276 70.90968311080901 112 99 117
-63.84727619040168 216.4150979606523 70.87797847833464 90 76 93
-63.42004122740806 216.23717847222906 70.8272322441823 108 81 91
-63.027062873332405 216.1762064430562 70.81467330990172 109 79 88
-62.68437835112628 216.29038034144472 70.85932524323457 114 84 95
-62.34132781648512 216.4046893947408 70.90402925705169 125 95 106
-61.997906220516384 216.51911826975376 70.9487803554711 115 85 96
-61.63765803641676 216.5750678513474 70.97443004307816 118 88 98
-61.29357697204131 216.6896757478913 71.01925354801759 125 97 105
-60.932850359838994 216.74572911082709 71.04494709429969 126 95 106
-60.571928624527 216.80181172173243 71.07065418237728 130 100 113
-60.21081160652452 216.85792357950442 71.09637481501085 125 95 108
-59.8494991462508 216.91406468304004 71.12210899496095 125 96 108
-59.487991084125014 216.97023503123634 71.14785672498812 124 96 109
-59.1262872605664 217.0264346229904 71.17361800785282 126 98 109
-58.73298186975092 216.96501668291333 71.16091731744511 120 94 105
-58.21548110698277 216.43455133953609 70.99479814485791 126 97 110
-57.6851536673215 215.84846453318173 70.81044876447783 124 94 106
-57.17282160994293 215.32340461544138 70.64602439106078 130 102 116
-53.729622850532614 215.01095825752034 70.60967665544035 139 108 125
-53.42612825686637 215.29750883747772 70.71083689137764 133 103 123
-53.107728187724334 215.52677137073562 70.79325389196319 142 114 133
-52.80266540527334 215.81471855505401 70.89490891165565 136 116 136
-52.45493891613097 215.92853634101783 70.93954131625647 84 77 102
-51.99629847844839 215.57703951416838 70.83173529535055 75 56 81
-51.52549150567787 215.16880901149003 70.70531657201958 117 91 113
-51.056451280653185 214.7621205493951 70.5793756085203 131 102 124
-50.6025000463479 214.4143583199201 70.47271861043437 131 103 126
-36.88778831866613 212.66938608294447 70.16165197387426 120 95 117
-36.517489369235115 212.66682671166132 70.16805762240635 110 85 105
-36.147190419804105 212.66426734037816 70.17446327093843 89 70 89
-35.77689147037309 212.66170796909503 70.18086891947053 89 75 94
-35.406592520942084 212.65914859781188 70.18727456800262 109 95 114
-35.06365506394592 212.82631404075613 70.249539153289 88 73 90
-34.72016963642219 212.99373576733743 70.31189963244321 79 62 77
-34.38509995102922 213.2182477030015 70.39306477795786 76 58 72
-34.04043253691118 213.38628849020415 70.4556541158589 74 58 68
-33.75689588689774 213.95441973929613 70.64998511897493 66 48 58
-33.480620605159615 214.58313652834005 70.86430481503038 68 49 58
-21.34325648162801 216.53067744734966 71.74925477391054 80 53 68
-20.977030474249112 216.6453923571337 71.79454776982153 73 46 59
-20.615802330797774 216.81899434993906 71.8593094598204 64 36 45
-20.264598647150063 217.1107072698547 71.96311987182847 58 28 32
-19.907224031906118 217.34412163242533 72.0476801277693 58 26 30
-19.549072960845887 217.5780354721408 72.13242156158194 76 40 44
-19.205257583412124 217.99059479207574 72.27624127705876 84 42 49
-18.86508929696861 218.46438779636185 72.44033586907574 84 41 49
-18.52343480788528 218.94025109663295 72.60514748831467 83 40 49
-18.180284483622078 219.4181999246071 72.77068138462562 81 40 48
-17.3974496597325 219.17236125673196 72.70433542412826 82 39 47
-16.997747567007142 218.92970610287216 72.6315397215359 82 40 47
-16.598917430323855 218.6875771176734 72.5589017648404 81 40 49
-16.2306523755762 218.86451139703723 72.62490857523726 80 39 48
-8.514256599528945 216.3248843351336 71.93226120463777 82 48 59
-8.12316359470746 215.9132731245974 71.80315715458772 84 51 62
-7.735444676007078 215.5613179871509 71.69380913194313 88 52 66
-7.348975314305136 215.21050355999247 71.58481565206083 91 55 68
-6.963749157466037 214.86081450092382 71.47617174160305 92 57 69
-6.57817681306648 214.45470293837738 71.34878690172273 94 59 73
-6.1955239613959145 214.10743349731922 71.24089654237352 97 63 79
-5.814096255362183 213.76128929953205 71.13335606484793 101 69 86
-5.4364305929607895 213.53027547274127 71.06399666190522 102 70 87
-5.063084274434574 213.4706782949065 71.0515098620304 102 71 87
-4.689936784573314 213.41111308789226 71.03902978914209 104 72 89
-4.316987702327318 213.35156455049378 71.02655136730314 107 72 89
-3.9424904392657893 213.17826249173717 70.97630598082633 106 68 83
-3.568590720775958 213.0052552305895 70.92614683886634 104 65 78
-3.1946137304529723 212.7758426229062 70.85724719884249 114 74 89
-2.8220035860331416 212.60347150490577 70.80727416112258 122 81 98
-2.448564465006973 212.262094396064 70.70116112434418 122 81 98
-105.66507994709447 213.70808248984915 68.78862973749247 107 98 123
-104.96110857320478 213.0241957759801 68.57636448465902 105 94 117
-104.26159696692582 212.34463865030705 68.36544299327589 115 92 113
-103.53942585465134 211.61352332059366 68.13792324918651 120 95 116
-102.848982008016 210.94287116526093 67.92976762248892 121 98 119
-102.26918294588825 210.49726907610017 67.7938330462057 123 101 120
-101.74462775208988 210.16364839502353 67.69383084361061 123 100 119
-101.1954788207451 209.7761767254654 67.57651041198089 122 97 118
-100.67438628001726 209.44482879653762 67.47719163294951 115 93 114
-100.23262625838119 209.27828480102218 67.43079340064895 113 89 109
-97.68709718546745 209.26069103247477 67.47482745636086 111 86 102
-95.22314613442292 207.0346012893778 66.78726990429858 104 78 91
-94.71797172021748 206.71174673526164 66.69044678980303 108 79 92
-94.23838082899512 206.44304067441473 66.61102085815892 109 81 97
-93.76002369972063 206.17503155502953 66.53180113190167 113 86 101
-93.28288985821332 205.90770400662012 66.4527827356037 111 82 96
-93.01966672042919 206.1170442709608 66.52713259611251 117 87 102
-92.82689598184955 206.48630819352024 66.65296378280162 117 90 105
-92.63342856095979 206.85689823488727 66.77924694671195 117 94 107
-92.4392642932213 207.2288296920168 66.90598714730592 108 85 98
-92.22074195323646 207.5483345120723 67.0158753074871 113 84 97
-91.97792565999623 207.8149388973625 67.10875356298803 117 87 96
-91.7344778952477 208.08222733230107 67.20187028977877 120 89 99
-91.49039506842301 208.3501997920713 67.29522554997102 123 93 106
-91.26920749326092 208.67320475219978 67.40632283666027 124 94 109
-91.02382235881616 208.94271331820713 67.50021134316135 121 93 108
-90.77780398755878 209.21293651784606 67.59434846472173 117 89 103
-90.5311420648889 209.48385898173365 67.6887293231533 125 99 115
-90.33065049698958 209.86535390877512 67.81875453201727 125 101 117
-90.17626211259321 210.35861408589895 67.98481966933846 127 103 120
-64.59639350099694 217.7091651411473 70.91539792291084 116 101 120
-64.166002316424 217.5291303151039 70.86431780730322 103 92 109
-63.73631109197798 217.34939099068148 70.8133216590807 103 79 91
-63.32426636710341 217.22885486451278 70.78154890277993 120 91 100
-62.963212227604764 217.2851958525936 70.80724237473378 117 85 96
-62.60195786245163 217.34155075487996 70.8329443669246 120 89 99
-62.22384011927617 217.3389373429461 70.83948526953922 117 86 97
-61.48407157079738 217.39272198752548 70.87175019204739 115 85 95
-61.10585142994894 217.39010786785624 70.87829286599707 124 93 104
-60.72763128910051 217.38749374818704 70.88483553994674 132 101 113
-60.34941114825207 217.38487962851784 70.8913782138964 137 107 120
-59.97119100740363 217.3822655088486 70.89792088784608 130 101 111
-59.60892996020511 217.4386746456846 70.92366052067813 123 95 106
-59.230607395086885 217.4360598180962 70.93020496642292 115 85 94
-58.820780430697106 217.3154166355415 70.89835339307093 116 86 92
-58.30223118565645 216.783252930516 70.73260736229176 123 92 102
-57.786194190931674 216.25366137064614 70.56766232802313 124 94 105
-57.25744580759147 215.66852637006147 70.38460694940605 124 94 104
-53.44798444919643 215.41047655995172 70.37391268325554 133 104 119
-53.129439558183925 215.6399950964307 70.45601562397185 135 105 122
-52.810207087676524 215.86999841956145 70.53829227055738 130 112 130
-52.47634130140482 216.04219619876417 70.60174849684954 80 75 99
-52.00361967198186 215.63221383998595 70.47549071703526 79 62 85
-51.54632038534853 215.28166407637622 70.36857570976976 123 96 118
-51.09048718281891 214.93222590844366 70.2619994176812 131 106 127
-50.63612143751094 214.58392994186318 70.1557719302488 132 107 129
-36.90061738027048 212.77964751712807 69.82837068196204 120 96 116
-36.530121986888126 212.77708678809597 69.83477972869689 111 86 105
-36.169045239068666 212.83113290608603 69.85971509932584 90 71 90
-35.798451543920244 212.82857149762796 69.86612584654232 85 71 90
-35.43708238594382 212.88263089267787 69.89107133206986 97 82 101
-35.084662528406355 212.9934315736374 69.93459677004392 94 77 96
-34.74092076737256 213.16112464696587 69.99675741807042 81 64 79
-34.39663112944333 213.32908929922874 70.05901856268302 83 66 76
-34.05179217839155 213.49732552049926 70.12138022872638 74 56 66
-33.768132733435685 214.06604500138116 70.31491914373215 71 50 59
-33.49174010951573 214.69541045109244 70.52836160942533 70 53 59
-21.37030591284624 216.8800938229553 71.48786055510011 80 48 59
-21.003500020097306 216.99518562534834 71.53308609997784 75 45 55
-20.64711936090792 217.22834366830867 71.6171329831242 62 34 41
-20.289966268521887 217.46201650762734 71.70136515322112 56 26 30
-19.937270956445683 217.7554745056393 71.80527135255416 61 25 31
-19.57847115041842 217.99028332038907 71.88991125467842 90 46 54
-19.234055671089543 218.40440870450695 72.03354058603762 107 57 66
-18.888324198512954 218.8201159945485 72.17771857029598 107 58 69
-18.54126967957936 219.23742043985743 72.32245038607849 106 58 69
-18.197688261804483 219.71667556720917 72.4875913041429 106 56 68
-17.81020796683409 219.6536770671789 72.47435592834069 104 57 68
-17.409178701373285 219.40996034697534 72.4016514641393 103 56 66
-17.009025951009292 219.16676982005933 72.32910376241324 103 54 66
-16.614104240981554 218.98407350856917 72.27644931795875 102 55 68
-16.241089742373465 219.10144770935764 72.32255086859318 101 52 65
-8.51411421155266 216.49774261592378 71.61324332350726 74 36 42
-8.124717291541439 216.14389883802508 71.50390977369267 75 36 42
-7.738483857853213 215.84946411891883 71.4141512837844 74 35 42
-7.351490135395952 215.49771749158464 71.30546386183957 73 36 42
-6.965742829128489 215.14709623975529 71.19712401163225 74 36 43
-6.581236114351973 214.79760032317265 71.08913183392153 73 37 45
-6.1979641663676555 214.44922970157845 70.98148742946644 73 38 45
-5.8145441550670895 214.0446375677817 70.8552625220836 72 39 47
-5.437648756387966 213.870235028817 70.80499648092105 72 39 48
-5.0637044223978425 213.81045089522146 70.7925585018094 72 39 49
-4.6899592668715115 213.750683436367 70.7801221338079 73 40 49
-4.316413732038922 213.6909632514946 70.76769748249882 76 42 50
-3.9421925133181603 213.57417651262756 70.73642334146608 77 42 50
-3.568370047326965 213.45751491453154 70.70518275550353 78 45 51
-3.1942713768642537 213.28404959106436 70.65517173186184 81 46 56
-2.8213439319177995 213.16768484277924 70.62401173900615 82 48 60
-2.447863210715331 212.93792681104804 70.55538167842107 84 51 63
-2.0740504023290103 212.53893898811108 70.43082107503714 86 52 65
-105.82639857077527 214.0474986707755 68.52661126323311 103 94 117
-105.1485212584189 213.41823118809532 68.33297227263672 104 92 116
-104.44712483781166 212.73617640924257 68.12243688976393 112 90 111
-103.75016686369909 212.05843571643788 67.91323313126333 118 91 110
-103.0306859719227 211.32924552917316 67.6875533587988 119 93 112
-102.44944255425527 210.88201772537812 67.55187855490972 116 91 111
-101.92364406869861 210.54718428534147 67.45207437636327 116 92 112
-101.37316229844141 210.15830107581127 67.33498148320358 119 95 115
-100.82469191807215 209.77083917412963 67.21831655690063 124 102 123
-100.38212667886106 209.60378694669345 67.17205058667732 122 101 122
-99.9920085675891 209.54647712625282 67.16084193759175 116 92 112
-98.5355245997628 209.5364104402756 67.18603705198474 114 90 106
-98.22226556212844 209.64348753862743 67.22737530288057 109 81 97
-97.90868343645178 209.75068478703037 67.26875938283507 111 81 97
-97.34235295149281 209.31001576545358 67.13494927114404 111 82 99
-95.38775166600514 207.40684974313265 66.5474339687898 106 77 91
-94.88140767050717 207.082828692468 66.4508042030954 106 75 88
-94.4248713493189 206.8665430801931 66.3886235158596 113 84 98
-93.94528584835936 206.59742752605072 66.30952321721422 115 89 104
-93.49077069134418 206.38215024615795 66.24763451744295 114 90 105
-93.20336753718064 206.53923127779964 66.3049082455988 116 91 105
-92.98675704528394 206.85660335863224 66.41350086102835 118 94 108
-92.79323054803484 207.22853428349964 66.53958087692052 110 87 100
-92.57525669067086 207.54803864580967 66.64890127825815 102 77 92
-92.35660537994961 207.8685326886417 66.75856034933001 109 79 90
-92.11359100366701 208.1359735380506 66.85125211719851 117 85 95
-91.86993551261169 208.40408306345617 66.94417629595327 118 86 98
-91.62565540714596 208.6729072725721 67.03734769019587 119 89 100
-91.38073364955515 208.94241545186046 67.13075653463166 119 91 103
-91.11162931761535 209.15803030127992 67.20691830298784 121 94 107
-90.86546854534517 209.4288149396881 67.30077110159395 117 91 105
-90.5951959584984 209.64544667316773 67.37729008988065 119 91 106
-90.39466288492 210.02753286358546 67.5068463273226 124 98 114
-90.21684078855147 210.46627113077068 67.65458552947935 123 97 114
-59.71436810851723 217.84987235089758 70.67931399848572 122 94 105
-59.335326897912225 217.84725255629368 70.68587087578187 116 85 94
-58.92466619597866 217.72616153167826 70.65409273658088 119 88 94
-58.42050822558999 217.25092065214238 70.50769846190062 123 91 101
-57.90306879008295 216.7190469755183 70.34294301523731 117 86 97
-57.388140139845056 216.18976069800107 70.17898917747156 123 92 100
-56.90592430934054 215.77928976075657 70.05346210341996 130 99 109
-53.151173722223874 215.7533382941299 70.11841398249952 128 98 115
-52.81775636160559 215.92532269264106 70.18148855285921 129 108 129
-52.46985749707324 216.0392891897578 70.22577000917475 86 78 104
-52.01094466553681 215.6874172531151 70.11905447016058 85 63 87
-51.5535079864472 215.33667226505005 70.01268058663574 123 98 119
-51.0975452202569 214.9870695079735 69.90665342735275 123 99 122
-49.213699919222854 214.91640660782227 69.92028820548886 127 98 115
-36.19093320641333 212.99825427745336 69.54446220019993 87 69 88
-35.82938313221397 213.0524187587681 69.56934766820694 90 76 95
-35.46763852361627 213.10659719342178 69.59424153139564 92 74 93
-35.114860835247235 213.2176386687284 69.63765671229258 99 82 100
-34.770775778772794 213.38567896991464 69.699643225802 79 64 79
-34.41715821476908 213.4970205981018 69.74317353559086 75 58 69
-34.06316171486338 213.60846669245035 69.78674561051594 70 50 59
-33.77938161471034 214.17778970200828 69.97949535524984 73 51 58
-33.4940820732529 214.75016178768823 70.17327738647418 72 53 61
-33.207251749422134 215.32561346688436 70.36810196039643 67 49 59
-21.403063299557413 217.2896763342418 71.2449159091708 61 30 37
-21.03557866973423 217.40520552745224 71.29009450282621 60 31 37
-20.673123416202507 217.58003350669478 71.35467235998955 55 26 31
-20.32075700463806 217.873811117432 71.4581639139298 55 25 28
-19.962179442781544 218.10887839184588 71.54247281783135 64 28 33
-19.602820921158408 218.34446039680148 71.62696625162476 99 54 61
-19.252816050941977 218.70011899572293 71.75075832080498 116 67 79
-18.906648455206007 219.1169650796301 71.89459399659769 119 68 83
-18.554253655059316 219.47514660992283 72.0192623900999 119 68 83
-18.205511172345837 219.89497328353758 72.16412849005562 117 67 83
-17.817709386524793 219.83186627459594 72.15096836743727 118 67 85
-17.416342285996173 219.5877526631892 72.07855798941287 117 66 80
-17.020329789016433 219.4043627894117 72.0260090399954 117 67 82
-16.620602242286086 219.1611783833867 71.95387210069819 118 68 84
-16.24728536824434 219.27874777925564 71.99983566550274 118 67 83
-8.911651627295605 217.20334025262684 71.4609996786903 94 46 55
-8.518219175611733 216.78838875643532 71.33226178381597 92 44 55
-8.130306976232905 216.49221763430552 71.24247134575985 90 44 51
-7.7434407920586805 216.19683393422756 71.15291934370619 88 43 50
-7.357617027104807 215.90225292923708 71.0636108698719 87 42 49
-6.972831085541704 215.60845928967962 70.97454097374687 84 41 49
-6.5874870166956025 215.2574782807359 70.86667854939074 81 41 47
-6.20338284093812 214.90762258743138 70.75916186747698 80 40 46
-5.820512733570403 214.55889216950783 70.65199102876463 77 38 43
-5.441426157076262 214.32616120401954 70.58288725761274 77 38 44
-5.066680959919447 214.2661275259543 70.57048212670709 77 38 44
-4.692135791865304 214.20611052830697 70.55807856559217 76 37 43
-4.317791094226456 214.14614080990725 70.54568662665689 76 36 41
-3.9436461597222983 214.08618777008718 70.53329626211318 74 35 42
-3.5689247678102016 213.9689860426308 70.5020935663776 74 36 41
-3.195279395064322 213.90912824293778 70.48972474019055 73 35 42
-2.821257221172528 213.79211492289812 70.4585703091095 72 35 42
-2.4471574911567147 213.6180858317918 70.40867036672213 72 36 41
-2.0729036891571124 213.3303923550957 70.32140010400332 72 37 39
-1.69964490053611 213.043455352166 70.23435909952345 73 37 40
-1.327377263341473 212.7572900942 70.14755245010032 73 37 43
-106.01632925744855 214.44534187342921 68.28195929902516 100 90 116
-105.33663718324702 213.81374486581086 68.08867739589029 103 90 112
-104.63333858229596 213.12916178438198 67.87852708822021 108 87 105
-103.93449451758565 212.4489081412029 67.66970568071214 115 88 104
-103.24007515338356 211.77296843237264 67.46220868607517 115 88 106
-102.65716987662185 211.32386869056577 67.32672300274831 111 85 102
-102.0767103097863 210.87665217045964 67.19180542773994 111 84 99
-101.52508481186928 210.48655763521447 67.07500674122863 108 81 98
-100.97547486393734 210.09788441794356 66.95863350198736 115 90 110
-100.55818549049887 209.98530055064938 66.92997258744016 118 97 116
-100.1673086905717 209.9277873393176 66.91880699671854 116 96 115
-99.80252203395034 209.9252660669919 66.9251172903748 112 87 104
-99.41194552672115 209.86778552654823 66.91395651182769 108 81 96
-99.07294872070756 209.92022352234054 66.93773787768731 108 83 98
-98.75939653608258 210.02769488858863 66.97902130476251 105 82 96
-98.41996611381438 210.08022167350705 67.00284019201207 109 85 99
-98.10583181435672 210.18787258863685 67.04419372973426 110 84 99
-97.5126253120817 209.69048333827405 66.89311550444573 111 84 99
-95.04543397165178 207.45525106123253 66.21029542156326 116 88 102
-94.61213401539996 207.29179880830196 66.16531016331902 106 77 90
-94.15540294352262 207.07507103788063 66.10335840144357 107 77 89
-93.69961410561682 206.8587934127674 66.04153543905257 110 82 94
-93.41170433784606 207.01660312657276 66.09878145983745 106 81 94
-93.17105225339864 207.2818385767539 66.19023884131708 103 77 91
-92.92977142810527 207.54774277954706 66.28192724902922 109 85 99
-92.71167029898366 207.86823636321574 66.39101680256879 101 79 91
-92.46911574476866 208.13567682887236 66.48323258808999 98 72 80
-92.22592122585885 208.40378596956586 66.57567959400046 116 85 92
-92.00582238788446 208.72695813875723 66.68568430469765 122 91 101
-91.7613365005007 208.99661871808328 66.77866399696343 120 91 101
-91.49255577972927 209.21234000966427 66.85447698019723 116 86 97
-91.22321698826588 209.42851637468195 66.93044971947292 114 85 96
-90.9533177323986 209.64514779659189 67.0065822561983 115 88 100
-90.68285561841572 209.86223425884958 67.08287463178121 117 91 103
-90.4587765358518 210.1899682242199 67.19444921716048 122 95 110
-90.28094773953147 210.6293890179503 67.3416485403105 121 95 110
-59.028944384938534 218.13845857440035 70.40889946985112 107 77 83
-58.52360454986182 217.66142594064667 70.26276067372125 118 89 95
-58.02044822204221 217.1864429909043 70.11724955912162 119 90 97
-57.50412160571678 216.65487465388154 69.95348869015294 119 89 96
-57.020647623329026 216.24264117528583 69.82811604330732 119 90 98
-56.65944764990096 216.29845947663983 69.85343727958458 125 98 106
-56.29805669383663 216.3543223510533 69.8787768298123 131 102 111
-52.47732071517361 216.09470157519377 69.86859322445153 94 81 110
-52.01827345636127 215.7426497523219 69.76242639514662 84 63 89
-51.560702954836465 215.39172486742777 69.65659926873255 122 97 119
-51.118124846540965 215.0997232120008 69.56975089470228 121 96 120
-49.28538198354347 215.2603328653587 69.65812834642722 100 71 88
-48.7945123035587 214.73795081519117 69.4968741151094 125 94 106
-35.86037928676216 213.27673470010708 69.27193582287404 90 78 95
-35.507526931773306 213.3879424319732 69.31520997997148 96 81 99
-35.15430161020116 213.49928526521563 69.35853561952602 93 77 95
-34.79160732496361 213.5537011488908 69.38342739525632 72 55 70
-34.43771611451963 213.6652076543121 69.42681959122343 76 57 69
-34.07454113669472 213.71971200173897 69.45174970269773 78 56 68
-33.78179259247688 214.23225693692376 69.62511343731403 76 57 67
-33.49642291881535 214.8049268900391 69.81799790686448 75 57 66
-33.20078535090667 215.3227142617631 69.99313278948779 70 53 63
-32.91239300313496 215.90125293285237 70.1879958586923 66 49 58
-32.54499457475494 215.9569366066229 70.21339429903928 63 44 50
-32.168912949464016 215.95433726759325 70.21989997969187 69 48 55
-31.80121524216069 216.01004946823153 70.24531360395513 68 45 55
-31.4250323362623 216.00744942918726 70.2518210366191 71 48 58
-21.792242652419485 217.46663183205888 70.91748448463409 64 28 34
-21.430306184037914 217.64156813371892 70.98177999090422 60 27 33
-21.0622372858656 217.75747416818783 71.02688844246755 56 26 31
-20.70466087999299 217.99228515756928 71.11068185368121 52 24 27
-20.34630621163262 218.2276108892511 71.19465884357136 53 23 26
-19.98717056791108 218.4634513444829 71.27881945906678 64 30 34
-19.627251235954937 218.69980650451427 71.36316374709642 103 58 65
-19.27671167851792 219.0566192928592 71.48672259072721 121 72 84
-18.920025423656114 219.35443231077485 71.59110463327494 125 74 91
-18.56726675259773 219.71340203300667 71.71541234821777 124 72 91
-18.213346353878453 220.07355694540684 71.84013042514704 123 73 90
-17.825223769269694 220.01035673285895 71.82705091961212 122 73 91
-17.428114149261216 219.82625797353657 71.77460496584365 124 73 90
-17.027173875693933 219.58215050638898 71.7026069184427 123 74 91
-16.631480876659584 219.39876523184802 71.65036661585152 124 74 92
-16.257760843086988 219.51659031169936 71.69621326015682 125 74 91
-8.916309299218405 217.49588919934465 71.17889627131837 115 60 73
-8.522335278955131 217.0798226848522 71.05051941019296 112 60 70
-8.133892881262238 216.78285630285893 70.9609883758575 111 59 69
-7.7484141866244505 216.54534191990382 70.89084430952404 111 59 70
-7.363767251830023 216.3083228117617 70.8208459639421 110 56 68
-6.9782474480686005 216.01344181745185 70.73193983279565 109 56 67
-6.593765151741286 215.71934817606518 70.64327092798959 106 57 66
-6.208824959933911 215.36799212645928 70.53588219203392 104 55 63
-5.82512401600632 215.0177613732527 70.42883726754623 102 52 62
-5.446502274379695 214.8417757881523 70.37868327801941 100 50 61
-5.070851821453997 214.7814612551983 70.36630364569754 99 48 60
-4.694321821303766 214.6634989575405 70.33508639103243 97 47 57
-4.31917428445605 214.6032643889953 70.3227230760077 94 45 54
-3.9442278815676413 214.5430771036765 70.3103712918705 93 45 53
-3.5702607283286762 214.54049237910647 70.31684039514468 91 43 52
-3.1956149165781635 214.4803224690512 70.30448841461248 90 43 51
-2.821747873687542 214.47773843640744 70.31095578611912 87 41 50
-2.446447296876569 214.30261717878622 70.26101953251481 85 41 48
-2.071371526365275 214.0704065060913 70.192406675461 83 41 47
-1.6970966309395916 213.83870619243248 70.12394507682826 81 40 46
-1.3236198828794865 213.60748562358216 70.05562477698848 82 40 46
-0.950861682572022 213.31980625739666 69.96882447235342 81 39 45
-0.579138162655793 212.9193594920669 69.84512115340978 80 39 46
-0.20867498902661638 212.57694556556663 69.7403739546967 80 39 45
20.97165801992542 196.08659754665663 64.76115385365206 117 64 75
21.31383585548102 196.08423253825626 64.76707304665383 113 66 81
-106.17877091087689 214.78711809603365 68.01821849493719 111 105 127
-105.52544872025477 214.21072140000473 67.8434672676234 101 92 112
-104.8202455370262 213.52361006621393 67.6337108562232 109 91 106
-104.14690989295084 212.897358218932 67.4431312258293 112 88 101
-103.45035700358189 212.21858261208794 67.23591762662517 110 82 97
-102.8388589666911 211.7116655130531 67.08295297745312 110 83 97
-102.25694814835309 211.26280799755133 66.9482987775889 104 80 94
-101.70397806531734 210.87128661554112 66.83173230057011 106 81 98
-101.12672771625971 210.425949138035 66.6981321921025 112 87 104
-100.70870076417908 210.31300978263766 66.66956035173719 111 88 103
-100.36933353586895 210.3656739554283 66.69332750635101 109 85 100
-100.00378315218789 210.36314740449973 66.69965101140613 113 86 100
-99.63823276850681 210.36062085357113 66.70597451646125 116 87 100
-99.29849732145514 210.41331307633772 66.72975799434363 114 88 100
-98.984325466218 210.52129882301972 66.77103067697492 100 78 92
-98.64415413943193 210.5740798180533 66.79485155577464 90 67 81
-98.30379819793593 210.62687483458208 66.81868060495026 97 74 86
-97.7088865279376 210.12741516716426 66.6678179001842 104 78 89
-94.7758391786379 207.6649760545936 65.92403386794878 115 87 101
-94.34229836504048 207.5011877160008 65.87922234216605 106 79 92
-93.90942678512556 207.33764876266372 65.83447886842347 95 73 85
-93.59701861828414 207.44249541745026 65.87469582045982 98 73 84
-93.35610721450459 207.70882696169917 65.9660518471558 101 74 84
-93.09064581766508 207.92187595816483 66.04055309638079 105 79 89
-92.84851180457012 208.1894381484519 66.13233339347816 103 84 93
-92.6057520498155 208.4576996981411 66.22435344792872 90 71 79
-92.362362883043 208.72666058186428 66.31661332322449 95 68 73
-92.14213173281534 209.0508371731048 66.42638410911262 102 73 80
-91.89743825767191 209.32133408788783 66.5191692041344 108 80 88
-91.62838220703705 209.53773898355573 66.5948325091031 111 82 91
-91.33509266786518 209.6997009101603 66.65325732454345 111 83 92
-91.04135150743947 209.86193507004967 66.71177953483506 105 77 86
-90.74714416338206 210.02441076760442 66.77038943828182 109 80 87
-90.52299142639313 210.3526599801908 66.88156184510106 121 91 101
-90.32164174371758 210.73734624570812 67.01064944704328 125 98 110
-58.64284271120245 218.13290056388396 70.03591097977366 89 63 66
-58.13834037793787 217.65587998613572 69.89058124135474 103 75 78
-57.620608358452884 217.12201430105677 69.72701642120163 111 81 86
-57.15112042811676 216.76668246182564 69.62059181671788 110 79 86
-56.77392165751196 216.76407540149503 69.6271168224057 106 75 83
-56.3816749461852 216.70279026603194 69.61484596011648 115 83 93
-56.00457801472062 216.70018390957634 69.6213692041311 125 92 103
-52.02560604170324 215.79791133637258 69.40560633241333 79 61 86
-51.581568670042735 215.50480200042216 69.31892737944341 122 98 120
-51.1251921616377 215.15463954750717 69.21392826425932 125 101 124
-49.719384029342265 215.54987813173923 69.36999266934676 130 104 122
-49.37037891320358 215.6634514653306 69.41376407985078 116 88 105
-48.89131311351113 215.1969630928269 69.27136362051823 112 81 95
-48.401526362889676 214.6748860487237 69.11108780286416 125 94 108
-35.54752300444339 213.67004577397796 69.03543794998683 97 83 101
-35.18464369598054 213.72455141035317 69.0602637914649 90 75 94
-34.82157345669904 213.77910161953858 69.0851078661833 80 65 81
-34.458307219277984 213.83366577154112 69.10996030819484 82 67 80
-34.085935209009776 213.83109207201755 69.11640181774985 83 66 77
-33.79305778614647 214.34418001536622 69.28905204782947 80 64 75
-33.49876731319603 214.85973638476372 69.4625329636547 76 60 71
-33.203053171702244 215.37777640430403 69.63684972571212 71 55 65
-32.90590919880338 215.898345923846 69.81201737101753 66 50 60
-32.53850902475058 215.9540288149454 69.83731458446493 61 42 52
-32.16242739945966 215.95142947591575 69.84382026511753 66 46 53
-31.786345774168744 215.9488301368861 69.85032594577012 72 49 59
-31.410264148877822 215.94623079785646 69.85683162642273 75 51 63
-31.042362133769462 216.00194081538308 69.88214747461586 77 54 65
-26.25537935349845 216.846471638619 70.25047466106737 108 58 72
-25.85723106255635 216.6676304354461 70.20007409233735 103 55 64
-22.543380844368286 217.46893949427465 70.52554415034055 86 40 49
-22.182056048474458 217.64387767512747 70.58952048881721 82 39 46
-21.820140955621067 217.81908713078923 70.65359662103884 78 38 44
-21.457637042561267 217.99459846643623 70.71778247506437 72 34 40
-21.09454128359384 218.17039636367116 70.78207312643183 63 29 34
-20.73631800267271 218.40610229315874 70.86575869509825 58 25 31
-20.37731468194681 218.6423382432633 70.94963194543219 56 24 28
-20.01752582854647 218.87907358105053 71.03368301884791 68 33 36
-19.656951456400932 219.11633890158626 71.11792186870906 95 57 65
-19.295587475937058 219.3541188791201 71.20234358895719 112 72 83
-18.938437475984973 219.65273548418392 71.30647520252265 115 75 89
-18.58030768031923 219.95217138143568 71.41089251249466 119 75 92
-18.22119499737747 220.2524418469924 71.51560054915521 118 77 94
-17.832749897026844 220.18913312391624 71.50259703285742 120 79 96
-17.435307789509494 220.00474381464744 71.45037766890967 122 78 96
-17.038518911997638 219.82064967247717 71.39824156425001 122 78 96
-16.64238285920551 219.63686599208904 71.34619370269169 124 78 95
-16.268258746216375 219.75494674268083 71.39192253785411 124 77 93
-15.897902893214617 219.93363157787303 71.45729432463426 125 77 94
-9.731853536715573 219.047740244644 71.28961203693065 124 71 84
-9.32407622327922 218.3868546359537 71.08257392596136 124 70 83
-8.920979933738472 217.78924118290826 70.89602894068787 124 69 85
-8.526463002230349 217.37205967039563 70.76801702080883 123 69 83
-8.139514189519815 217.13325324613743 70.69788876782302 123 69 82
-7.755323113075904 216.95383542080998 70.64702777970388 124 68 84
-7.369941143005189 216.71594237759913 70.57716605389152 122 67 85
-6.9836839376786495 216.41994343785538 70.48841757319789 121 68 84
-6.598468518741912 216.12474716776816 70.3999098647926 120 67 81
-6.214290344476315 215.83033823846202 70.31163803043867 120 66 78
-5.831145345571687 215.53671662181134 70.22360214052941 120 65 79
-5.451603309456362 215.3599009063995 70.17349683337233 119 65 78
-5.073857298606953 215.2413045340788 70.14229719034684 119 63 76
-4.6965171776841705 215.12284864448438 70.11113531722009 115 62 75
-4.319581709306007 215.00450263409425 70.0800012817924 114 62 75
-3.944811864698048 215.00191236161427 70.08648427049295 115 61 73
-3.570822778472022 215.0571825729209 70.11177601955404 113 60 70
-3.196632873752221 215.11248199121292 70.13708119609593 110 58 69
-2.821661797769221 215.10989032789507 70.14356766581489 109 57 68
-2.4462114773759907 215.0494096697756 70.13123020580304 109 57 68
-2.0698287362952352 214.8155867669679 70.06251672825458 106 57 67
-1.6945292250275774 214.63991709073 70.01270133798245 105 56 65
-1.3198323427260044 214.46451163688513 69.96296012872027 105 56 66
-0.9455846184521037 214.17453112639217 69.87593490027625 103 53 63
-0.5723833022342864 213.7708975363128 69.75191392920817 101 52 62
-0.2006960017274861 213.31179043323056 69.60981590579034 100 51 60
0.169632076565595 212.91135857875975 69.48678040664925 97 50 58
0.5395403720878539 212.68210848045572 69.41942806382903 96 49 58
0.9103308037524127 212.67954571222663 69.42584221430921 96 48 55
1.2811212354169477 212.67698294399753 69.4322563647894 93 47 57
1.6512977831879225 212.6178237249932 69.42024572735882 93 46 56
2.021278092186446 212.55871175477407 69.4082466256818 90 45 54
2.3894436306814906 212.38664040242497 69.35946244590058 88 44 53
21.330512424135264 196.17799364315013 64.45647204603625 119 68 83
-106.56845695239903 215.59275502529155 67.89895185021628 117 112 129
-105.88350713735242 214.95440746841243 67.70576332436261 99 98 112
-105.1747085595854 214.2625228595793 67.49571610854449 80 74 88
-104.49801545536997 213.63195749764418 67.3048846031119 82 69 79
-103.79794369412417 212.94850081881143 67.09739418385513 88 69 79
-103.18351406936972 212.43809762803315 66.94423080579826 94 75 86
-102.5988807375073 211.9861677267097 66.80940729711023 90 74 86
-101.99004812036662 211.4803465132549 66.65761730745501 82 68 81
-101.4105303194372 211.03244455930025 66.52399730891676 79 65 77
-101.01747935817835 210.97436706970404 66.51288176953977 89 71 82
-100.65087361354556 210.97183322450547 66.51922353084795 93 72 85
-100.31042432410104 211.0248410278908 66.54302758800613 93 72 84
-99.94372232565563 211.022306517421 66.54937101436924 93 72 82
-99.60299862345944 211.07534301873008 66.57318971887565 89 68 78
-99.28799288747886 211.18400992164112 66.61450800565797 93 74 86
-98.94683027076127 211.23713517302704 66.63836400395168 87 69 80
-98.63123504162698 211.3459815689642 66.67975189050517 78 59 67
-98.03352501218198 210.84312841713682 66.5287050831706 85 63 70
-97.38799915653985 210.23229780409306 66.34365088067732 91 68 76
-94.70028168978631 208.3073739588756 65.7732509543636 95 73 81
-94.28969984780767 208.19664443474895 65.74543969546654 92 70 77
-93.95201414524519 208.24824869178337 65.76873557808874 98 72 79
-93.66235751856989 208.40819901871387 65.82615397169675 98 72 80
-93.37225336508412 208.56840630630168 65.88366426024746 98 75 83
-93.10571231439299 208.7832500757931 65.95839459451173 101 80 90
-92.86259195758183 209.05305058583826 66.05045139211478 82 65 77
-92.61883679510107 209.32355038332477 66.1427468800541 74 53 62
-92.39837323349715 209.64958732584935 66.25255917197221 84 59 65
-92.15331575068902 209.9216537422514 66.34538705857832 93 64 73
-91.88375233968821 210.13930661951932 66.42108546198374 100 70 78
-91.58982038940702 210.30221036702417 66.47954310120447 101 70 79
-91.31917444788262 210.52066651819874 66.55552259133748 98 68 75
-91.02426162855178 210.68417537758714 66.6141952061156 98 69 75
-90.79983929262119 211.01449879212083 66.72547193499318 98 70 78
-69.06537430688701 222.49665281394005 70.86568176799517 100 89 108
-58.746785535248314 218.5467697493842 69.78907593988399 72 53 62
-58.24109377220314 218.06792684163375 69.64400124869908 76 55 61
-57.737600215046676 217.5911795574758 69.49956175854915 78 59 62
-57.25158768506581 217.1753750902946 69.37450185748128 87 65 71
-56.85847114159173 217.11387055617905 69.36227860829389 94 69 76
-56.450481400338994 216.99356755169444 69.33131873574469 94 64 71
-56.05789917238248 216.93215849426676 69.31911594484025 119 89 95
-52.04675926370092 215.91141187654836 69.06716091164125 70 55 81
-51.60245993535195 215.61801392054022 68.98089685955951 106 86 107
-51.159349357033946 215.3253890448546 68.8948597536683 118 99 122
-50.73084477376707 215.09134663077776 68.82749459060035 115 96 117
-50.409809667818 215.32020849989462 68.9078257310694 113 92 113
-50.07481355603005 215.49153258053045 68.9698103847585 114 90 111
-49.752472924636066 215.72127266870598 69.05045122044078 131 106 124
-49.403199724440206 215.8350108843664 69.09408000453853 133 108 125
-48.92368059307913 215.36779123947363 68.9522553117089 116 88 103
-48.433420945386956 214.84487644154447 68.79261749571101 116 84 96
-35.20584035669936 213.8931177740813 68.74303187698962 82 67 84
-34.84248285601286 213.94774172901435 68.76780643676513 71 57 71
-34.487958054842224 214.05966916277544 68.81095184320243 75 59 72
-34.133054620506805 214.17171635782069 68.85414340104022 76 60 71
-33.8309405415199 214.6288373733692 69.007969533132 74 56 68
-33.52753069459211 215.0879227824612 69.16245665568435 66 50 61
-33.22281709389154 215.54898782718385 69.31760985703863 69 53 62
-32.92547819436109 216.07037513548045 69.49213926551492 71 54 63
-32.55778595642557 216.12614702102903 69.51736997534387 63 43 52
-32.189897626516554 216.18196344310837 69.54261892788001 69 45 54
-31.821808563779264 216.2377937750779 69.56787630300816 78 55 64
-31.445219976918267 216.2351909321148 69.5743907533795 80 56 69
-31.08503651085106 216.34955741498328 69.6184359787541 74 52 64
-30.724463666512605 216.4640435848697 69.66252754140434 69 45 55
-27.476255442404895 217.6183977856785 70.09953071410291 113 66 85
-27.111569948582808 217.73426288040483 70.14414883796792 113 64 79
-26.725247049082487 217.67239227485607 70.13167441300176 112 63 77
-26.325203975157724 217.4921941454372 70.08117724945932 112 64 80
-25.925811622424817 217.31229116192995 70.03076288311655 111 60 74
-25.527068474866276 217.13268331385606 69.98043134019848 110 60 73
-25.135594104316976 217.0122344037909 69.94910162171374 109 61 75
-22.58441527607536 217.9401266062121 70.2992051314988 99 49 59
-22.228204732382594 218.1753384842111 70.38227829255098 94 48 57
-21.871216646515744 218.41104979843863 70.46552826050888 86 44 52
-21.5077654946047 218.58751595974388 70.52973276518597 80 39 49
-21.143720566309515 218.7642839627297 70.59404654530988 71 33 42
-20.784572376057177 219.0012806161005 70.67775464682755 66 29 36
-20.424639608491155 219.23880725164017 70.76164957734431 62 27 33
-20.06391812130338 219.47684854343623 70.84572645831858 69 36 40
-19.702406524667907 219.71541977916507 70.92999026399002 68 36 43
-19.340100729470247 219.9545056332819 71.01443611489687 75 42 52
-18.976999292690866 220.19412139309537 71.09906898619903 78 46 59
-18.613099421665957 220.43426703930368 71.18388892620567 83 51 64
-18.24839832373171 220.67494255260488 71.26889598322587 84 52 66
-17.863931924831117 220.67228526107814 71.27554670861286 86 54 69
-17.47021247542679 220.5479047295736 71.24298857620242 89 57 73
-17.07692516965334 220.42364956314674 71.21046256989966 93 61 75
-16.684070479460697 220.29953506234187 71.17797363173821 98 62 76
-16.308838043647036 220.4183408250683 71.22374939174665 101 64 77
-15.941599930328165 220.65899880344446 71.3088003355478 103 66 78
-9.75758845480856 219.82783524093563 71.1606418043836 128 74 91
-9.348284092890145 219.16225152208122 70.9532548750597 129 75 90
-8.943693117637766 218.5604135612869 70.76640398432569 129 76 93
-8.547736568197546 218.1402752087273 70.63818237799592 128 75 90
-8.159397169336104 217.89979489481885 70.5679492771971 129 76 90
-7.771901615518704 217.65984052085835 70.49786988579415 129 76 91
-7.385246721921962 217.42039676755115 70.4279393086822 129 75 91
-6.997713019150997 217.1224807272197 70.33910427802785 128 75 93
-6.6112277281188865 216.82536739180833 70.2505085216136 127 74 91
-6.224283944396459 216.4704271603042 70.1432089490801 129 74 90
-5.838592154453247 216.11662758101596 70.03625403345505 129 74 89
-5.456728696301962 215.88052115734354 69.96730981398927 129 75 88
-5.079254330186702 215.8196295465693 69.9549793337634 128 74 86
-4.700895553692874 215.70054096113907 69.92383360044705 126 71 87
-4.3239289928798295 215.63972934654146 69.91151908689567 125 72 88
-3.948049795819857 215.63713140662193 69.91802126582593 125 71 85
-3.5737383273454957 215.75097191798565 69.96217228014075 126 70 85
-3.198339800694808 215.80662935134802 69.98751649708332 123 69 83
-2.8227390184058674 215.8623159813578 70.01287411315805 121 68 84
-2.445973988898045 215.8014292732595 70.00053136241128 122 69 85
-2.068653810519924 215.62414170702425 69.95053216047727 121 68 85
-1.691942509777709 215.4471642947755 69.90062142977509 120 68 83
-1.3158383516599927 215.2704511326745 69.85078434972476 120 68 84
-0.9401153388967908 214.9204835853883 69.744874736982 120 67 81
-0.5656253308010316 214.5140316965838 69.620662714808 118 66 78
-0.1926615909517707 214.0517399790492 69.47835111846169 117 64 79
0.1787113131385177 213.59143260621005 69.33665057841118 117 65 80
0.5497921135933459 213.3607394598636 69.26924745321041 116 64 79
0.9217674858103403 213.35816850175758 69.27568210148765 115 62 77
1.2932223305981838 213.2986340619986 69.2636732090536 114 62 76
1.6650986563387624 213.29606378846572 69.27010614396676 115 62 75
2.0355390921055916 213.17967636155944 69.2396798187519 114 62 75
2.4039551871767997 212.9498429832122 69.17250285878845 111 61 75
2.7715885628656554 212.72048923048766 69.10546581501525 109 59 72
-106.30074597204279 215.8193909933824 67.60336368156472 89 84 101
-105.6158425904079 215.17967540660825 67.41083319151656 68 63 79
-104.9071524307197 214.48634741731857 67.2015111447311 57 45 58
-104.20297638674016 213.79742559278614 66.99351915775715 60 43 55
-103.58514320446895 213.28298244522983 66.84000004435809 62 45 57
-102.97024697162449 212.77097653541242 66.68720805359828 62 46 57
-102.385137564329 212.31762664336006 66.55271384218545 60 45 58
-101.77584846198829 211.81021801777771 66.40129208674335 62 46 59
-101.3812498269501 211.75171754281251 66.39016666495878 69 51 64
-101.01329203408191 211.74917435274966 66.39653181479078 74 55 71
-100.64533424121375 211.7466311626868 66.40289696462277 84 63 78
-100.27737644834558 211.74408797262396 66.40926211445476 82 61 76
-99.93557463801665 211.7974987162905 66.43312622328973 83 59 77
-99.61966648359888 211.90692276889985 66.47451352338018 85 62 78
-99.30343431491943 212.0164822557594 66.51595074079758 82 60 75
-98.98686322567661 212.12614647968255 66.55742828621368 76 54 69
-98.41184059166174 211.67546680730206 66.42359659870883 71 51 62
-97.7881837788986 211.1154134080752 66.2555108419645 66 48 57
-97.11726116393162 210.44773960682406 66.05370863461661 69 48 58
-95.1594176295786 209.33834020330733 65.7348552730374 74 53 62
-94.72207491393833 209.17191404305177 65.6898268622067 73 53 62
-94.38291852006624 209.22401222492545 65.71321685647342 79 59 68
-94.04358646643678 209.27613978686264 65.73661973659193 84 60 73
-93.72831244211608 209.38296771877415 65.77715905629634 89 63 77
-93.41271355968722 209.48991578202367 65.81774338433199 106 79 94
-93.16917182883478 209.76156073308877 65.90993107409085 105 87 100
-92.94910643373119 210.0889575321838 66.01960499383786 86 69 83
-92.72835923471932 210.41740511740826 66.1296304357547 79 60 72
-92.48283127231262 210.69146857606074 66.22263533581965 89 63 74
