ply
format ascii 1.0
element vertex 718
property float x
property float y
property float z
property uchar red
property uchar green
property uchar blue
end_header
54.999733422718165 187.56785111678596 65.65267017444096 117 85 107
55.33160343493372 187.4997025610056 65.66173990741461 112 78 96
55.64964252994923 187.38599484982805 65.65488437669887 100 59 76
-54.10829742959494 221.65114928006537 66.06532633626124 95 81 93
-53.68980717854908 221.29432598206964 65.99020400155116 95 82 97
-53.28569300593333 220.9951491467157 65.93216580684361 92 78 92
-52.8824014096814 220.69656411972124 65.87424026345123 93 78 89
-52.493010246234945 220.45507366271158 65.83326671766437 97 80 91
-52.16913514208686 220.49623268649702 65.8765214727467 108 90 102
-51.87078645135338 220.6506125895257 65.95358222591157 101 84 96
-51.58470346832441 220.86204896896442 66.04773474500746 92 76 88
-51.285066505061636 221.01716674589574 66.12515101764714 92 77 87
-50.93385558577968 220.94504659028547 66.13474932161579 90 73 84
-50.57001410227215 220.81613961685918 66.12737593814828 97 75 87
-50.19382693412747 220.63056697588468 66.1030431012243 111 89 101
-49.81802525538155 220.4451831334098 66.07873476332453 120 100 112
-49.46726458199678 220.373155434504 66.08832076244516 116 96 109
-49.14100500962192 220.41437301135625 66.1318158537256 117 95 108
-48.80223373509224 220.39895348049976 66.15837604817428 119 100 117
-48.47537915080608 220.44020550101365 66.20193744939628 119 102 119
-48.20835668844856 220.76558682939734 66.33072831280742 101 85 99
-47.964384326877685 221.20634320341102 66.4942436787654 88 72 83
-47.71927462866185 221.64913712956118 66.65851583418608 84 69 80
-47.473026432670096 222.0940153577086 66.82355982542965 79 65 76
-47.16617088510151 222.25192675394766 66.90253970710535 80 63 75
-46.823285857188004 222.23682152025103 66.92958268784199 88 69 80
-46.46852282728921 222.1639719489069 66.93927806805615 94 74 86
-46.125368440651705 222.1488427286988 66.96633841989559 100 73 87
-45.81663851460464 222.3070740511246 67.04559474619653 119 93 108
-45.53022754649531 222.58156402359637 67.15992587837728 91 73 90
-29.444021717181204 224.23074882377287 69.1820502730887 130 103 123
-29.08738557039302 224.21578009985595 69.21041498206041 128 101 123
-28.730557581117477 224.20078764439936 69.23878993880446 131 106 125
-28.380735478530553 224.24562461642685 69.28563160748779 131 106 124
-28.016333383371986 224.17079569065976 69.29559041538388 126 102 121
-27.644931403692727 224.0361855582322 69.28709736193386 116 97 115
-27.27372533740839 223.90163131882397 69.27860395920858 101 92 108
-26.90271876050772 223.7671650322845 69.27012011923085 88 73 88
-26.525211649547032 223.57314538139218 69.24321081007837 110 83 98
-26.148108008716754 223.37934954682163 69.21633551830321 123 96 112
-25.7714053857893 223.18576136224974 69.18948930604692 124 97 114
-25.39510315560411 222.99238069930158 69.16267219039462 124 97 115
-25.031765682954237 222.91777039071516 69.172601903038 127 101 119
-24.668428210304377 222.84316008212872 69.1825316156814 127 101 120
-24.311184456348894 222.8278316463433 69.2108378569173 129 103 122
-23.95375254008824 222.8125115602635 69.23916425510083 131 104 121
-23.59022197094803 222.73786159986625 69.24909924491162 127 98 115
-23.20927569511174 222.4855124130866 69.20387098717724 128 98 114
-22.82893630813386 222.23356977896844 69.15871623143686 127 98 114
-22.449200888916362 221.98201743490748 69.1136300526459 123 93 108
-22.070069597431143 221.73087107651867 69.06861745130826 117 87 101
-21.686160894717613 221.42140230696373 69.00541256231939 122 92 104
-21.303063842783768 221.11258575329174 68.94234064273617 127 96 110
-20.915614346183496 220.74603526260603 68.86122497754303 125 97 113
-20.544355800238442 220.5552095939862 68.83475549512542 127 100 118
-17.113638903785443 222.34128933552242 69.72434946334221 132 107 129
-16.76499650598688 222.50427785310927 69.80883559678489 127 102 120
-16.411585120429717 222.60799026058703 69.87482391494532 121 95 111
-7.575069125117038 218.75436427607133 69.4647538266902 115 83 101
-7.2018682254212765 218.27444366217475 69.34608755622051 110 80 97
-6.830046180732991 217.7962941548975 69.22785906598598 103 73 89
-6.458253267919222 217.2625634760079 69.09186747534325 101 72 87
-6.090508276628021 216.84527089627588 68.99270624672418 96 69 86
-5.733099202057666 216.88568361931794 69.03883936880365 88 60 78
-5.375313914433865 216.92614439020957 69.08502281148124 87 60 76
-5.018113878725043 217.02389443395077 69.14945805642316 87 60 73
-4.658611723149506 217.007178138718 69.1775307302347 93 65 74
-4.2927433367418 216.53299218201707 69.06001538471024 107 78 88
-3.927546549168394 216.00373288881775 68.92483949770644 122 98 112
-1.7731620750643466 215.5046996530728 68.96561941274626 122 94 107
-1.4141834926895382 215.3177739631137 68.93925475815145 139 117 134
-1.05558130883595 215.13103520486857 68.912914851027 137 119 138
-0.6973548796580499 214.94451457165604 68.88660971872032 134 113 133
-0.33950365077683875 214.75818062410553 68.86032936663052 131 104 122
0.019420594930139493 214.79732678241928 68.90619859965955 134 105 121
0.3787210834206405 214.83650531971236 68.95211314922336 132 102 119
0.7389500411692795 214.93222373412476 69.01618073327657 130 97 114
1.099099714377676 214.97152548630916 69.06221358299688 134 101 118
1.4588867039796962 214.95432780656455 69.09015890943985 136 104 121
1.8180271346752643 214.8805793485136 69.09997392039763 128 101 117
2.1780974449221255 214.86335481521706 69.12793699951115 127 98 113
2.5373321967281037 214.78958698859645 69.13775458818688 128 99 114
2.9032895084145243 215.0553074630161 69.25667701116927 121 91 107
3.270403712343703 215.32187110372973 69.37597638749095 118 87 102
-54.222221520502806 222.1579732316773 65.85893379872297 74 59 72
-53.78914274028929 221.7425761743932 65.76700240985033 79 65 81
-53.397452911861635 221.4992869011491 65.72594291053798 75 62 79
-52.99311825561236 221.19950697707475 65.66809875454874 75 61 74
-52.60274228981699 220.95706700790342 65.6271875444719 77 63 75
-52.29123697260866 221.05537766738914 65.68728058954962 80 66 81
-52.005252387938775 221.2676568192115 65.78123532908064 89 78 93
-51.7185341331044 221.48049011874195 65.87543414139051 87 75 90
-51.431074989639335 221.6938604213609 65.96987224548326 86 75 89
-51.07877871335439 221.62151739080102 65.9795002113612 85 72 85
-50.70107224445456 221.43491532039496 65.95516389640781 92 75 87
-50.32375383946306 221.24850257409827 65.93085182388343 96 76 86
-49.959317917037865 221.1192401111562 65.92351206568426 101 83 92
-49.60747467382457 221.04699010963904 65.93312765054301 104 87 98
-49.28028077203059 221.08868628607283 65.97667852696036 107 87 97
-48.95274581143841 221.1304064010298 66.02026859385658 116 97 108
-48.612704779359696 221.11511617688168 66.04689597250673 119 102 118
-48.3572281056697 221.4999783049984 66.19288121226984 116 102 118
-48.14908628160658 222.11660533712174 66.40814977297967 107 93 108
-47.92755553786522 222.67914188079774 66.60746547054637 102 89 104
-47.704754784711035 223.24489466856363 66.807921052508 89 77 89
-47.396543589676 223.40483954833968 66.88729950138547 82 67 77
-47.063845250771244 223.44831859745378 66.9319267678608 83 63 71
-46.71896395134242 223.43342838549754 66.95912949310403 79 61 71
-46.37390647002042 223.41854898207941 66.98635196806465 95 71 83
-30.82099179188079 223.98448179084912 68.60641422422309 112 83 100
-30.49651613273835 224.20805892535012 68.70752425282417 117 88 105
-29.152807105953265 224.80737435819324 69.02244243065564 128 102 119
-28.795044268531267 224.79250155514302 69.05084350369236 121 95 115
-28.444322610481525 224.83777704456367 69.09771070557842 127 102 122
-28.086083783758113 224.82290047244453 69.12615465663309 133 109 129
-27.72061081448453 224.74785164574735 69.13614273063314 114 96 115
-27.355137845210933 224.67280281905013 69.14613080463317 95 84 101
-26.996514085039866 224.65789418893576 69.17460021041262 92 75 90
-26.238782239202106 224.26758047434993 69.12070403089685 119 87 104
-25.853989400071537 224.01286436888333 69.07537386062425 123 96 112
-25.46981198266073 223.7585565604123 69.030116480257 122 97 115
-25.09888876680479 223.623968056642 69.02168455540226 120 95 113
-24.740619307107252 223.60881893454834 69.05004471302945 125 99 116
-24.382157170763648 223.59364590918597 69.07841511462067 123 98 117
-24.023505515766754 223.57848095369624 69.10680563041198 128 102 122
-23.652770122350205 223.44386836941231 69.09834865944262 129 101 119
-23.26472325526446 223.13061175556328 69.0347127089498 128 99 115
-22.877499504268798 222.81799403609304 68.97120361149494 133 103 120
-22.49110106663722 222.50606264919045 68.9078362418404 127 97 114
-22.10552238792791 222.19478512961024 68.84460079524312 121 89 103
-21.71536562036918 221.82524339102855 68.76326999338815 118 88 99
-21.3315268223506 221.5154195139422 68.70033547623717 122 91 105
-20.943322336981247 221.14765695580272 68.61938940794319 121 89 105
-20.566285795051826 220.89776002336455 68.57487278823994 123 92 109
-17.508935830561285 222.94486403472203 69.50865154664612 132 101 120
-17.159876270763036 223.10888803320313 69.59310905100116 129 99 118
-16.810068911790726 223.27327533010114 69.67775127502118 116 89 107
-16.451412940630163 223.31793958240584 69.72515890271613 107 81 96
-5.729249571603656 217.1068216326098 68.74381418710882 120 94 114
-5.371085048640013 217.1474362853936 68.78988914220434 114 88 110
-5.013504873877669 217.2454637293273 68.85415864164526 100 75 97
-4.653622266384095 217.2287930150066 68.88218453669695 90 64 81
-4.287377700045147 216.75369517690623 68.76508849114666 92 65 78
-3.9218084022022217 216.2234166597002 68.63039073907238 102 76 90
-1.0467532725175595 215.40614784174045 68.63684838918755 131 108 124
-0.6878843893459086 215.27582016606215 68.6286545522456 133 110 129
-0.3294750569923505 215.08901452800728 68.60246664251206 137 112 129
0.02965399315596512 215.07185639906726 68.63026783436736 137 112 127
0.38943137420988805 215.1112314410237 68.67609812784195 137 110 128
0.7495868456177652 215.15066980416435 68.72198355864924 138 113 132
1.109470905884683 215.13349759701524 68.74985018874271 136 110 128
1.4695440711017393 215.1163178823632 68.77773194345939 126 97 113
1.8289675693219987 215.04251129720743 68.78755469041853 112 82 96
2.1893247045446143 215.0253202571136 68.8154591406126 114 83 95
2.549871078029762 215.00810601981325 68.84337374080259 111 81 92
2.9151073489577355 215.2176903036552 68.94381052404498 106 74 88
3.282530439989196 215.48471349565392 69.06270675965607 106 72 85
14.443919737764213 217.9843616163754 70.89075060014994 101 61 73
-54.227565961317175 222.20766793442388 65.51637811910749 89 69 91
-53.807850636271205 221.84922993754915 65.44177379008282 86 69 92
-53.402573427764004 221.5486986814901 65.38414532192076 83 64 89
-52.998130176718966 221.24879287105563 65.32663766069105 86 65 89
-52.59451481140884 220.94949559754258 65.26924602066346 86 65 89
-52.28300316207876 221.0478004298368 65.3290635828776 80 64 88
-52.01001736759332 221.3170254015015 65.43936520008117 72 59 80
-51.73619185570972 221.5870959625452 65.55001162432562 74 61 83
-51.44860761881015 221.80071489275116 65.64407956040273 90 74 95
-51.121772201101386 221.84287319269424 65.68755947241118 89 73 94
-50.75637681638038 221.71318029683948 65.68026411342179 91 75 94
-50.4038081523982 221.6407813322467 65.68989952343023 89 73 89
-50.0386962854023 221.51119364161826 65.68261127113243 86 70 84
-49.711133910071446 221.55320266289732 65.7261110502915 83 67 80
-49.383232871183985 221.5952517738254 65.7696547465041 84 67 78
-49.067302041715315 221.69465386224158 65.83022689444338 92 72 83
-48.738644889264364 221.73682962146148 65.87388038459376 98 81 93
-48.482698089798205 222.12405758980867 66.01991796677784 113 97 111
-48.274354834370016 222.74439938058646 66.23526533379933 115 100 118
-48.05254722620632 223.31033904923606 66.43465502922369 109 97 114
-47.829468073721515 223.87954153546488 66.63519359964496 91 80 97
-47.52050104220433 224.04060925408535 66.71461953833855 87 72 84
-47.17492823233132 224.0258417343604 66.74183033332864 87 65 76
-28.156246603690523 225.47885985872668 68.95572335322383 128 101 119
-27.796780025248676 225.46412108146365 68.98422495987447 121 106 124
-23.721700953892935 224.21449914137972 68.96507750096035 124 97 113
-23.332230517294324 223.89931221877606 68.90135729310407 124 96 112
-22.94359172723217 223.58479725292918 68.8377728103324 127 99 116
-22.555783596328236 223.27096970297515 68.77432903129508 130 101 118
-22.174343425153126 223.01730718311262 68.7293195802121 123 93 109
-21.788077234387227 222.7046733320637 68.66611095449518 117 85 100
-21.397304454616716 222.33346264370277 68.58479840934652 119 89 102
-21.012784952479674 222.02228380255406 68.52188866466035 120 90 104
-20.639306830436105 221.8296618206711 68.49544328467991 125 94 109
-20.28127945517456 221.81409092347653 68.52354903918034 124 95 112
-19.923061983902887 221.79851231439386 68.55166989217855 124 99 117
-17.89727248132431 223.43128558195113 69.2547703140472 126 94 109
-17.54363410165628 223.5360691979919 69.32052247385535 127 95 111
-17.18942582814813 223.64101770201094 69.3863793383702 131 99 116
-16.834646254188442 223.74613080516463 69.45234094603332 125 96 114
-16.47523164509221 223.79113715338858 69.49972678470122 103 80 101
-5.364736250577002 217.2543555288565 68.458019719977 135 114 134
-5.006962754986313 217.35254209655773 68.52206762783737 132 108 130
-4.646888237574911 217.3358773632609 68.55001640742235 123 98 120
-4.280463116653 216.8603307331201 68.43347088389206 120 94 112
-0.6787439674354604 215.49467524510578 68.33396996371346 117 95 111
-0.3199630596049136 215.30756153476509 68.30791023584113 125 103 121
0.03991423049406796 215.34710084402727 68.35361029792456 126 103 123
0.40016987939035814 215.38668775352596 68.39936031356515 124 102 122
0.7608043584139006 215.42630650458355 68.44515534397848 131 114 135
1.121818394459304 215.46597260982566 68.4910003606955 128 114 135
1.480966356123041 215.33530729202988 68.48282122496562 112 89 105
1.841610998453128 215.31816526171335 68.51067169728617 104 72 86
2.2015073004500327 215.24426158765718 68.52050736558151 107 74 86
2.5614036024469518 215.17035791360104 68.53034303387683 108 78 88
2.9269434842763458 215.38031044597136 68.63044334569014 108 77 88
3.294676593080494 215.6478242511476 68.74894456567208 113 81 93
3.6622474652982557 215.85901988594952 68.84962525931826 116 86 99
14.465365195578183 218.153103445847 70.57152949912506 130 78 91
-54.20569879696618 222.142768048027 65.14010251813174 108 88 113
-53.77264549436022 221.72739443673845 65.04927954829373 113 94 115
-53.36761156529654 221.42713846001698 64.99208252874838 119 97 121
-52.9634108466176 221.12750776283926 64.93500556500318 118 98 124
-52.560041072116114 220.82850187984613 64.87804871899168 113 94 121
-52.24866120478456 220.92665697028846 64.9375328481334 106 87 114
-51.97576387639501 221.19556214331658 65.04717605909148 101 83 109
-51.71497466207122 221.52237957021066 65.17391815397316 99 81 108
-51.44033774250459 221.7931044653472 65.2842934899116 110 91 117
-51.126326323298045 221.89256722578148 65.34443069431401 118 101 127
-50.786320440623975 221.87745345276429 65.37092600978903 109 94 119
-50.44613620667941 221.8623187172794 65.39743112451717 103 85 107
-50.10578073636314 221.84719580325978 65.42395569417484 98 75 97
-49.790247110161644 221.94684714939353 65.48429210116753 99 76 97
-49.47422672363513 222.0466647854156 65.54472553694373 96 75 95
-49.1700783061593 222.2042052305115 65.62221998474809 100 80 96
-48.853002875010155 222.304401351414 65.68286940631556 94 77 93
-48.59663019901515 222.69381617092805 65.82889061367469 91 76 92
-48.3758624187163 223.2593258484773 66.02701614434243 100 87 105
-48.14161836730789 223.76957101701788 66.20900116797725 98 87 107
-47.918327554352686 224.34128136100784 66.40930850194182 99 87 105
-23.406120467880235 224.7337591006113 68.78551864199879 130 102 119
-23.02174811861259 224.4774320456908 68.74023706155546 124 95 113
-22.63799309664188 224.2215136633416 68.69502726115438 128 100 119
-22.25485548196145 223.96601963144465 68.64989416366979 122 95 113
-21.866849400436195 223.65101467995842 68.58649409179644 119 89 105
-21.485045695689724 223.39645234373054 68.54153139219227 117 85 101
-21.098587096275374 223.08265786616474 68.47836975735402 117 87 102
-20.723270888107944 222.88854970936558 68.45182186274953 120 88 104
-20.363546115082553 222.8731767907146 68.48004794380088 124 92 108
-20.00860479814569 222.91739130366457 68.52657287287688 125 96 111
-19.648401215262265 222.90201403150843 68.55484158976793 123 95 113
-19.29758298177164 223.0059466151559 68.61976714033314 124 95 114
-18.960317635911437 223.2894957277836 68.73993115838293 131 101 117
-18.61734205885629 223.51392487928612 68.84202850894103 131 100 116
-18.27798553601863 223.79912754815905 68.96290471015807 127 95 110
-17.933079956470173 224.02491446208143 69.06560641285019 129 97 111
-17.57415933628675 224.07008158086987 69.11279662481539 131 98 113
-17.219116724802383 224.17569951768212 69.1786404089787 132 100 116
-16.859329071684076 224.22101748428625 69.22595774250482 129 102 121
-16.491002426461872 224.1453826634124 69.23602380510852 108 91 115
-4.999453666282525 217.4022198807379 68.17162780600415 137 114 136
-4.640146925297542 217.44306345656676 68.21749387896988 136 115 136
-0.6695842913735808 215.71399922405246 68.03866819965222 107 81 97
-0.31070774737939405 215.46983002254007 67.99486671662186 110 83 104
0.04982977785730556 215.56626960696875 68.05832919120087 113 88 110
0.41046971975328755 215.60600935672522 68.10397067124504 110 85 108
0.7720514459294711 215.70267303820893 68.16759958466267 104 84 107
1.1342049524283688 215.79950121242257 68.2313327754504 93 77 103
1.4939172150800273 215.66853366734318 68.22320664397506 99 73 97
1.8534402308537383 215.53765196793117 68.21509011572019 106 74 93
2.2127737169140933 215.406824849357 68.20697333283535 104 73 90
2.572954284660263 215.33286280214404 68.21681676987852 103 75 91
2.938798565169607 215.54319905826173 68.31658406696431 103 74 89
3.3056089148221512 215.75410434611865 68.41661909387919 107 78 93
3.6747203814187617 216.02276639390334 68.53502838289168 107 79 96
4.043572650255807 216.2348968322271 68.63563634510857 107 81 96
14.482567542605528 218.26308342338828 70.23283347470553 139 86 101
14.834206959055434 217.9515995758138 70.16719841673682 117 68 81
-54.19743743519786 222.13516545620186 64.78068687783615 113 94 121
-53.750932560019166 221.66272630131348 64.67379824327493 103 84 111
-53.34602828896741 221.3626282937553 64.6170056418506 114 93 116
-52.928730609039675 221.00636201113056 64.54377943133616 124 105 129
-52.51250419752667 220.6510204561938 64.47074437442718 121 104 129
-52.21435414010159 220.805636340295 64.54640307889379 121 102 127
-51.95452773634983 221.13107476439583 64.67198285626068 123 100 127
-51.680828242801674 221.40065184487855 64.78136050274726 123 105 130
-51.41916930292647 221.7282510477814 64.90778391155806 124 107 134
-51.13088352655935 221.9422901630294 65.00112587179666 121 107 134
-50.816305982616534 222.04196097908152 65.06110291281388 120 107 133
-50.50124356948945 222.1417984659347 65.12117647864383 124 110 134
-50.17307331190814 222.1842403602124 65.16449796690634 124 109 131
-49.86964811222987 222.3419231786215 65.24159892728385 124 110 129
-49.578082281257366 222.55768487974228 65.33577999235229 119 106 125
-49.27333309905875 222.71612944929373 65.4132404341223 116 102 121
-48.967953427379584 222.87491438016386 65.49086506030524 115 102 122
-48.71115342126752 223.26653128579213 65.63686706231748 106 92 111
-48.4778434809603 223.77665513546933 65.81778498676749 101 84 103
-48.24331898193194 224.28947385029298 65.999657013686 102 86 107
-22.715169753915955 225.11960357085 68.59660316454627 132 102 120
-22.336059596316097 224.92288726344546 68.56978465643458 125 97 116
-21.95182625967274 224.66592027958575 68.52458999980237 122 93 111
-21.56821250677003 224.40937808480467 68.47947148110829 123 93 109
-21.185215445002942 224.15324442409653 68.43442428094963 119 89 105
-20.808043054502715 223.9576307774013 68.40777324575097 121 89 105
-20.451722028975237 224.00262365350324 68.45447004940246 121 90 106
-20.089996281292937 223.98748031027208 68.48285228188134 128 97 112
-19.73300293639923 224.03252305972978 68.52962624092783 131 101 119
-19.375627395058075 224.07762827540037 68.57645473118421 123 95 115
-19.027355766624943 224.24345441564716 68.66020879576521 124 96 114
-18.67367689058321 224.34915947898375 68.7256532566474 130 101 116
-18.323993929582638 224.51560414515075 68.80973000218357 126 94 110
-17.964606347028532 224.5611105668377 68.85686819953426 130 94 111
-17.604832217950904 224.60667856146188 68.90406104697882 134 101 118
-17.244669717727437 224.6522920933248 68.95130369592744 135 103 120
-16.87993101071419 224.63721913230302 68.97998380212317 134 107 128
-16.510908874288393 224.56144149430395 68.99006887192628 112 94 121
-0.3011584384262417 215.68919135699372 67.69913235743904 111 86 107
0.059766251207210165 215.78590688587323 67.76242848035949 112 89 109
0.42126127593019447 215.8827558743576 67.8258185653499 114 95 114
0.7833281961700193 215.9797693240526 67.88931245196598 117 103 123
1.1466307062998404 216.13408328838588 67.97084192919968 108 90 113
1.506152127444788 215.94574323474356 67.94484984767452 127 107 130
1.8661456560402843 215.81459423737184 67.93678921768442 131 109 130
2.225003610618451 215.62657835689785 67.91083778562947 125 100 120
2.5845234411331353 215.4956362591921 67.90279849904918 118 91 110
2.9506726246395854 215.7063561101559 68.00223125209155 116 89 109
3.3177890806488843 215.91762906332585 68.10192556574246 112 84 102
3.6858765601248455 216.12945434845236 68.20188154251268 108 78 95
4.054939593007775 216.3418623573602 68.30210910311219 109 80 96
4.418846272801691 216.32486167439197 68.33011007769139 101 73 89
4.782945864273174 216.30785269959873 68.35812612129766 97 65 80
14.12628504456552 218.38994133861942 69.86481653156751 127 64 77
14.499788182405435 218.3731782539714 69.89377045159607 142 86 103
14.855972721904779 218.1203422643851 69.84729980519074 135 82 97
-59.49990628143321 225.92218722643653 65.1173459832172 120 95 121
-59.05306019544837 225.49560544964032 65.02539776241393 120 95 120
-58.65227525517281 225.246300979098 64.98439747408693 121 97 125
-58.25210839976561 224.99735833922122 64.94345337176294 120 100 128
-57.85257088399613 224.74882682288649 64.9025797634086 119 100 128
-57.453653068719305 224.50067312956176 64.86176716875363 121 102 130
-54.17558446700933 222.0703043675325 64.40469839031293 121 103 131
-53.72923162827538 221.5980949822127 64.2985108872262 109 92 122
-53.311123654994546 221.24126268170812 64.22563981036015 100 82 108
-52.89408561958275 220.88533915542587 64.15295385438067 116 97 121
-52.47811408365648 220.53032369730371 64.08045311325593 117 99 126
-52.16707176944707 220.62813188401114 64.13925062273051 115 96 122
-51.9203303348521 221.0098058870318 64.28049102733699 116 95 121
-51.65964029804045 221.33602735481998 64.40575296312582 117 96 124
-51.41090155708867 221.7206425809594 64.54809052838112 116 98 126
-51.135440133773756 221.99202558615158 64.65764007387054 118 102 128
-50.83356023287385 222.1492365608156 64.73408148752372 113 100 127
-50.543770706043055 222.3643687145624 64.82743883054829 118 107 133
-50.253229347527586 222.58005120795593 64.92103595376479 119 108 131
-49.96193264079889 222.79628331888716 65.01487295327702 118 106 126
-49.669884155734195 223.0130971015814 65.10895947522337 120 106 125
-49.37707318520572 223.23045903619936 65.20328606852064 119 103 124
-49.09592455069225 223.5066721912534 65.31485695937073 116 101 121
-48.82627088609195 223.84221899775486 65.44383749280357 123 106 125
-48.5926575479262 224.35520916644361 65.62473162212802 122 106 124
-22.03200822362611 225.62917026744995 68.44366130695929 120 92 108
-21.652142455105558 225.43159738758877 68.41684614887176 119 89 105
-21.267324128415932 225.17346598655658 68.37164356608544 122 92 108
-20.89363872314782 225.0370952686368 68.36330407405121 125 94 109
-20.535635539684076 225.0828826442668 68.41020175891927 123 91 106
-20.177247445243136 225.12873192475652 68.45715380973674 121 89 106
-19.818472433475296 225.1746270375272 68.50415540948542 131 98 115
-19.454427925008293 225.15969495915994 68.53271491215217 130 100 117
-19.094971782194847 225.20563813059024 68.57979358885005 122 92 109
-18.73043814201157 225.19071523449142 68.60840056203268 130 99 115
-18.365707525384313 225.1757832110057 68.63702266211881 128 98 113
-18.000779776022927 225.1608420280393 68.66565989337967 127 93 108
-17.635654737637253 225.1458916534985 68.69431226008658 136 103 118
-17.270332253937124 225.13093205528958 68.72297976651082 134 103 121
-16.904812168632404 225.11596320131878 68.75166241692365 134 108 130
-16.530891684812953 224.97909005385407 68.74318806573942 122 106 130
0.06972360381325092 216.0059969891228 67.4659008179946 100 80 102
0.4320814266854948 216.16024798655477 67.54693764068986 94 79 99
0.7952045836824986 216.3148116422367 67.62814153483629 97 86 106
1.1590957825817034 216.46971872129552 67.70952231813541 120 105 127
1.5184191078676996 216.22366631946036 67.66575197653192 133 118 143
1.8780290858645254 216.03513900928058 67.63990326166719 129 112 136
2.2372593785886803 215.84679929044765 67.61407827326856 122 104 126
2.596110533055725 215.6586470506335 67.5882770262855 119 100 120
2.962565071779708 215.8697503782399 67.6873737045448 115 95 118
3.3299887611492838 216.08142206198985 67.78673558954382 117 94 115
3.6983847021712415 216.29363014393923 67.88635302233038 120 97 117
4.067757737962506 216.5064206113097 67.98624075081308 118 94 114
4.430420948821915 216.43194876044933 67.99615203643937 116 89 109
4.793084159681332 216.35747690958897 68.00606332206564 111 75 91
5.155747370540741 216.2830050587286 68.01597460769193 129 77 89
5.5184105814001505 216.20853320786824 68.02588589331822 136 84 96
14.147507703358958 218.5592833397256 69.54424600320033 115 53 65
14.521319114297265 218.54254924347856 69.57313576128537 137 79 91
-59.55221326842012 226.15073018325802 64.82091975289336 122 98 121
-59.10482234439481 225.72335682051764 64.7293420493023 123 99 122
-58.70357637907018 225.47360215579224 64.68852663704948 121 98 124
-58.30295802317598 225.22424259130756 64.64777644191393 119 99 127
-57.91766071412413 225.03385757220232 64.6238808334421 120 101 129
-57.51817647817762 224.78516938002204 64.58323531060454 121 102 130
-54.22173004141167 222.29192744471825 64.1113535766578 124 102 130
-53.78831865499809 221.8760064987102 64.02204901809097 121 104 132
-53.369595886753196 221.51835080534894 63.949437055877766 105 88 117
-52.951949202962794 221.161620789313 63.87701372118858 106 88 115
-52.53537128402299 220.80579928739894 63.80477436881715 113 95 121
-52.237014514686116 220.96068954360885 63.8798071284552 114 92 121
-51.97703135360345 221.28666972802583 64.00428831185683 114 93 120
-51.71611021842745 221.61381973465393 64.12921666562428 121 101 126
-51.454248009418166 221.9421545871142 64.25459711971587 120 103 128
-51.17856824104956 222.21415699245296 64.36380383956993 114 99 124
-50.889224806570745 222.42937308775288 64.4566824168182 91 81 107
-50.599130685081725 222.64513973809383 64.54979954574382 106 91 118
-50.30828236005392 222.86145622136678 64.64315532245062 112 95 120
-50.02931643823273 223.13638565756625 64.75356625649655 119 102 123
-49.736895861760935 223.35396095802633 64.84745437127378 121 105 124
-49.443716992187554 223.57211657192582 64.94159093608641 117 101 120
-49.14977266619884 223.79083536815506 65.035971301457 115 99 121
-48.87986819174284 224.12735333470673 65.16461435783312 117 99 122
-48.633708572303135 224.58283138610105 65.32790609633079 117 101 122
-21.361007918510552 226.3257524254007 68.34525932562573 122 95 109
-20.98006635534597 226.12705368172746 68.31839567419763 120 93 106
-20.615155488582154 226.11234919387647 68.34700319843171 123 92 106
-20.250045586316823 226.09761949479946 68.3756210073864 128 96 111
-19.8797248089189 226.02157518459904 68.38574156797328 128 97 112
-19.5143181116878 226.00683151995761 68.41438202382375 128 97 115
-19.143897048105103 225.9307666162766 68.42450532514913 130 102 119
-18.773475984522392 225.85470171259558 68.4346286264745 126 95 112
-18.403054920939688 225.77863680891457 68.44475192779989 128 98 114
-18.032633857356984 225.70257190523355 68.45487522912528 119 89 103
-17.66221279377428 225.62650700155254 68.46499853045066 122 90 106
-17.296105213343978 225.6116350726988 68.49366298610424 133 104 119
-16.925583837528123 225.53554957018824 68.50378902887999 133 109 126
-16.546837812337664 225.3371763927953 68.47682661325528 124 107 126
-16.14051560542995 224.71265000678198 68.32051816004626 104 81 102
0.4400717799963334 216.0953324372739 67.16089274243369 87 71 93
0.8031077603659676 216.24981364101538 67.24167592275774 91 76 93
1.1669109426432216 216.40459144621173 67.3226205821786 119 102 122
1.5268964908774543 216.21586493216176 67.2969381988608 125 109 133
1.885644249171238 215.97021741004463 67.25353199849967 119 102 128
2.2447758016513526 215.78196380430546 67.22791833583798 115 93 118
2.603528428539279 215.5938976308565 67.2023282341678 112 89 112
2.9710402161482117 215.8619510510709 67.31865732034238 111 91 112
3.339718500362168 216.13086114461055 67.43535745305013 105 85 104
3.7082249711250306 216.3431951000399 67.5345373297882 109 86 107
4.079152372994029 216.61366350225424 67.6519239656184 112 88 110
4.442007977038079 216.53915214400485 67.66184050919131 117 87 108
4.806500196790186 216.52218460256134 67.68970980540811 119 75 94
5.1694520755716304 216.4476534745706 67.69962898008998 130 76 89
5.534233614439932 216.43064218241952 67.72751102840391 136 83 95
5.901137883371225 216.47121582617828 67.7734027216695 133 80 92
6.270459879890614 216.5694704303877 67.83736057437449 119 67 77
-59.650309428070635 226.55763156460247 64.57447489063895 124 100 123
-59.186852770496344 226.06971662203034 64.46628929182236 125 102 124
-58.78491690121378 225.81930818652427 64.4256180481538 125 101 126
-58.4133345685882 225.6870996663283 64.41857054194418 121 100 127
-58.0271793662456 225.49608745410092 64.39474766799317 120 101 128
-57.65608653081734 225.36407340899214 64.3877156960687 120 102 128
-54.308933194918176 222.6866155680012 63.866808971995084 121 100 124
-53.8746030707461 222.26932494521392 63.77771871417011 122 105 130
-53.46842349468326 221.96774609846997 63.72168597648624 115 99 126
-53.04978816137611 221.6096931271944 63.64940306754282 114 95 124
-52.645397052977145 221.30949941810042 63.59363466410326 110 92 120
-52.33336310011991 221.4082537714714 63.6522665105369 118 95 123
-52.059963784263964 221.67852293395703 63.760178015560186 121 98 126
-51.798722243178986 222.00697457799484 63.884892341754075 124 104 131
-51.52357624922526 222.27907742409033 63.99352619161611 126 108 132
-51.2475757521683 222.55202268136424 64.10249660592778 115 103 126
-50.957873847606905 222.76801878750095 64.19518343061426 83 72 98
-50.66741474308831 222.98454843189558 64.28810296910021 104 85 111
-50.376205782460964 223.20166010170678 64.38126947660369 112 95 119
-50.08423615684827 223.41932025794912 64.47467361124279 115 98 122
-49.77890352472082 223.579239468854 64.55151988284894 118 101 121
-49.48547357797368 223.79791516770754 64.64536869259948 116 99 119
-49.17879988423977 223.9586081958104 64.72257446317631 110 94 119
-48.9087360953411 224.2956932409765 64.85074392684814 110 94 120
-48.65006214597139 224.69294845422442 64.99639735237716 110 95 121
-20.69540958296717 227.15132110394083 68.28321711899474 119 90 101
-20.318324407231835 227.01311242187273 68.27482140396106 119 88 101
-19.941444022507714 226.87497711246542 68.266429729438 123 92 105
-19.564768272504637 226.73691514362508 68.25804209969684 121 89 105
-19.18829825065742 226.59894239959226 68.24966330349467 125 97 113
-18.812031275177628 226.4610270102558 68.241283776843 131 106 122
-18.43596966317665 226.32320077084145 68.23291309369668 128 99 117
-18.06011083705952 226.18543183263392 68.22454168721966 124 92 108
-17.68888563456497 226.10920180133223 68.23468696499646 123 91 105
-17.31766043207042 226.03297177003054 68.24483224277327 124 92 108
-16.94643522957586 225.95674173872885 68.25497752055009 131 104 121
-16.56695912996381 225.7577678758554 68.22810020292908 115 95 115
-16.16382249782302 225.19207088590753 68.09052037978019 90 65 86
1.5330788204636172 216.03655992752164 66.87514339708147 121 103 128
2.6109424356644624 215.52918351933235 66.8165832438384 117 95 118
2.9783691340451806 215.79707257136565 66.93227338907957 111 90 111
3.3482070936903705 216.12304944091645 67.066055963559 110 88 109
3.7180708364050634 216.3928026686065 67.18254032581495 106 83 105
4.090558775180503 216.72100714064055 67.31724822127563 112 81 101
4.455151224007841 216.70408004142158 67.3450411986106 126 82 98
4.819937317533698 216.6871444972324 67.37284910537464 127 74 90
5.184917212048261 216.67020047597924 67.400671945839 131 77 90
5.550090568326514 216.65323238761422 67.42850489209314 133 79 93
5.917393508259132 216.6939714866664 67.47428764765523 129 76 89
6.287121113031473 216.79249811642134 67.53807164460811 113 62 74
6.655305385091988 216.83336943058302 67.58397485904419 107 56 66
7.023881350511308 216.87426992958373 67.6299225086144 105 56 64
-59.733480367304146 226.90649780091638 64.31028815862996 122 98 123
-59.26914387667938 226.41717606273517 64.2024152912417 126 102 124
-58.881534188473864 226.22528889999322 64.17864466301442 121 101 123
-58.50924759578664 226.09273375130144 64.17164908756982 117 98 124
-58.15198301166547 226.01937049296788 64.18141283319207 117 98 123
-57.77998464166322 225.8869058485181 64.17441896492915 119 99 122
-54.91624761001865 223.8510835204336 63.80963975847508 117 96 122
-54.396450209964236 223.08272480279138 63.621377135700634 114 94 120
-53.9611991486727 222.66406411800398 63.53250528270643 115 95 122
-53.56766035380547 222.41900197276362 63.49299672110443 112 95 123
-53.1613775277366 222.11695389224352 63.437198499043866 112 94 124
-52.75593227770529 221.81553192438835 63.3815163557276 112 93 121
-52.44325940588555 221.91490217946122 63.44011904064546 109 90 117
-52.156294375799355 222.1291820145319 63.531568186068 118 96 123
-51.86858425740098 222.3439978557277 63.62324854366234 127 107 129
-51.59311918817755 222.61704386488344 63.73164431346095 129 110 131
-51.3038647750147 222.83312417583295 63.82385087085332 116 102 126
-51.01385428113188 223.04973823564816 63.91628894083093 77 66 92
-50.735915447158895 223.32503229580072 64.02559571467205 105 85 108
-50.44434044377702 223.5429223336017 64.11856532893431 116 98 120
-50.13930187517817 223.70300533327068 64.19505888951778 117 99 121
-49.83362857602329 223.86342777093552 64.2717135578018 116 99 120
-49.52731820195998 224.0241891651901 64.3485293978556 116 99 121
-49.22036840863591 224.18528903462845 64.42550647374837 115 99 121
-48.93764972914656 224.46429934816658 64.53638148720837 115 96 118
-19.998552000914945 227.6726870461794 68.12762750972037 123 90 100
-19.615549420487213 227.47178664417493 68.10068323901262 125 94 108
-19.232964801171793 227.27111300271577 68.07377067408514 118 90 105
-18.850797439663005 227.07066597738006 68.0468898341587 123 96 111
-18.473700635064144 226.93228435106874 68.03854497912185 134 105 121
-18.09225737741666 226.73217392962397 68.01170185445146 133 104 120
-17.715675306001295 226.5940076171856 68.00337647642493 130 99 115
-17.343642448066333 226.51761173615418 68.01354382675699 127 93 110
-16.96736615593038 226.37953953315417 68.0052196761049 125 93 109
-16.587156267587094 226.1799485881487 67.97842430906044 119 93 110
-16.183210988821042 225.61226688403937 67.84112636698649 87 61 82
-15.781013316251945 225.04702672874663 67.70441800488841 117 92 112
3.356695687018573 216.11523773722234 66.69675447406787 104 86 106
3.7292709537809325 216.49989597186328 66.84806206831736 105 84 108
4.101977741221772 216.82848267223312 66.9822225649192 123 85 103
4.468315553606185 216.8692757829737 67.02773845906047 129 77 90
4.83504334685064 216.91012974569128 67.07330813936794 127 71 83
5.200415014638225 216.8932132714639 67.10107668545447 133 79 91
5.567824610931195 216.93409947984836 67.1467177112565 133 82 93
5.935625933324299 216.97504618182978 67.19241257092071 128 76 88
6.301777006156675 216.95812625170916 67.220250337849 112 60 72
6.670262814579354 216.99910464841494 67.26601661633143 107 56 66
7.036902301400615 216.98217837950088 67.29389648341798 100 54 62
-59.832243095890085 227.31617142223817 64.06206429727592 118 95 123
-59.35169132025369 226.76571850290887 63.93770997336319 120 99 126
-58.96342802276824 226.57334010335643 63.914038388358726 110 94 121
-58.62048977439027 226.5592278803117 63.940547091556994 97 80 108
-58.26247721162074 226.4857110267066 63.95033127881712 107 86 113
-57.90446464885118 226.41219417310148 63.96011546607724 114 92 118
-55.00530303787433 224.25127386835942 63.562894748375825 120 97 121
-54.4842848306416 223.48027146141388 63.3750557071225 116 93 121
-54.061735013889646 223.11803187833564 63.302770208387955 116 95 122
-53.65378874139863 222.81441126587077 63.247012412451866 114 96 124
-53.26008041417181 222.56897439615528 63.20768270595396 109 91 121
-52.8669804954327 222.32391300270615 63.16841261902723 107 91 117
-52.54045546677256 222.36639556050073 63.21067045737676 107 89 114
-52.2530220254348 222.58169902172614 63.30201133503732 110 87 112
-51.95174930951025 222.73979315956157 63.377184857401325 120 96 118
-51.662880404149334 222.95607021783363 63.468950964896024 127 104 126
-51.373263462532115 223.17291397532048 63.560956725360015 113 99 124
-51.08289488998499 223.39032369386618 63.653202237032716 74 64 91
-50.804629055549064 223.6665748147993 63.76226777165431 100 78 102
-50.512686222994425 223.8852428056932 63.85503761493063 117 98 120
-50.207243440027746 224.04594123429715 63.93137826169782 116 99 120
-49.888494730611725 224.14834978971783 63.99117480456291 116 98 121
-49.56925080914302 224.2509385137561 64.05107065889487 116 100 122
-49.24950329168706 224.35367436712912 64.11105652296068 120 104 125
-48.96660906199054 224.6331716275937 64.22152568290312 124 106 128
-19.28279660685426 228.0097451939652 67.91537756417725 115 86 100
-18.89455999966818 227.74590536158144 67.86995582950865 122 92 108
-18.506959873827068 227.48250940547663 67.82461200892129 131 104 120
-18.119992325714207 227.21952520638843 67.77933667823876 137 111 128
-17.7470466551108 227.1429418818919 67.78952897498614 136 110 129
-17.369737530663734 227.004361768464 67.78124581540747 136 109 124
-16.99263387204063 226.86585516452004 67.77296657147674 134 103 119
-16.607431170523974 226.60375011310933 67.7278002681698 130 102 117
-16.206705127731585 226.0955888889257 67.60914639338904 97 75 94
-15.803585094077722 225.5280901713346 67.47264946033575 103 82 103
3.7391299144165404 216.54957109353722 66.49559894314558 105 76 95
4.113408502530877 216.93605892539634 66.64683672634631 125 77 93
4.481500998835238 217.03473933829068 66.7099308547649 116 66 79
4.848528108830932 217.07570084327537 66.75536377790488 119 65 76
5.2159464815566166 217.11672293307652 66.80085028279719 132 76 89
5.585606173839574 217.2157235389198 66.86418262399532 133 81 95
5.9519566917060365 217.1988549805586 66.89195543642106 128 75 88
6.318503020548072 217.18199318947364 66.91974789648734 111 60 71
6.685244245035911 217.1651070359594 66.94755044831993 106 56 65
7.049937769242632 217.0902182660726 66.9575172207309 94 50 60
-59.51072456480013 227.4140228649548 63.75573895256754 122 102 128
-59.136415616215885 227.28049185997395 63.748818701234846 123 104 131
-58.777369454533996 227.20676275979477 63.75863113589845 118 100 128
-58.433303272713445 227.19277749080194 63.785183985440895 115 95 122
-58.07416284201787 227.119029032751 63.79499899639869 118 96 123
-55.192753308330104 225.06371824951262 63.4307981459097 116 92 117
-54.66925310470165 224.2873705964619 63.24268609122133 113 92 118
-54.24493209305679 223.92278637355562 63.17031520480963 117 98 126
-53.84892322276006 223.67533150515317 63.13085887332723 118 101 129
-53.453532152200765 223.42826969288865 63.091466217902955 114 99 127
-53.07214717504368 223.23951471373059 63.06846622574501 109 91 119
-52.73106094315232 223.22468513808295 63.09449692505533 107 88 114
-52.41625941701664 223.32581698584156 63.15327012386398 108 87 111
-52.10096962516938 223.42711476236846 63.21213722658476 107 84 107
-51.798290412974254 223.58676163356992 63.28753464611998 119 98 119
-51.5080205839727 223.80504511064666 63.37956739631392 111 97 120
-51.216993834159716 224.02389344242204 63.471838818447985 77 64 92
-50.93813834529845 224.30192450140223 63.58093215425019 99 79 103
-50.64553338768668 224.52206156752152 63.67373480640673 111 91 116
-50.339350377897624 224.68388574719677 63.750104664338146 113 95 119
-50.01978853514424 224.78709346480952 63.809932029412295 114 99 120
-49.71238953729264 224.94949783981144 63.88658627698263 116 100 119
-49.39174948178964 225.053110485368 63.94663266169371 118 101 121
-49.108187984138 225.33459084661428 64.05719095729228 118 101 124
-18.919353490076666 228.17478868562088 67.61788853279273 118 88 102
-18.530990113151727 227.9105208404207 67.57265987650692 127 97 114
-18.14326403889628 227.64669703141774 67.5275085797533 132 104 124
-17.76960529444649 227.5699672792507 67.53772036421918 131 106 126
-17.39156871611352 227.4310046141663 67.52948981626702 135 111 127
-17.01373838383302 227.29211561790967 67.52126310942953 136 111 127
-16.631947829152292 227.09122038962104 67.49462530661674 129 104 123
-16.226254971992454 226.5192296423038 67.35781858760309 91 74 93
-15.822324817943004 225.94971474448292 67.22160343665911 87 70 89
-15.420147804826183 225.38268939098865 67.08598485393556 90 77 97
4.1277710353125885 217.15943118957867 66.34636519586645 123 72 84
4.494707592697051 217.2004706770021 66.391616949948 109 60 71
4.8620349470116135 217.24155518256435 66.43691729478128 113 61 69
5.229753723416936 217.2826845778905 66.48226624745145 133 78 90
5.597864547073635 217.32385873460558 66.52766382504359 132 79 95
5.966368043142334 217.36507752433465 66.57311004464286 125 73 86
6.333211010185937 217.34823148172094 66.60083506851394 110 59 70
6.70240205581736 217.38949698587044 66.64635694416639 105 56 64
7.0719874409558035 217.43080678070078 66.69192750738631 88 46 56
-55.40986726545663 226.00063160448337 63.330879075096256 118 95 123
-54.897474216840834 225.2770177231576 63.158777967920535 116 96 122
-54.470972961927636 224.90951957775638 63.08619355169703 117 98 125
-54.086770917220704 224.71885827690969 63.06305765512578 116 99 130
-53.702971347440304 224.5284048868085 63.039948457001294 113 97 129
-53.306045557649725 224.2796389942606 63.00046018498386 111 94 123
-52.9634213894492 224.2650087798777 63.02659460831157 108 91 116
-52.62061930487022 224.25037334679467 63.052743318385176 104 84 107
-52.2909001865408 224.29424508759115 63.095333543290955 103 78 102
-51.96083939359848 224.33817193015813 63.137970803635035 108 82 104
-51.66979833758254 224.55818389704586 63.230122647827905 107 87 109
-51.39106773017682 224.8376248027093 63.339062262246586 86 68 95
-51.11146655910587 225.11796733979858 63.448350811575686 100 82 108
-50.818012863332676 225.33997349352737 63.541317834072075 109 94 116
-50.52378760246444 225.56255713265398 63.634527417107236 109 94 114
-50.20311130951539 225.6668622167875 63.69449892113472 108 92 112
-49.89469311141571 225.83083601634794 63.77133502168032 108 92 112
-49.57293245686563 225.93556040625867 63.831529361401145 109 92 112
-18.9394238791875 228.54255157141804 67.34639397210991 119 91 105
-18.55040689457475 228.27755965594895 67.30131762908941 126 97 113
-18.166625050837304 228.07550735813268 67.27471619209298 134 107 125
-17.787755879724877 227.93614056452884 67.26654192728074 135 110 128
-17.413483748501207 227.85928485514594 67.27677047509987 131 106 123
-17.039211617277545 227.78242914576305 67.286999022919 133 106 123
-16.656571173129645 227.58081478454946 67.26042765126546 129 106 124
-16.245878579405773 226.94447454679988 67.10552696421105 103 88 106
-15.841136780278422 226.3729589176057 66.9696046812886 80 67 84
-15.434332322551949 225.74250593415243 66.81612920593584 76 64 81
-15.03691824848367 225.23736595692614 66.69952938653043 83 64 78
4.14216391743909 217.38326964799197 66.04525077324742 106 58 67
4.509499177835723 217.42447454262827 66.09039106301144 105 56 64
4.8755630045021965 217.4076615986957 66.11795772564727 111 60 67
5.241822411375929 217.39085546680553 66.14554386998606 131 78 88
5.608276636972661 217.3740249874081 66.17314005077861 131 79 94
5.978842720042827 217.4734090522382 66.23607715604176 124 72 86
6.350002002006919 217.57293749068074 66.29911058066662 109 58 68
6.721756387436126 217.6726255695966 66.3622450889228 102 54 62
7.094107282941858 217.7724730001421 66.42548071925182 82 42 52
-55.643077679170865 227.00521523415551 63.246743990057205 123 104 132
-55.12772921243813 226.275484616497 63.0741203738769 118 99 127
-54.71300078907868 225.96433630555626 63.017827090927824 119 100 128
-54.32686295703669 225.77223156106274 62.99462006921174 121 102 132
-53.941127260055445 225.58031899650672 62.97143485677546 116 100 131
-53.542149475374124 225.32957064762866 62.931818298842096 109 93 123
-53.18441776601872 225.25611146646713 62.94159481061069 99 85 109
-52.8266860566633 225.18265228530564 62.951371322379266 99 80 101
-52.48232112533759 225.16817975344557 62.977613256873866 105 80 102
-52.12449585027417 225.0947013588341 62.987392325715874 107 81 103
-51.832675214112356 225.31643999450702 63.07965705374656 108 85 107
-51.55325486613366 225.5980471825935 63.18873692524184 98 79 107
-51.2729489678661 225.88052157945384 63.29815493423639 109 90 118
-50.99176305665405 226.16391129473246 63.40792498624136 109 96 119
-50.69668307508707 226.38840963053062 63.5013049389663 102 90 112
-50.387889614507195 226.55361526014113 63.57815865980543 100 84 106
-50.06558374805523 226.65920935034652 63.63837288447263 101 85 104
-18.18546300431505 228.44320867444154 67.00258306783785 132 103 120
-17.810472719814857 228.36620549434173 67.0128312421921 135 110 126
-17.435482435314665 228.28920231424192 67.02307941654637 131 102 120
-17.060492150814472 228.2121991341421 67.03332759090063 132 100 118
-16.677106425883665 228.00996543929233 67.00684508196804 128 105 122
-16.26965101924684 227.43361604584038 66.87054296914795 106 94 112
-15.86002079040529 226.79782251522914 66.71664489862987 64 58 75
-15.452394775112385 226.16511798042185 66.56349329461784 70 59 74
-15.050475341696426 225.59685732306045 66.42912030087199 82 62 74
-14.668314861121512 225.33677016373957 66.38521599323583 108 84 94
4.158059022424219 217.66570588784947 65.76101792098052 101 50 61
4.522752546630947 217.59081711796267 65.7709846933915 107 58 66
4.889113205419657 217.57405119466623 65.79849311012393 110 59 65
5.253903994201454 217.49914245177771 65.8084625406953 131 75 85
5.620556945286249 217.48233216461827 65.83598363114854 129 77 91
5.993294378020872 217.64005944834184 65.9162763945411 122 69 84
6.3668283525668565 217.7981085476758 65.99673618079856 108 57 68
6.7433314736422645 218.0149525805107 66.09505433113105 100 53 59
7.118570449688502 218.17379456179424 66.17590276349608 79 41 50
-55.3600444223663 227.2828855752391 62.9887021022157 125 106 133
-54.94321805738606 226.96929300003725 62.93224913419453 120 101 129
-54.555231044027515 226.77579396891215 62.90898150357014 127 109 135
-54.16765337258411 226.58250425165832 62.88573995804104 126 111 137
-53.79425885690743 226.44902485270634 62.87904163700054 112 98 126
-53.40738467871542 226.2560518237134 62.85583211468079 98 86 114
-53.03448503024512 226.12276798683553 62.8491482233823 82 67 94
-52.66177779674463 225.98953931890549 62.842463732550726 94 71 95
