ply
format ascii 1.0
element vertex 857
property float x
property float y
property float z
property float nx
property float ny
property float nz
property uchar diffuse_red
property uchar diffuse_green
property uchar diffuse_blue
property uchar class
property uchar detection
end_header
-0.7007 1.2848 -0.4131 -0.399 -0.205 0.894 75 82 101 0 0
-0.6948 1.2782 -0.4111 -0.472 -0.169 0.865 76 82 102 0 0
-0.6837 1.2749 -0.4102 -0.313 -0.162 0.936 75 82 101 0 0
-0.6798 1.2721 -0.4094 -0.328 -0.163 0.931 76 83 101 0 0
-0.6808 1.2783 -0.4114 -0.265 -0.126 0.956 77 83 102 0 0
-0.6776 1.2768 -0.4110 -0.247 -0.112 0.963 78 83 103 0 0
-0.6740 1.2744 -0.4103 -0.249 -0.115 0.962 78 84 104 0 0
-0.6745 1.2798 -0.4120 -0.370 -0.094 0.924 80 87 106 0 0
-0.6697 1.2751 -0.4106 -0.370 -0.094 0.924 80 86 106 0 0
-0.6649 1.2704 -0.4091 -0.377 -0.098 0.921 79 84 105 0 0
-0.6601 1.2655 -0.4076 -0.386 -0.102 0.917 78 85 105 0 0
-0.6553 1.2609 -0.4062 -0.383 -0.102 0.918 78 85 104 0 0
-0.6601 1.2746 -0.4106 -0.293 -0.088 0.952 80 85 103 0 0
-0.6561 1.2715 -0.4096 -0.293 -0.088 0.952 79 85 102 0 0
-0.6529 1.2697 -0.4091 -0.280 -0.091 0.956 79 84 104 0 0
-0.6535 1.2755 -0.4110 -0.293 -0.089 0.952 80 84 104 0 0
-0.6496 1.2724 -0.4101 -0.293 -0.089 0.952 80 85 104 0 0
-0.6458 1.2695 -0.4092 -0.308 -0.093 0.947 79 85 104 0 0
-0.6555 1.2934 -0.4168 -0.513 -0.196 0.836 79 85 106 0 0
-0.6479 1.2831 -0.4136 -0.294 -0.184 0.938 77 84 106 0 0
-0.6444 1.2808 -0.4129 -0.308 -0.182 0.934 78 83 106 0 0
-0.6411 1.2788 -0.4123 -0.273 -0.143 0.951 78 83 107 0 0
-0.6376 1.2766 -0.4117 -0.290 -0.138 0.947 77 83 107 0 0
-0.6341 1.2741 -0.4109 -0.290 -0.138 0.947 78 84 106 0 0
-0.6305 1.2716 -0.4102 -0.292 -0.136 0.947 79 85 105 0 0
-0.6325 1.2806 -0.4130 -0.294 -0.186 0.937 78 84 104 0 0
-0.6291 1.2784 -0.4124 -0.294 -0.186 0.937 77 84 103 0 0
-0.6253 1.2753 -0.4115 -0.326 -0.187 0.927 76 83 104 0 0
-0.6257 1.2810 -0.4133 -0.607 -0.258 0.752 75 82 103 0 0
-0.6197 1.2735 -0.4110 -0.618 -0.261 0.741 75 83 102 0 0
-0.6168 1.2725 -0.4107 -0.312 -0.147 0.939 76 82 103 0 0
-0.6151 1.2738 -0.4112 -0.369 -0.138 0.919 76 81 103 0 0
-0.6110 1.2700 -0.4100 -0.382 -0.140 0.913 76 82 105 0 0
-0.6069 1.2662 -0.4089 -0.376 -0.139 0.916 75 81 106 0 0
-0.6050 1.2673 -0.4093 -0.038 -0.102 0.994 76 82 106 0 0
-0.6101 1.2830 -0.4142 -0.672 -0.731 -0.115 76 83 106 0 0
-0.6049 1.2770 -0.4124 -0.643 -0.732 -0.223 75 83 105 0 0
-0.6006 1.2728 -0.4111 -0.643 -0.732 -0.223 75 82 102 0 0
-0.5963 1.2687 -0.4099 -0.643 -0.732 -0.223 76 82 102 0 0
-0.5984 1.2781 -0.4129 -0.535 -0.612 -0.582 76 83 103 0 0
-0.5929 1.2713 -0.4108 -0.535 -0.612 -0.582 76 82 105 0 0
-0.5874 1.2645 -0.4087 -0.535 -0.612 -0.582 76 81 104 0 0
-0.5943 1.2847 -0.4151 -0.257 -0.078 0.963 76 82 103 0 0
-0.5915 1.2836 -0.4148 -0.339 -0.079 0.937 74 82 101 0 0
-0.5870 1.2790 -0.4134 -0.301 -0.083 0.950 74 82 100 0 0
-0.5833 1.2759 -0.4124 -0.301 -0.083 0.950 75 83 103 0 0
-0.5771 1.2726 -0.4115 -0.271 -0.077 0.959 74 85 104 0 0
-0.5775 1.2787 -0.4135 -0.253 -0.078 0.964 76 85 103 0 0
-0.5734 1.2801 -0.4140 -0.105 -0.083 0.991 80 87 103 0 0
-0.5708 1.2795 -0.4138 -0.038 -0.081 0.996 79 88 106 0 0
-0.5635 1.2738 -0.4121 -0.252 -0.073 0.965 79 87 107 0 0
-0.5627 1.2774 -0.4133 -0.266 -0.078 0.961 82 88 111 0 0
-0.5568 1.2693 -0.4108 -0.352 -0.077 0.933 81 88 111 0 0
-0.5779 1.3231 -0.4278 -0.464 -0.733 -0.497 80 89 109 0 0
-0.5734 1.3184 -0.4264 -0.553 -0.728 -0.405 81 90 110 0 0
-0.5693 1.3145 -0.4252 -0.580 -0.714 -0.391 78 88 109 0 0
-0.5653 1.3108 -0.4241 -0.510 -0.701 -0.498 76 87 109 0 0
-0.5611 1.3065 -0.4228 -0.471 -0.697 -0.541 80 88 112 0 0
-0.5611 1.3122 -0.4246 0.306 -0.715 -0.629 80 89 114 0 0
-0.5588 1.3125 -0.4247 0.662 -0.474 -0.580 79 87 113 0 0
-0.4647 1.2932 -0.4203 -0.045 -0.687 -0.725 76 83 103 0 0
-0.4629 1.2948 -0.4208 0.173 -0.832 -0.527 76 83 103 0 0
-0.4448 1.2705 -0.4133 -0.339 -0.074 0.938 73 81 99 0 0
-0.3241 1.2773 -0.4177 0.005 -0.401 0.916 118 110 169 0 0
-0.3217 1.2771 -0.4177 -0.084 -0.503 0.860 97 92 140 0 0
-0.3212 1.2843 -0.4201 0.195 -0.956 -0.219 92 91 128 0 0
-0.3189 1.2848 -0.4203 0.195 -0.956 -0.219 91 93 125 0 0
-0.3167 1.2853 -0.4205 0.195 -0.956 -0.219 94 93 124 0 0
-0.3141 1.2846 -0.4203 -0.109 -0.991 -0.074 94 92 121 0 0
-0.3116 1.2842 -0.4202 -0.029 -0.999 0.016 92 91 119 0 0
-0.3089 1.2828 -0.4198 0.224 -0.847 0.483 91 91 120 0 0
-0.2880 1.2649 -0.4144 0.127 -0.106 0.986 82 85 111 0 0
-0.2853 1.2631 -0.4139 -0.421 -0.393 0.818 82 85 110 0 0
-0.2825 1.2613 -0.4133 -0.464 -0.370 0.805 81 85 112 0 0
-0.2788 1.2551 -0.4114 -0.623 -0.340 0.704 80 84 111 0 0
-0.2605 1.2460 -0.4088 -0.169 -0.107 0.980 79 82 110 0 0
-0.2582 1.2460 -0.4088 -0.268 -0.144 0.953 80 84 112 0 0
-0.2382 1.2623 -0.4145 -0.241 -0.697 0.675 71 74 98 0 0
-0.2360 1.2634 -0.4149 -0.284 -0.847 0.449 72 73 97 0 0
-0.2207 1.2442 -0.4090 -0.191 -0.090 0.977 76 74 98 0 0
-0.1888 1.2329 -0.4059 -0.325 -0.516 0.793 78 65 80 0 0
-0.1865 1.2329 -0.4059 -0.460 -0.792 0.402 77 61 76 0 0
-0.1621 1.2229 -0.4032 0.414 -0.909 -0.047 108 76 93 0 0
-0.1600 1.2239 -0.4035 0.414 -0.909 -0.047 98 67 82 0 0
-0.1577 1.2243 -0.4037 0.417 -0.907 0.054 102 69 84 0 0
-0.1559 1.2275 -0.4048 0.195 -0.920 0.341 107 71 87 0 0
-0.1534 1.2260 -0.4043 0.131 -0.987 -0.090 114 77 94 0 0
-0.1512 1.2267 -0.4046 0.148 -0.987 -0.061 111 78 94 0 0
-0.1489 1.2267 -0.4046 0.145 -0.986 -0.088 104 71 89 0 0
-0.1467 1.2271 -0.4048 0.276 -0.961 0.026 112 75 94 0 0
-0.1444 1.2277 -0.4050 0.276 -0.961 0.026 103 72 90 0 0
-0.1422 1.2281 -0.4052 0.227 -0.971 0.072 97 68 85 0 0
-0.1400 1.2286 -0.4054 0.219 -0.963 0.154 97 71 87 0 0
-0.1377 1.2291 -0.4056 0.219 -0.963 0.154 99 76 93 0 0
-0.1355 1.2293 -0.4057 0.235 -0.947 0.221 98 71 88 0 0
-0.1332 1.2298 -0.4059 0.230 -0.922 0.310 101 74 91 0 0
-0.1310 1.2303 -0.4061 0.230 -0.922 0.310 90 68 86 0 0
-0.1288 1.2308 -0.4063 0.230 -0.922 0.310 88 68 87 0 0
-0.1265 1.2313 -0.4065 0.230 -0.922 0.310 94 69 91 0 0
-0.1243 1.2318 -0.4067 0.190 -0.935 0.298 94 70 91 0 0
-0.1220 1.2323 -0.4070 0.175 -0.960 0.218 93 70 92 0 0
-0.1198 1.2327 -0.4071 0.175 -0.960 0.218 94 73 95 0 0
-0.1176 1.2340 -0.4076 0.221 -0.962 0.162 92 75 96 0 0
-0.1152 1.2332 -0.4074 0.221 -0.913 0.344 93 77 100 0 0
-0.1129 1.2334 -0.4075 0.264 -0.887 0.379 90 78 101 0 0
-0.1107 1.2340 -0.4077 0.157 -0.902 0.402 88 79 102 0 0
-0.1084 1.2346 -0.4079 0.221 -0.913 0.344 88 77 101 0 0
-0.1062 1.2351 -0.4081 0.221 -0.913 0.344 92 81 105 0 0
-0.1040 1.2366 -0.4087 0.215 -0.952 0.220 95 88 110 0 0
-0.1017 1.2368 -0.4088 0.338 -0.896 0.287 93 87 110 0 0
-0.0995 1.2378 -0.4092 0.417 -0.877 0.237 89 83 107 0 0
-0.0878 1.2359 -0.4087 0.394 -0.288 0.873 89 86 108 0 0
-0.0834 1.2390 -0.4098 0.493 -0.411 0.767 89 85 108 0 0
-0.0811 1.2394 -0.4100 0.110 -0.424 0.899 89 85 108 0 0
-0.0788 1.2398 -0.4102 0.023 -0.393 0.919 94 91 115 0 0
-0.0466 1.2447 -0.4124 0.154 -0.522 0.839 85 83 105 0 0
-0.0356 1.2604 -0.4177 0.429 -0.901 -0.059 83 81 102 0 0
-0.0050 1.2637 -0.4193 -0.277 -0.791 -0.545 80 81 102 0 0
-0.0026 1.2630 -0.4191 -0.362 -0.775 -0.519 81 83 104 0 0
0.0045 1.2624 -0.4191 -0.766 -0.584 0.268 79 84 104 0 0
0.0069 1.2593 -0.4181 -0.761 -0.641 0.102 80 84 104 0 0
0.0093 1.2553 -0.4168 -0.580 -0.582 0.570 83 86 105 0 0
0.0116 1.2534 -0.4163 -0.485 -0.597 0.638 81 86 105 0 0
0.0140 1.2223 -0.4063 -0.358 -0.281 0.890 80 84 104 0 0
0.0163 1.2205 -0.4057 -0.396 -0.280 0.874 80 84 103 0 0
0.0186 1.2190 -0.4053 -0.358 -0.315 0.879 83 85 104 0 0
0.0418 1.2359 -0.4112 0.885 -0.414 0.214 86 90 110 0 0
0.0466 1.2417 -0.4132 -0.306 -0.095 0.947 87 92 111 0 0
0.0575 1.2186 -0.4059 -0.062 -0.242 0.968 88 93 113 0 0
0.0597 1.2168 -0.4053 0.269 -0.246 0.931 88 93 112 0 0
0.0620 1.2170 -0.4054 0.107 -0.219 0.970 88 92 112 0 0
0.0644 1.2194 -0.4063 -0.013 -0.192 0.981 88 88 109 0 0
0.0665 1.2157 -0.4051 -0.360 -0.433 0.827 85 87 108 0 0
0.0689 1.2188 -0.4061 -0.121 -0.782 0.611 84 86 106 0 0
0.0708 1.2094 -0.4032 0.174 -0.097 0.980 83 87 106 0 0
0.0731 1.2100 -0.4034 0.206 -0.101 0.973 84 88 107 0 0
0.0754 1.2103 -0.4035 0.535 -0.294 0.792 82 87 106 0 0
0.0778 1.2125 -0.4043 0.535 -0.294 0.792 80 85 106 0 0
0.0799 1.2103 -0.4036 0.818 -0.472 0.328 82 87 108 0 0
0.0823 1.2127 -0.4044 0.829 -0.511 0.229 83 88 111 0 0
0.0848 1.2165 -0.4057 0.850 -0.487 0.201 84 88 110 0 0
0.0873 1.2197 -0.4068 0.285 -0.111 0.952 83 85 104 0 0
0.0897 1.2212 -0.4073 0.279 -0.112 0.954 80 81 97 0 0
0.0945 1.2242 -0.4084 0.283 -0.112 0.953 77 84 94 0 0
0.0973 1.2324 -0.4111 0.429 -0.144 0.892 83 88 99 0 0
0.0997 1.2343 -0.4117 0.373 -0.153 0.915 84 88 100 0 0
0.1022 1.2364 -0.4125 0.398 -0.148 0.906 84 88 102 0 0
0.1047 1.2387 -0.4133 0.393 -0.153 0.907 82 87 103 0 0
0.1077 1.2488 -0.4166 0.709 -0.472 0.523 83 86 104 0 0
0.1270 1.2280 -0.4102 0.187 -0.124 0.974 87 89 104 0 0
0.1295 1.2305 -0.4111 -0.135 -0.129 0.982 88 91 106 0 0
0.1317 1.2288 -0.4106 0.134 -0.127 0.983 88 93 106 0 0
0.1474 1.2239 -0.4093 0.328 -0.102 0.939 92 96 110 0 0
0.2140 1.2221 -0.4099 0.352 -0.085 0.932 77 80 101 0 0
0.2165 1.2234 -0.4104 0.351 -0.087 0.932 76 78 101 0 0
0.2190 1.2249 -0.4109 0.299 -0.097 0.949 77 79 101 0 0
0.2218 1.2277 -0.4119 0.259 -0.096 0.961 78 80 101 0 0
0.2237 1.2251 -0.4111 -0.088 -0.073 0.993 76 79 101 0 0
0.2602 1.2229 -0.4111 0.304 -0.072 0.950 70 74 94 0 0
0.2622 1.2212 -0.4105 0.177 -0.075 0.981 69 74 94 0 0
0.2686 1.2186 -0.4098 -0.004 -0.075 0.997 65 70 89 0 0
0.2707 1.2175 -0.4095 -0.048 -0.072 0.996 64 69 89 0 0
0.2727 1.2158 -0.4090 -0.024 -0.072 0.997 62 67 87 0 0
0.2841 1.2156 -0.4092 0.320 -0.083 0.944 62 68 86 0 0
0.2868 1.2173 -0.4097 0.319 -0.081 0.944 63 69 88 0 0
0.2914 1.2175 -0.4099 0.303 -0.094 0.948 63 67 87 0 0
0.2927 1.2129 -0.4084 0.394 -0.109 0.913 67 70 90 0 0
0.2956 1.2156 -0.4093 0.394 -0.109 0.913 66 69 91 0 0
0.2987 1.2191 -0.4105 0.292 -0.111 0.950 67 69 90 0 0
0.3123 1.2279 -0.4137 0.318 -0.102 0.943 71 71 95 0 0
0.3151 1.2301 -0.4144 0.344 -0.104 0.933 71 72 95 0 0
0.3273 1.2139 -0.4094 0.533 -0.250 0.809 67 72 92 0 0
0.3303 1.2167 -0.4103 0.614 -0.282 0.737 69 71 91 0 0
0.3336 1.2204 -0.4116 0.605 -0.284 0.744 69 71 91 0 0
0.3373 1.2259 -0.4135 0.554 -0.364 0.748 67 71 90 0 0
0.3403 1.2287 -0.4144 0.586 -0.355 0.728 67 73 87 0 0
0.3436 1.2326 -0.4158 0.654 -0.308 0.691 69 76 88 0 0
0.3640 1.2218 -0.4126 0.236 -0.073 0.969 76 85 105 0 0
0.3665 1.2226 -0.4129 0.238 -0.075 0.968 79 87 106 0 0
0.3715 1.2237 -0.4134 0.135 -0.076 0.988 83 88 108 0 0
0.3735 1.2225 -0.4130 0.229 -0.078 0.970 84 89 111 0 0
0.3746 1.2186 -0.4118 0.458 -0.148 0.877 83 89 109 0 0
0.3777 1.2213 -0.4127 0.486 -0.153 0.861 83 90 109 0 0
0.3809 1.2243 -0.4138 0.492 -0.163 0.855 81 89 110 0 0
0.3811 1.2169 -0.4114 0.416 -0.178 0.892 79 88 110 0 0
0.3843 1.2199 -0.4124 0.466 -0.180 0.866 78 87 111 0 0
0.3864 1.2193 -0.4123 0.487 -0.134 0.863 77 86 110 0 0
0.3898 1.2229 -0.4135 0.467 -0.134 0.874 78 87 108 0 0
0.3925 1.2243 -0.4140 0.097 -0.116 0.988 77 86 106 0 0
0.3961 1.2284 -0.4154 0.117 -0.122 0.986 76 86 105 0 0
0.3954 1.2184 -0.4121 0.219 -0.075 0.973 76 86 105 0 0
0.3984 1.2207 -0.4129 0.250 -0.076 0.965 77 86 106 0 0
0.4012 1.2222 -0.4135 0.289 -0.075 0.954 77 86 105 0 0
0.4041 1.2243 -0.4142 0.273 -0.076 0.959 77 85 105 0 0
0.4067 1.2176 -0.4121 0.226 -0.067 0.972 79 87 108 0 0
0.4258 1.2196 -0.4131 0.080 -0.070 0.994 80 87 108 0 0
0.4282 1.2197 -0.4132 0.130 -0.074 0.989 78 86 108 0 0
0.4306 1.2200 -0.4133 0.073 -0.071 0.995 81 88 110 0 0
0.4324 1.2185 -0.4128 0.120 -0.072 0.990 81 87 108 0 0
0.4352 1.2199 -0.4134 0.266 -0.077 0.961 80 87 107 0 0
0.4382 1.2220 -0.4141 0.301 -0.082 0.950 80 87 106 0 0
0.4405 1.2219 -0.4141 0.295 -0.079 0.952 82 88 107 0 0
0.4432 1.2231 -0.4146 0.284 -0.079 0.956 83 91 109 0 0
0.4449 1.2213 -0.4140 0.230 -0.074 0.970 83 90 109 0 0
0.4478 1.2229 -0.4146 0.240 -0.073 0.968 82 88 107 0 0
0.4502 1.2231 -0.4147 0.222 -0.076 0.972 81 90 107 0 0
0.4761 1.2242 -0.4155 0.175 -0.067 0.982 81 92 106 0 0
0.4788 1.2253 -0.4159 0.204 -0.069 0.976 82 93 107 0 0
0.4817 1.2268 -0.4165 0.210 -0.069 0.975 84 95 107 0 0
0.4916 1.2282 -0.4171 0.293 -0.110 0.950 79 89 99 0 0
0.4930 1.2259 -0.4164 0.249 -0.085 0.965 79 88 99 0 0
0.4953 1.2259 -0.4164 0.179 -0.089 0.980 80 90 100 0 0
0.4993 1.2240 -0.4159 0.267 -0.097 0.959 79 91 100 0 0
0.5038 1.2236 -0.4158 0.384 -0.098 0.918 79 86 98 0 0
0.5075 1.2272 -0.4171 0.279 -0.086 0.957 77 84 96 0 0
0.5078 1.2219 -0.4153 0.308 -0.098 0.946 78 85 97 0 0
0.5109 1.2240 -0.4161 0.284 -0.095 0.954 78 85 97 0 0
0.5140 1.2258 -0.4167 0.273 -0.094 0.957 78 85 98 0 0
0.5151 1.2227 -0.4158 0.272 -0.076 0.959 76 83 99 0 0
0.5176 1.2232 -0.4160 0.284 -0.080 0.956 79 84 102 0 0
0.5202 1.2239 -0.4162 0.230 -0.079 0.970 79 84 102 0 0
0.5209 1.2199 -0.4150 0.209 -0.074 0.975 77 83 100 0 0
0.5238 1.2214 -0.4155 0.209 -0.074 0.975 76 82 97 0 0
0.5272 1.2239 -0.4164 0.261 -0.074 0.962 75 80 98 0 0
0.5294 1.2236 -0.4163 0.230 -0.072 0.971 78 84 102 0 0
0.5323 1.2251 -0.4169 0.193 -0.070 0.979 80 84 101 0 0
0.5337 1.2227 -0.4161 0.170 -0.075 0.983 78 80 97 0 0
0.5364 1.2237 -0.4165 0.163 -0.075 0.984 76 79 95 0 0
0.5391 1.2246 -0.4168 0.162 -0.075 0.984 77 79 96 0 0
0.5405 1.2224 -0.4161 0.183 -0.074 0.980 77 80 97 0 0
0.5433 1.2234 -0.4165 0.184 -0.075 0.980 76 81 101 0 0
0.5455 1.2232 -0.4165 0.175 -0.073 0.982 76 81 101 0 0
0.5483 1.2242 -0.4169 0.264 -0.092 0.960 77 83 101 0 0
0.5509 1.2249 -0.4171 0.202 -0.082 0.976 79 84 102 0 0
0.5523 1.2226 -0.4164 0.225 -0.088 0.970 80 84 103 0 0
0.5546 1.2227 -0.4165 0.213 -0.086 0.973 80 84 103 0 0
0.5570 1.2229 -0.4166 0.223 -0.083 0.971 82 85 103 0 0
0.5599 1.2241 -0.4170 0.200 -0.082 0.976 83 86 104 0 0
0.5627 1.2253 -0.4175 0.193 -0.084 0.978 82 85 101 0 0
0.5647 1.2244 -0.4172 0.118 -0.079 0.990 78 84 101 0 0
0.5670 1.2245 -0.4173 0.191 -0.082 0.978 78 84 101 0 0
0.5692 1.2242 -0.4172 0.112 -0.088 0.990 79 85 103 0 0
0.5723 1.2258 -0.4178 0.133 -0.086 0.987 81 86 105 0 0
0.5746 1.2258 -0.4179 0.155 -0.081 0.985 83 88 108 0 0
0.5772 1.2264 -0.4181 0.162 -0.088 0.983 85 88 109 0 0
0.5803 1.2280 -0.4187 0.130 -0.083 0.988 86 90 109 0 0
0.5829 1.2288 -0.4190 0.130 -0.083 0.988 85 89 108 0 0
0.5858 1.2299 -0.4194 0.049 -0.079 0.996 83 88 108 0 0
0.5882 1.2300 -0.4195 0.053 -0.080 0.995 84 88 109 0 0
0.5920 1.2333 -0.4206 0.125 -0.119 0.985 83 88 108 0 0
0.5937 1.2319 -0.4202 -0.002 -0.116 0.993 83 88 108 0 0
0.5961 1.2319 -0.4202 -0.001 -0.114 0.994 84 87 108 0 0
0.5991 1.2233 -0.4175 0.249 -0.085 0.965 84 89 108 0 0
0.5980 1.2157 -0.4150 -0.060 -0.104 0.993 85 88 108 0 0
0.6002 1.2156 -0.4150 -0.048 -0.102 0.994 85 87 107 0 0
0.6024 1.2153 -0.4150 -0.048 -0.102 0.994 86 89 108 0 0
0.6050 1.2159 -0.4152 -0.032 -0.104 0.994 85 87 107 0 0
0.6083 1.2180 -0.4160 0.387 -0.120 0.914 84 86 106 0 0
0.6117 1.2203 -0.4168 0.288 -0.078 0.954 82 87 106 0 0
0.6129 1.2178 -0.4160 0.181 -0.089 0.979 84 90 107 0 0
0.6132 1.2135 -0.4146 0.082 -0.088 0.993 86 92 106 0 0
0.6163 1.2152 -0.4152 0.146 -0.085 0.986 87 92 106 0 0
0.6194 1.2168 -0.4158 0.168 -0.086 0.982 85 91 106 0 0
0.6221 1.2177 -0.4161 0.181 -0.088 0.980 84 90 105 0 0
0.6237 1.2161 -0.4157 0.306 -0.187 0.934 82 88 102 0 0
0.6264 1.2170 -0.4160 0.247 -0.183 0.951 81 88 100 0 0
0.6286 1.2166 -0.4159 0.216 -0.215 0.952 80 87 98 0 0
0.6321 1.2191 -0.4168 0.180 -0.170 0.969 80 88 97 0 0
0.6361 1.2225 -0.4179 0.235 -0.165 0.958 79 88 94 0 0
0.6391 1.2238 -0.4184 0.249 -0.158 0.955 79 87 89 0 0
0.6422 1.2253 -0.4190 0.261 -0.165 0.951 66 81 74 0 0
0.6450 1.2263 -0.4193 0.234 -0.135 0.963 64 82 73 0 0
0.6483 1.2284 -0.4201 0.231 -0.120 0.966 72 87 85 0 0
0.6514 1.2297 -0.4206 0.186 -0.096 0.978 78 92 93 0 0
0.6540 1.2304 -0.4208 0.118 -0.073 0.990 84 96 99 0 0
0.6597 1.2323 -0.4216 0.155 -0.075 0.985 84 92 104 0 0
0.6622 1.2325 -0.4217 0.171 -0.099 0.980 82 89 104 0 0
0.6646 1.2326 -0.4218 0.186 -0.092 0.978 79 87 102 0 0
0.6674 1.2335 -0.4221 0.214 -0.096 0.972 78 87 102 0 0
0.6697 1.2335 -0.4221 0.301 -0.099 0.948 77 85 100 0 0
0.6732 1.2356 -0.4229 0.271 -0.096 0.958 75 85 100 0 0
0.6750 1.2346 -0.4226 0.233 -0.098 0.968 76 85 98 0 0
0.6758 1.2315 -0.4216 0.196 -0.111 0.974 77 86 99 0 0
0.6755 1.2264 -0.4200 0.059 -0.107 0.993 76 85 99 0 0
0.6797 1.2300 -0.4212 0.262 -0.110 0.959 77 87 99 0 0
0.6828 1.2314 -0.4217 0.270 -0.115 0.956 78 88 99 0 0
0.6844 1.2300 -0.4213 0.281 -0.111 0.953 79 88 98 0 0
0.6879 1.2322 -0.4221 0.281 -0.111 0.953 77 88 99 0 0
0.6924 1.2363 -0.4235 0.232 -0.112 0.966 79 90 102 0 0
0.6921 1.2312 -0.4218 0.321 -0.101 0.942 80 89 100 0 0
0.6964 1.2349 -0.4231 0.302 -0.100 0.948 76 88 99 0 0
0.7001 1.2375 -0.4240 0.302 -0.100 0.948 76 87 101 0 0
0.7015 1.2356 -0.4234 0.203 -0.109 0.973 78 88 100 0 0
0.6974 1.2236 -0.4195 0.172 -0.097 0.980 77 88 100 0 0
0.7546 1.2543 -0.4305 0.468 -0.270 0.841 81 91 104 0 0
0.7462 1.2270 -0.4215 0.045 -0.073 0.996 82 96 109 0 0
0.7486 1.2272 -0.4216 0.045 -0.073 0.996 83 96 110 0 0
0.7601 1.2307 -0.4229 0.205 -0.096 0.974 80 97 107 0 0
-0.6904 1.2657 -0.4095 -0.436 -0.186 0.880 75 82 102 0 0
-0.6789 1.2659 -0.4098 -0.256 -0.159 0.953 74 81 101 0 0
-0.6767 1.2705 -0.4113 -0.254 -0.126 0.959 77 83 103 0 0
-0.6735 1.2689 -0.4108 -0.247 -0.112 0.963 79 84 105 0 0
-0.6699 1.2666 -0.4101 -0.249 -0.115 0.962 78 83 108 0 0
-0.6686 1.2685 -0.4108 -0.358 -0.096 0.929 80 85 108 0 0
-0.6639 1.2640 -0.4094 -0.377 -0.100 0.921 82 86 107 0 0
-0.6592 1.2593 -0.4080 -0.377 -0.100 0.921 80 86 107 0 0
-0.6569 1.2594 -0.4080 -0.247 -0.117 0.962 80 87 107 0 0
-0.6564 1.2628 -0.4092 -0.275 -0.126 0.953 78 86 105 0 0
-0.6552 1.2650 -0.4099 -0.293 -0.088 0.952 78 85 105 0 0
-0.6513 1.2621 -0.4090 -0.295 -0.088 0.951 80 85 106 0 0
-0.6483 1.2606 -0.4086 -0.270 -0.091 0.959 79 85 105 0 0
-0.6481 1.2649 -0.4100 -0.289 -0.093 0.953 79 85 104 0 0
-0.6410 1.2738 -0.4130 -0.271 -0.186 0.944 78 84 108 0 0
-0.6385 1.2736 -0.4130 -0.410 -0.229 0.883 77 83 105 0 0
-0.6345 1.2702 -0.4120 -0.426 -0.235 0.873 77 84 104 0 0
-0.6303 1.2666 -0.4109 -0.290 -0.138 0.947 77 84 106 0 0
-0.6268 1.2642 -0.4102 -0.290 -0.138 0.947 78 85 106 0 0
-0.6232 1.2614 -0.4093 -0.313 -0.140 0.939 77 84 105 0 0
-0.6181 1.2559 -0.4076 -0.253 -0.323 0.912 76 83 103 0 0
-0.6214 1.2722 -0.4129 -0.618 -0.261 0.741 75 83 102 0 0
-0.6140 1.2616 -0.4096 -0.345 -0.232 0.910 75 84 102 0 0
-0.6132 1.2650 -0.4107 -0.312 -0.147 0.939 74 82 103 0 0
-0.6097 1.2623 -0.4099 -0.343 -0.167 0.924 75 82 103 0 0
-0.6025 1.2571 -0.4083 -0.304 -0.148 0.941 76 83 104 0 0
-0.5960 1.2580 -0.4087 -0.210 -0.087 0.974 76 83 105 0 0
-0.5949 1.2606 -0.4096 -0.186 -0.102 0.977 75 83 103 0 0
-0.5919 1.2591 -0.4092 -0.190 -0.099 0.977 75 84 102 0 0
-0.5891 1.2581 -0.4089 -0.153 -0.096 0.984 75 83 102 0 0
-0.5964 1.2789 -0.4155 -0.535 -0.612 -0.582 74 82 103 0 0
-0.5909 1.2721 -0.4134 -0.535 -0.612 -0.582 74 83 103 0 0
-0.5867 1.2732 -0.4138 -0.353 -0.080 0.932 73 81 103 0 0
-0.5823 1.2686 -0.4125 -0.383 -0.083 0.920 75 82 104 0 0
-0.5792 1.2669 -0.4119 -0.301 -0.083 0.950 77 84 107 0 0
-0.5767 1.2665 -0.4119 -0.256 -0.078 0.963 77 84 106 0 0
-0.5731 1.2637 -0.4110 -0.259 -0.078 0.963 76 85 104 0 0
-0.5733 1.2695 -0.4129 -0.278 -0.078 0.957 77 85 104 0 0
-0.5704 1.2734 -0.4142 -0.098 -0.082 0.992 77 85 105 0 0
-0.5659 1.2685 -0.4127 -0.270 -0.072 0.960 77 87 105 0 0
-0.5632 1.2676 -0.4125 -0.253 -0.073 0.965 78 87 106 0 0
-0.5566 1.2632 -0.4112 -0.358 -0.077 0.931 81 89 111 0 0
-0.5525 1.2592 -0.4099 -0.358 -0.077 0.931 80 89 113 0 0
-0.5782 1.3238 -0.4305 -0.499 -0.794 -0.347 79 88 113 0 0
-0.5752 1.3223 -0.4301 -0.585 -0.694 -0.420 77 88 112 0 0
-0.5708 1.3178 -0.4287 -0.585 -0.694 -0.420 76 86 111 0 0
-0.5652 1.3105 -0.4264 -0.578 -0.692 -0.433 78 87 110 0 0
-0.5609 1.3060 -0.4250 -0.578 -0.692 -0.433 79 86 109 0 0
-0.5568 1.3021 -0.4238 -0.567 -0.693 -0.445 79 87 112 0 0
-0.5531 1.2990 -0.4229 0.079 -0.716 -0.694 79 87 112 0 0
-0.5383 1.2696 -0.4136 -0.391 -0.080 0.917 80 89 111 0 0
-0.5337 1.2642 -0.4119 -0.393 -0.088 0.915 79 89 112 0 0
-0.5312 1.2638 -0.4118 -0.250 -0.065 0.966 77 88 113 0 0
-0.5191 1.2627 -0.4117 -0.216 -0.070 0.974 81 90 112 0 0
-0.5171 1.2636 -0.4120 -0.259 -0.071 0.963 82 91 111 0 0
-0.4700 1.2562 -0.4105 -0.360 -0.078 0.930 76 85 104 0 0
-0.3212 1.2748 -0.4194 0.246 -0.629 0.738 91 92 123 0 0
-0.2885 1.2568 -0.4141 -0.055 -0.128 0.990 82 84 113 0 0
-0.2860 1.2559 -0.4139 -0.091 -0.130 0.987 81 85 113 0 0
-0.2850 1.2617 -0.4158 -0.147 -0.272 0.951 82 86 114 0 0
-0.2818 1.2582 -0.4147 -0.466 -0.368 0.805 82 86 114 0 0
-0.2780 1.2514 -0.4125 -0.615 -0.335 0.714 79 83 113 0 0
-0.2750 1.2484 -0.4116 -0.559 -0.320 0.765 80 83 113 0 0
-0.2725 1.2477 -0.4114 -0.433 -0.189 0.881 80 84 113 0 0
-0.2535 1.2455 -0.4111 0.267 -0.161 0.950 86 89 119 0 0
-0.2509 1.2444 -0.4108 0.175 -0.172 0.969 86 88 118 0 0
-0.2403 1.2609 -0.4163 -0.200 -0.648 0.735 82 87 114 0 0
-0.2377 1.2600 -0.4161 -0.287 -0.579 0.763 79 83 109 0 0
-0.2196 1.2380 -0.4093 -0.135 -0.056 0.989 77 81 106 0 0
-0.1837 1.2293 -0.4071 -0.227 -0.743 0.629 67 68 84 0 0
-0.1813 1.2287 -0.4070 -0.227 -0.743 0.629 71 70 83 0 0
-0.1603 1.2262 -0.4065 0.104 -0.951 0.290 99 72 91 0 0
-0.1580 1.2264 -0.4066 0.104 -0.951 0.290 97 71 89 0 0
-0.1558 1.2266 -0.4067 0.104 -0.951 0.290 97 71 89 0 0
-0.1490 1.2269 -0.4070 0.145 -0.986 -0.088 97 79 102 0 0
-0.1467 1.2270 -0.4070 0.213 -0.977 -0.022 99 82 107 0 0
-0.1444 1.2273 -0.4072 0.391 -0.916 0.090 95 84 108 0 0
-0.1422 1.2279 -0.4074 0.227 -0.971 0.072 84 78 103 0 0
-0.1400 1.2282 -0.4076 0.167 -0.967 0.192 88 82 103 0 0
-0.1376 1.2281 -0.4076 0.048 -0.914 0.404 93 88 109 0 0
-0.1332 1.2290 -0.4080 0.228 -0.913 0.339 91 83 104 0 0
-0.1309 1.2295 -0.4082 0.228 -0.913 0.339 83 78 100 0 0
-0.1287 1.2301 -0.4084 0.230 -0.922 0.310 83 80 102 0 0
-0.1036 1.2323 -0.4096 0.236 -0.389 0.890 86 82 105 0 0
-0.1013 1.2317 -0.4094 -0.060 -0.374 0.925 85 80 104 0 0
-0.0989 1.2309 -0.4092 -0.124 -0.311 0.942 83 80 104 0 0
-0.0831 1.2346 -0.4107 0.588 -0.235 0.774 86 84 108 0 0
-0.0808 1.2350 -0.4109 0.131 -0.228 0.965 87 85 110 0 0
-0.0785 1.2348 -0.4109 0.027 -0.147 0.989 90 87 113 0 0
-0.0762 1.2349 -0.4109 0.027 -0.147 0.989 92 88 116 0 0
-0.0739 1.2350 -0.4110 -0.281 -0.234 0.931 94 91 119 0 0
-0.0715 1.2334 -0.4105 -0.386 -0.242 0.890 90 89 116 0 0
-0.0492 1.2489 -0.4160 -0.127 -0.988 0.093 84 87 109 0 0
-0.0468 1.2486 -0.4159 -0.127 -0.988 0.093 83 86 107 0 0
-0.0447 1.2524 -0.4172 -0.639 -0.764 -0.085 82 85 107 0 0
-0.0422 1.2500 -0.4165 -0.652 -0.758 0.019 83 86 109 0 0
-0.0095 1.2542 -0.4185 0.576 -0.764 -0.292 82 86 106 0 0
-0.0026 1.2622 -0.4212 0.369 -0.583 -0.723 81 86 106 0 0
-0.0003 1.2648 -0.4221 0.301 -0.595 -0.745 84 86 107 0 0
0.0021 1.2657 -0.4225 0.128 -0.654 -0.745 83 85 106 0 0
0.0117 1.2291 -0.4107 -0.757 -0.508 -0.412 82 86 106 0 0
0.0140 1.2248 -0.4093 -0.770 -0.559 -0.307 83 86 106 0 0
0.0163 1.2213 -0.4082 -0.768 -0.574 -0.285 80 86 105 0 0
0.0186 1.2183 -0.4073 -0.604 -0.644 -0.470 82 87 107 0 0
0.0208 1.2153 -0.4064 -0.101 -0.242 0.965 82 88 107 0 0
0.0231 1.2114 -0.4052 -0.303 -0.301 0.904 82 86 107 0 0
0.0254 1.2126 -0.4056 0.622 -0.171 0.764 84 88 107 0 0
0.0300 1.2167 -0.4070 0.566 -0.176 0.805 85 89 108 0 0
0.0548 1.2080 -0.4047 0.645 -0.160 0.747 91 94 114 0 0
0.0572 1.2103 -0.4054 0.593 -0.182 0.784 91 93 114 0 0
0.0595 1.2126 -0.4062 0.211 -0.241 0.947 90 93 113 0 0
0.0619 1.2141 -0.4068 0.090 -0.208 0.974 91 91 112 0 0
0.0642 1.2151 -0.4071 -0.013 -0.192 0.981 86 86 107 0 0
0.0705 1.2040 -0.4036 0.174 -0.097 0.980 80 85 106 0 0
0.0728 1.2046 -0.4039 0.206 -0.101 0.973 82 86 106 0 0
0.0752 1.2059 -0.4043 0.276 -0.107 0.955 83 85 106 0 0
0.0776 1.2104 -0.4059 0.445 -0.218 0.869 83 86 106 0 0
0.0798 1.2088 -0.4054 0.830 -0.448 0.331 85 87 107 0 0
0.0823 1.2117 -0.4064 0.850 -0.487 0.201 86 86 103 0 0
0.0848 1.2155 -0.4077 0.850 -0.487 0.201 82 85 100 0 0
0.0872 1.2181 -0.4085 0.597 -0.800 -0.057 79 85 100 0 0
0.0896 1.2207 -0.4094 0.650 -0.755 -0.083 74 80 95 0 0
0.0920 1.2228 -0.4102 0.735 -0.642 0.217 82 87 100 0 0
0.0945 1.2252 -0.4110 0.421 -0.149 0.895 85 87 100 0 0
0.0971 1.2307 -0.4128 0.621 -0.153 0.769 87 88 102 0 0
0.1095 1.2108 -0.4066 0.095 -0.133 0.987 85 87 104 0 0
0.1142 1.2117 -0.4070 0.098 -0.111 0.989 84 86 102 0 0
0.1240 1.2200 -0.4098 0.185 -0.128 0.974 87 91 105 0 0
0.1264 1.2215 -0.4104 0.178 -0.126 0.976 86 89 105 0 0
0.1288 1.2222 -0.4107 0.103 -0.129 0.986 87 90 104 0 0
0.1312 1.2231 -0.4110 0.201 -0.151 0.968 87 92 105 0 0
0.1335 1.2239 -0.4113 0.194 -0.148 0.970 88 94 105 0 0
0.1487 1.2145 -0.4085 -0.047 -0.085 0.995 92 95 108 0 0
0.1720 1.2179 -0.4101 0.171 -0.085 0.982 84 91 99 0 0
0.2154 1.2170 -0.4106 0.347 -0.088 0.934 76 81 103 0 0
0.2177 1.2171 -0.4106 0.363 -0.087 0.928 75 81 103 0 0
0.2206 1.2203 -0.4118 0.304 -0.101 0.947 76 82 102 0 0
0.2380 1.2151 -0.4104 0.255 -0.075 0.964 68 72 96 0 0
0.2387 1.2060 -0.4074 0.087 -0.074 0.993 68 72 94 0 0
0.2434 1.2068 -0.4078 0.075 -0.074 0.994 70 75 96 0 0
0.2475 1.2041 -0.4070 0.153 -0.079 0.985 69 74 94 0 0
0.2496 1.2034 -0.4068 0.121 -0.073 0.990 70 75 94 0 0
0.2536 1.2124 -0.4098 0.170 -0.069 0.983 69 74 93 0 0
0.2560 1.2129 -0.4100 0.176 -0.073 0.982 74 78 97 0 0
0.2580 1.2113 -0.4095 0.193 -0.077 0.978 74 77 96 0 0
0.2605 1.2123 -0.4099 0.167 -0.077 0.983 75 78 95 0 0
0.2626 1.2116 -0.4097 0.127 -0.075 0.989 74 77 96 0 0
0.2647 1.2106 -0.4094 0.117 -0.078 0.990 70 77 94 0 0
0.2692 1.2103 -0.4094 -0.012 -0.072 0.997 67 73 92 0 0
0.2714 1.2100 -0.4094 -0.016 -0.072 0.997 64 69 89 0 0
0.2849 1.2088 -0.4092 0.218 -0.091 0.972 64 68 88 0 0
0.2873 1.2093 -0.4094 0.299 -0.094 0.950 64 69 90 0 0
0.2901 1.2117 -0.4102 0.339 -0.092 0.936 64 69 89 0 0
0.2926 1.2129 -0.4107 0.281 -0.095 0.955 66 68 90 0 0
0.2952 1.2140 -0.4111 0.379 -0.099 0.920 66 68 90 0 0
0.3046 1.2151 -0.4116 0.325 -0.106 0.940 67 70 91 0 0
0.3290 1.2116 -0.4109 0.505 -0.209 0.837 67 72 91 0 0
0.3319 1.2140 -0.4118 0.586 -0.225 0.779 68 76 94 0 0
0.3352 1.2177 -0.4131 0.589 -0.225 0.776 71 81 95 0 0
0.3385 1.2217 -0.4144 0.589 -0.225 0.776 71 83 95 0 0
0.3418 1.2257 -0.4158 0.589 -0.225 0.776 76 86 101 0 0
0.3452 1.2299 -0.4172 0.603 -0.216 0.768 80 88 104 0 0
0.3544 1.2122 -0.4116 0.208 -0.085 0.974 78 86 106 0 0
0.3667 1.2152 -0.4128 0.237 -0.087 0.968 78 84 107 0 0
0.3666 1.2066 -0.4100 0.338 -0.078 0.938 79 84 109 0 0
0.3697 1.2092 -0.4109 0.456 -0.157 0.876 80 85 109 0 0
0.3729 1.2124 -0.4120 0.456 -0.157 0.876 82 87 108 0 0
0.3759 1.2148 -0.4129 0.500 -0.172 0.849 82 87 109 0 0
0.3790 1.2178 -0.4139 0.492 -0.163 0.855 81 87 109 0 0
0.3824 1.2215 -0.4152 0.446 -0.176 0.878 82 88 111 0 0
0.3825 1.2139 -0.4127 0.502 -0.192 0.843 82 89 110 0 0
0.3836 1.2098 -0.4114 0.481 -0.158 0.863 82 89 109 0 0
0.3864 1.2116 -0.4120 0.545 -0.167 0.822 82 89 108 0 0
0.3894 1.2139 -0.4128 0.490 -0.154 0.858 79 87 107 0 0
0.3944 1.2229 -0.4159 0.117 -0.122 0.986 78 87 106 0 0
0.3970 1.2240 -0.4163 0.056 -0.120 0.991 78 88 107 0 0
0.3981 1.2199 -0.4150 0.106 -0.114 0.988 79 89 109 0 0
0.4255 1.2115 -0.4127 0.222 -0.073 0.972 79 89 107 0 0
0.4285 1.2138 -0.4135 0.072 -0.071 0.995 82 91 109 0 0
0.4301 1.2118 -0.4129 0.191 -0.079 0.978 82 92 107 0 0
0.4327 1.2125 -0.4132 0.251 -0.078 0.965 82 91 107 0 0
0.4348 1.2119 -0.4130 0.294 -0.078 0.952 81 89 106 0 0
0.4376 1.2136 -0.4136 0.296 -0.078 0.952 80 90 106 0 0
0.4397 1.2130 -0.4135 0.167 -0.079 0.983 81 90 109 0 0
0.4422 1.2134 -0.4136 0.184 -0.077 0.980 81 91 109 0 0
0.4447 1.2139 -0.4139 0.196 -0.076 0.978 81 92 108 0 0
0.4474 1.2152 -0.4143 0.171 -0.076 0.982 80 91 108 0 0
0.4710 1.2166 -0.4152 0.193 -0.067 0.979 84 92 106 0 0
0.4735 1.2173 -0.4155 0.185 -0.067 0.980 85 95 105 0 0
0.4871 1.2163 -0.4155 0.250 -0.086 0.965 83 91 104 0 0
0.4899 1.2177 -0.4160 0.249 -0.085 0.965 83 93 104 0 0
0.4910 1.2145 -0.4149 0.421 -0.107 0.901 83 94 103 0 0
0.5005 1.2152 -0.4153 0.388 -0.098 0.916 80 86 101 0 0
0.5027 1.2150 -0.4153 0.231 -0.070 0.970 77 85 100 0 0
0.5048 1.2144 -0.4152 0.310 -0.096 0.946 77 86 99 0 0
0.5080 1.2167 -0.4160 0.284 -0.095 0.954 78 87 98 0 0
0.5069 1.2079 -0.4131 0.184 -0.102 0.978 78 88 98 0 0
0.5097 1.2093 -0.4136 0.186 -0.098 0.978 78 88 97 0 0
0.5140 1.2143 -0.4153 0.233 -0.078 0.969 78 86 97 0 0
0.5150 1.2109 -0.4142 0.124 -0.072 0.990 76 82 97 0 0
0.5174 1.2113 -0.4144 0.115 -0.071 0.991 75 82 97 0 0
0.5207 1.2137 -0.4152 0.211 -0.073 0.975 75 82 96 0 0
0.5243 1.2170 -0.4164 0.296 -0.073 0.952 74 81 95 0 0
0.5261 1.2157 -0.4160 0.238 -0.072 0.969 75 81 98 0 0
0.5290 1.2171 -0.4165 0.210 -0.071 0.975 77 82 101 0 0
0.5309 1.2159 -0.4161 0.170 -0.074 0.983 76 81 99 0 0
0.5336 1.2169 -0.4165 0.159 -0.075 0.984 74 79 98 0 0
0.5352 1.2153 -0.4160 0.014 -0.070 0.997 72 78 95 0 0
0.5373 1.2147 -0.4159 0.149 -0.074 0.986 73 79 96 0 0
0.5396 1.2147 -0.4159 0.093 -0.073 0.993 75 80 98 0 0
0.5425 1.2161 -0.4164 0.165 -0.072 0.984 75 80 98 0 0
0.5448 1.2160 -0.4164 0.236 -0.083 0.968 76 82 101 0 0
0.5473 1.2165 -0.4166 0.229 -0.082 0.970 78 83 102 0 0
0.5483 1.2135 -0.4157 0.208 -0.088 0.974 79 84 103 0 0
0.5507 1.2136 -0.4157 0.238 -0.083 0.968 80 86 101 0 0
0.5536 1.2150 -0.4163 0.248 -0.083 0.965 80 86 101 0 0
0.5565 1.2163 -0.4167 0.219 -0.085 0.972 80 86 102 0 0
0.5594 1.2176 -0.4172 0.206 -0.083 0.975 83 89 103 0 0
0.5618 1.2180 -0.4174 0.120 -0.080 0.990 84 90 104 0 0
0.5636 1.2166 -0.4170 0.163 -0.081 0.983 84 90 104 0 0
0.5643 1.2130 -0.4158 0.197 -0.093 0.976 86 91 108 0 0
0.5669 1.2137 -0.4161 0.204 -0.094 0.974 89 92 111 0 0
0.5718 1.2195 -0.4181 0.160 -0.085 0.983 90 90 111 0 0
0.5744 1.2200 -0.4183 0.148 -0.085 0.985 91 91 111 0 0
0.5773 1.2214 -0.4188 0.128 -0.085 0.988 89 91 109 0 0
0.5789 1.2197 -0.4183 0.200 -0.085 0.976 86 92 110 0 0
0.5830 1.2237 -0.4196 0.072 -0.086 0.994 87 91 111 0 0
0.5852 1.2234 -0.4196 0.072 -0.082 0.994 88 92 112 0 0
0.5893 1.2274 -0.4210 0.133 -0.122 0.984 89 93 112 0 0
0.5909 1.2257 -0.4204 0.025 -0.118 0.993 88 92 110 0 0
0.5936 1.2266 -0.4208 -0.010 -0.111 0.994 86 92 111 0 0
0.5952 1.2099 -0.4154 0.058 -0.093 0.994 86 89 110 0 0
0.5977 1.2101 -0.4155 0.125 -0.105 0.987 85 89 109 0 0
0.5983 1.2066 -0.4144 0.002 -0.106 0.994 86 90 109 0 0
0.6005 1.2064 -0.4144 0.013 -0.105 0.994 83 89 108 0 0
0.6044 1.2096 -0.4155 0.263 -0.082 0.961 83 87 107 0 0
0.6085 1.2087 -0.4152 0.294 -0.079 0.953 85 90 107 0 0
0.6131 1.2085 -0.4153 0.152 -0.087 0.985 87 93 108 0 0
0.6161 1.2100 -0.4158 0.195 -0.088 0.977 85 91 107 0 0
0.6188 1.2108 -0.4161 0.181 -0.088 0.980 85 91 105 0 0
0.6207 1.2100 -0.4159 0.306 -0.187 0.934 85 91 105 0 0
0.6236 1.2112 -0.4164 0.247 -0.183 0.951 84 90 102 0 0
0.6259 1.2112 -0.4164 0.209 -0.209 0.955 79 86 97 0 0
0.6293 1.2135 -0.4172 0.170 -0.157 0.973 75 82 90 0 0
0.6322 1.2148 -0.4177 0.164 -0.147 0.975 70 80 83 0 0
0.6359 1.2174 -0.4186 0.252 -0.163 0.954 67 80 77 0 0
0.6389 1.2188 -0.4191 0.295 -0.179 0.939 65 81 79 0 0
0.6417 1.2198 -0.4195 0.240 -0.131 0.962 66 83 84 0 0
0.6449 1.2215 -0.4201 0.236 -0.121 0.964 72 85 92 0 0
0.6479 1.2229 -0.4206 0.193 -0.096 0.976 79 87 97 0 0
0.6561 1.2252 -0.4215 0.161 -0.075 0.984 82 87 103 0 0
0.6587 1.2258 -0.4218 0.171 -0.099 0.980 81 87 105 0 0
0.6610 1.2257 -0.4218 0.207 -0.097 0.974 81 87 106 0 0
0.6636 1.2263 -0.4220 0.214 -0.096 0.972 81 90 107 0 0
0.6652 1.2248 -0.4216 0.290 -0.098 0.952 80 89 105 0 0
0.6744 1.2200 -0.4202 0.169 -0.085 0.982 76 84 98 0 0
0.6827 1.2225 -0.4211 0.305 -0.119 0.945 75 84 98 0 0
0.6858 1.2239 -0.4216 0.240 -0.130 0.962 76 85 98 0 0
0.6867 1.2211 -0.4208 0.203 -0.107 0.973 77 86 98 0 0
0.6911 1.2207 -0.4207 0.261 -0.098 0.960 76 89 98 0 0
0.7425 1.2290 -0.4244 0.355 -0.119 0.927 84 95 107 0 0
0.7429 1.2214 -0.4219 0.113 -0.070 0.991 87 94 110 0 0
0.7440 1.2193 -0.4212 0.209 -0.095 0.973 87 94 112 0 0
0.7455 1.2179 -0.4208 0.171 -0.104 0.980 86 94 112 0 0
0.7487 1.2194 -0.4213 0.152 -0.108 0.982 87 96 112 0 0
0.7554 1.2228 -0.4226 0.258 -0.106 0.960 86 97 110 0 0
0.7585 1.2241 -0.4231 0.285 -0.108 0.952 84 95 110 0 0
0.7619 1.2260 -0.4237 0.303 -0.107 0.947 83 94 109 0 0
-0.6731 1.2550 -0.4086 -0.437 -0.172 0.883 75 82 101 0 0
-0.6686 1.2508 -0.4073 -0.450 -0.156 0.879 74 82 101 0 0
-0.6678 1.2537 -0.4083 -0.318 -0.157 0.935 75 82 102 0 0
-0.6637 1.2502 -0.4072 -0.189 -0.133 0.973 76 82 103 0 0
-0.6610 1.2496 -0.4071 -0.187 -0.133 0.973 78 83 103 0 0
-0.6636 1.2588 -0.4101 -0.418 -0.136 0.898 79 84 104 0 0
-0.6585 1.2535 -0.4084 -0.422 -0.135 0.897 78 84 104 0 0
-0.6535 1.2484 -0.4068 -0.378 -0.098 0.921 76 83 103 0 0
-0.6538 1.2533 -0.4084 -0.221 -0.105 0.969 76 83 103 0 0
-0.6505 1.2514 -0.4079 -0.221 -0.105 0.969 75 83 102 0 0
-0.6504 1.2558 -0.4093 -0.289 -0.087 0.953 75 82 103 0 0
-0.6456 1.2509 -0.4078 -0.217 -0.122 0.968 75 81 102 0 0
-0.6430 1.2503 -0.4076 -0.188 -0.119 0.975 76 82 102 0 0
-0.6341 1.2647 -0.4125 -0.528 -0.281 0.801 77 84 104 0 0
-0.6298 1.2607 -0.4113 -0.481 -0.269 0.834 78 85 104 0 0
-0.6256 1.2569 -0.4101 -0.469 -0.264 0.843 78 84 104 0 0
-0.6235 1.2574 -0.4104 -0.432 -0.280 0.857 76 84 103 0 0
-0.6180 1.2509 -0.4083 0.225 -0.294 0.929 76 83 103 0 0
-0.6159 1.2514 -0.4085 0.161 -0.310 0.937 76 83 103 0 0
-0.6135 1.2511 -0.4085 -0.072 -0.366 0.928 74 82 102 0 0
-0.6144 1.2577 -0.4106 -0.347 -0.235 0.908 74 82 101 0 0
-0.6111 1.2557 -0.4100 -0.345 -0.232 0.910 75 82 101 0 0
-0.6078 1.2536 -0.4094 -0.379 -0.234 0.895 73 82 101 0 0
-0.6063 1.2554 -0.4100 -0.415 -0.183 0.891 74 82 101 0 0
-0.5895 1.2491 -0.4083 -0.241 -0.105 0.965 78 86 104 0 0
-0.5828 1.2496 -0.4086 -0.227 -0.085 0.970 76 85 106 0 0
-0.5830 1.2651 -0.4136 -0.523 -0.602 -0.603 76 84 108 0 0
-0.5775 1.2580 -0.4114 -0.543 -0.596 -0.592 77 84 108 0 0
-0.5696 1.2612 -0.4126 -0.293 -0.077 0.953 74 84 106 0 0
-0.5665 1.2647 -0.4138 -0.371 -0.082 0.925 78 85 108 0 0
-0.5624 1.2606 -0.4125 -0.339 -0.083 0.937 78 85 108 0 0
-0.5586 1.2572 -0.4115 -0.334 -0.085 0.939 77 85 108 0 0
-0.5551 1.2547 -0.4107 -0.379 -0.072 0.922 78 86 109 0 0
-0.5519 1.2526 -0.4101 -0.363 -0.079 0.929 79 85 110 0 0
-0.5480 1.2489 -0.4090 -0.357 -0.077 0.931 79 87 113 0 0
-0.5440 1.2450 -0.4078 -0.357 -0.077 0.931 79 88 113 0 0
-0.5417 1.2451 -0.4079 -0.269 -0.078 0.960 78 89 114 0 0
-0.5425 1.2523 -0.4102 -0.246 -0.084 0.966 78 89 113 0 0
-0.5339 1.2592 -0.4126 -0.391 -0.080 0.917 82 90 110 0 0
-0.5296 1.2545 -0.4111 -0.396 -0.080 0.915 82 91 113 0 0
-0.4997 1.2492 -0.4100 -0.234 -0.067 0.970 81 88 112 0 0
-0.4971 1.2485 -0.4098 -0.242 -0.064 0.968 81 89 113 0 0
-0.4459 1.2410 -0.4083 -0.105 -0.089 0.990 78 86 107 0 0
-0.4434 1.2404 -0.4082 -0.094 -0.091 0.991 79 87 108 0 0
-0.4415 1.2414 -0.4085 -0.142 -0.104 0.984 80 88 105 0 0
-0.4341 1.2533 -0.4125 -0.394 -0.070 0.916 81 91 108 0 0
-0.2779 1.2509 -0.4147 -0.735 -0.202 0.648 83 86 117 0 0
-0.2739 1.2438 -0.4125 -0.735 -0.202 0.648 83 87 116 0 0
-0.2714 1.2426 -0.4121 -0.338 -0.184 0.923 83 86 116 0 0
-0.2686 1.2407 -0.4115 -0.240 -0.149 0.959 86 88 117 0 0
-0.2468 1.2354 -0.4102 -0.346 -0.132 0.929 91 91 119 0 0
-0.2333 1.2257 -0.4073 0.033 -0.224 0.974 86 87 116 0 0
-0.2306 1.2232 -0.4065 -0.206 -0.265 0.942 86 86 114 0 0
-0.1788 1.2273 -0.4088 0.100 -0.824 0.558 74 77 93 0 0
-0.1601 1.2249 -0.4084 0.032 -0.916 0.400 87 80 101 0 0
-0.1490 1.2268 -0.4092 0.224 -0.970 -0.092 88 84 106 0 0
-0.1467 1.2273 -0.4094 0.224 -0.970 -0.092 87 84 106 0 0
-0.1445 1.2278 -0.4096 0.224 -0.970 -0.092 86 84 105 0 0
-0.1424 1.2289 -0.4100 0.136 -0.967 -0.215 84 82 104 0 0
-0.1401 1.2292 -0.4102 0.136 -0.967 -0.215 86 83 104 0 0
-0.1280 1.2239 -0.4087 0.140 -0.223 0.965 83 82 103 0 0
-0.1212 1.2246 -0.4090 0.037 -0.215 0.976 78 80 101 0 0
-0.1034 1.2294 -0.4109 0.236 -0.389 0.890 79 79 100 0 0
-0.1010 1.2287 -0.4107 -0.015 -0.298 0.955 78 78 102 0 0
-0.0986 1.2273 -0.4103 -0.124 -0.311 0.942 79 79 105 0 0
-0.0883 1.2136 -0.4060 -0.643 -0.129 0.755 86 83 111 0 0
-0.0858 1.2105 -0.4051 -0.645 -0.123 0.754 86 84 112 0 0
-0.0834 1.2094 -0.4048 -0.724 -0.106 0.681 86 84 112 0 0
-0.0759 1.2301 -0.4117 0.027 -0.147 0.989 94 91 116 0 0
-0.0735 1.2290 -0.4114 0.026 -0.154 0.988 94 92 118 0 0
-0.0713 1.2309 -0.4120 -0.492 -0.149 0.857 91 93 118 0 0
-0.0688 1.2279 -0.4111 -0.468 -0.148 0.871 90 91 114 0 0
-0.0665 1.2276 -0.4111 -0.420 -0.164 0.892 89 89 115 0 0
-0.0641 1.2253 -0.4103 -0.420 -0.164 0.892 88 88 116 0 0
-0.0581 1.2404 -0.4154 -0.912 -0.208 0.354 87 87 112 0 0
-0.0415 1.2331 -0.4133 0.469 -0.273 0.840 87 88 115 0 0
-0.0392 1.2348 -0.4139 0.439 -0.286 0.852 86 89 114 0 0
-0.0370 1.2363 -0.4144 0.424 -0.377 0.823 88 89 114 0 0
-0.0347 1.2378 -0.4150 0.743 -0.338 0.578 88 89 115 0 0
-0.0325 1.2402 -0.4158 0.770 -0.393 0.502 87 89 112 0 0
-0.0303 1.2420 -0.4164 0.835 -0.377 0.401 87 89 112 0 0
-0.0182 1.2262 -0.4115 0.761 -0.607 -0.228 85 87 113 0 0
-0.0159 1.2248 -0.4111 0.598 -0.802 -0.010 83 86 113 0 0
-0.0136 1.2253 -0.4113 0.663 -0.741 0.106 82 87 110 0 0
0.0073 1.1948 -0.4017 -0.735 -0.298 0.609 85 87 108 0 0
0.0096 1.1914 -0.4006 -0.771 -0.309 0.556 85 87 108 0 0
0.0118 1.1875 -0.3994 -0.711 -0.319 0.627 85 88 109 0 0
0.0185 1.2093 -0.4066 -0.324 -0.352 0.878 83 88 109 0 0
0.0208 1.2087 -0.4065 -0.114 -0.375 0.920 85 90 110 0 0
0.0253 1.2103 -0.4071 -0.041 -0.074 0.996 89 90 111 0 0
0.0276 1.2097 -0.4070 0.039 -0.075 0.996 89 92 113 0 0
0.0388 1.2034 -0.4051 -0.022 -0.068 0.997 87 90 111 0 0
0.0570 1.2054 -0.4061 0.430 -0.133 0.893 87 90 111 0 0
0.0592 1.2039 -0.4057 0.304 -0.117 0.945 86 89 110 0 0
0.0615 1.2055 -0.4062 0.304 -0.117 0.945 87 88 110 0 0
0.0638 1.2055 -0.4063 0.178 -0.138 0.974 85 86 108 0 0
0.0680 1.1973 -0.4036 0.168 -0.097 0.981 81 86 107 0 0
0.0703 1.1983 -0.4040 0.192 -0.101 0.976 83 88 108 0 0
0.0774 1.2063 -0.4068 0.446 -0.222 0.867 83 85 98 0 0
0.0797 1.2072 -0.4071 0.810 -0.461 0.362 82 86 96 0 0
0.0822 1.2106 -0.4083 0.810 -0.461 0.362 74 79 88 0 0
0.0846 1.2140 -0.4094 0.810 -0.461 0.362 75 82 92 0 0
0.0872 1.2182 -0.4108 0.597 -0.800 -0.057 81 87 101 0 0
0.0895 1.2186 -0.4110 0.240 -0.333 0.912 80 84 102 0 0
0.0917 1.2171 -0.4106 0.257 -0.237 0.937 82 85 102 0 0
0.0968 1.2261 -0.4136 0.614 -0.136 0.778 82 87 102 0 0
0.0997 1.1998 -0.4051 0.299 -0.126 0.946 82 86 101 0 0
0.1068 1.2053 -0.4070 0.106 -0.110 0.988 85 91 106 0 0
0.1137 1.2063 -0.4074 0.061 -0.108 0.992 83 89 102 0 0
0.1158 1.2046 -0.4069 -0.030 -0.125 0.992 86 92 103 0 0
0.1184 1.2076 -0.4080 -0.085 -0.082 0.993 87 94 103 0 0
0.1206 1.2069 -0.4078 -0.002 -0.094 0.996 87 94 102 0 0
0.1259 1.2163 -0.4110 0.159 -0.125 0.979 87 93 105 0 0
0.1282 1.2167 -0.4111 0.135 -0.129 0.982 87 93 105 0 0
0.1305 1.2167 -0.4112 0.342 -0.151 0.928 87 94 106 0 0
0.1329 1.2178 -0.4116 0.281 -0.131 0.951 89 95 106 0 0
0.1354 1.2202 -0.4124 0.260 -0.167 0.951 89 96 107 0 0
0.1379 1.2214 -0.4128 0.272 -0.161 0.949 88 94 106 0 0
0.1401 1.2213 -0.4128 0.111 -0.143 0.984 90 96 109 0 0
0.1423 1.1977 -0.4052 0.257 -0.116 0.959 91 97 108 0 0
0.1447 1.1991 -0.4057 0.257 -0.116 0.959 91 95 107 0 0
0.1480 1.2087 -0.4089 -0.042 -0.087 0.995 90 96 107 0 0
0.1943 1.2142 -0.4116 0.079 -0.094 0.992 77 82 104 0 0
0.1959 1.1936 -0.4048 0.466 -0.095 0.879 77 82 105 0 0
0.2039 1.2019 -0.4077 0.348 -0.093 0.933 77 83 103 0 0
0.2076 1.2112 -0.4108 0.193 -0.095 0.977 77 84 104 0 0
0.2080 1.1986 -0.4067 0.262 -0.098 0.960 76 83 105 0 0
0.2106 1.2007 -0.4074 0.256 -0.096 0.962 75 81 104 0 0
0.2155 1.2036 -0.4085 0.292 -0.097 0.951 79 84 107 0 0
0.2170 1.1985 -0.4068 0.034 -0.101 0.994 78 83 106 0 0
0.2199 1.2025 -0.4082 0.445 -0.085 0.891 77 83 104 0 0
0.2321 1.2073 -0.4100 0.329 -0.074 0.941 73 78 101 0 0
0.2347 1.2091 -0.4106 0.313 -0.074 0.947 71 75 101 0 0
0.2361 1.2043 -0.4091 0.125 -0.081 0.989 70 74 97 0 0
0.2422 1.2002 -0.4079 0.033 -0.071 0.997 76 82 106 0 0
0.2443 1.1994 -0.4076 0.013 -0.071 0.997 78 82 105 0 0
0.2461 1.1970 -0.4069 0.130 -0.073 0.989 75 79 100 0 0
0.2485 1.1977 -0.4072 0.130 -0.073 0.989 73 76 97 0 0
0.2518 1.2032 -0.4090 0.061 -0.072 0.996 70 74 97 0 0
0.2540 1.2029 -0.4090 0.115 -0.068 0.991 69 73 98 0 0
0.2564 1.2034 -0.4092 0.110 -0.068 0.992 70 73 97 0 0
0.2912 1.2064 -0.4108 0.331 -0.098 0.938 65 69 90 0 0
0.2938 1.2077 -0.4113 0.427 -0.100 0.899 65 67 88 0 0
0.2949 1.2026 -0.4097 0.378 -0.098 0.920 65 67 88 0 0
0.3459 1.2062 -0.4118 0.017 -0.122 0.992 79 86 106 0 0
0.3482 1.2062 -0.4118 0.017 -0.122 0.992 80 86 109 0 0
0.3505 1.2062 -0.4119 -0.049 -0.128 0.991 78 85 107 0 0
0.3526 1.2057 -0.4117 -0.184 -0.110 0.977 79 87 106 0 0
0.3546 1.2047 -0.4114 -0.233 -0.113 0.966 78 85 105 0 0
0.3593 1.2049 -0.4116 0.284 -0.088 0.955 78 84 105 0 0
0.3707 1.2049 -0.4118 0.482 -0.146 0.864 77 85 110 0 0
0.3740 1.2084 -0.4130 0.497 -0.145 0.855 77 83 108 0 0
0.3994 1.2016 -0.4113 0.235 -0.076 0.969 80 90 113 0 0
0.4113 1.2031 -0.4120 0.232 -0.072 0.970 82 89 109 0 0
0.4192 1.2066 -0.4133 0.152 -0.067 0.986 82 90 111 0 0
0.4217 1.2073 -0.4136 0.139 -0.068 0.988 83 91 111 0 0
0.4228 1.2036 -0.4124 0.189 -0.071 0.980 81 90 109 0 0
0.4251 1.2035 -0.4124 0.131 -0.070 0.989 81 92 109 0 0
0.4274 1.2035 -0.4124 0.143 -0.070 0.987 83 95 109 0 0
0.4297 1.2037 -0.4125 0.207 -0.079 0.975 88 97 109 0 0
0.4322 1.2042 -0.4127 0.233 -0.079 0.969 87 97 108 0 0
0.4345 1.2045 -0.4129 0.186 -0.073 0.980 87 99 109 0 0
0.4577 1.2052 -0.4135 0.243 -0.064 0.968 87 95 108 0 0
0.4605 1.2068 -0.4141 0.244 -0.063 0.968 87 94 109 0 0
0.4632 1.2079 -0.4145 0.225 -0.067 0.972 86 92 109 0 0
0.4659 1.2091 -0.4150 0.216 -0.068 0.974 84 90 109 0 0
0.4843 1.2092 -0.4153 0.258 -0.088 0.962 80 88 104 0 0
0.4868 1.2097 -0.4156 0.271 -0.096 0.958 80 87 104 0 0
0.4877 1.2058 -0.4143 0.398 -0.106 0.911 82 90 103 0 0
0.4902 1.2064 -0.4145 0.207 -0.069 0.976 82 90 103 0 0
0.4930 1.2077 -0.4150 0.218 -0.070 0.973 83 89 104 0 0
0.4947 1.2063 -0.4146 0.248 -0.069 0.966 84 89 103 0 0
0.5013 1.1996 -0.4125 0.232 -0.095 0.968 78 87 102 0 0
0.5044 1.2016 -0.4133 0.197 -0.102 0.975 81 89 101 0 0
0.5071 1.2028 -0.4137 0.187 -0.098 0.978 80 88 101 0 0
0.5099 1.2040 -0.4141 0.112 -0.072 0.991 80 88 98 0 0
0.5124 1.2046 -0.4144 0.112 -0.072 0.991 78 86 98 0 0
0.5150 1.2054 -0.4147 0.120 -0.072 0.990 76 87 97 0 0
0.5171 1.2048 -0.4145 0.259 -0.074 0.963 76 88 98 0 0
0.5199 1.2062 -0.4150 0.250 -0.071 0.966 76 88 98 0 0
0.5224 1.2066 -0.4152 0.248 -0.073 0.966 78 87 98 0 0
0.5253 1.2082 -0.4158 0.229 -0.073 0.971 78 86 99 0 0
0.5280 1.2090 -0.4161 0.188 -0.079 0.979 79 86 100 0 0
0.5305 1.2096 -0.4164 0.012 -0.069 0.998 79 85 101 0 0
0.5328 1.2095 -0.4164 0.017 -0.069 0.997 76 84 101 0 0
0.5344 1.2079 -0.4159 0.109 -0.072 0.991 73 81 99 0 0
0.5369 1.2084 -0.4161 0.100 -0.073 0.992 75 81 99 0 0
0.5392 1.2083 -0.4161 0.127 -0.077 0.989 75 82 98 0 0
0.5417 1.2088 -0.4163 0.232 -0.084 0.969 76 82 99 0 0
0.5425 1.2052 -0.4151 0.280 -0.091 0.956 77 84 103 0 0
0.5450 1.2057 -0.4153 0.227 -0.086 0.970 80 87 103 0 0
0.5476 1.2063 -0.4156 0.238 -0.083 0.968 82 89 100 0 0
0.5506 1.2080 -0.4162 0.238 -0.083 0.968 83 89 102 0 0
0.5534 1.2092 -0.4166 0.210 -0.084 0.974 81 88 102 0 0
0.5563 1.2106 -0.4171 0.210 -0.084 0.974 83 91 104 0 0
0.5589 1.2114 -0.4175 0.140 -0.083 0.987 85 93 106 0 0
0.5607 1.2100 -0.4171 0.186 -0.081 0.979 86 93 106 0 0
0.5614 1.2064 -0.4159 0.203 -0.093 0.975 85 92 108 0 0
0.5641 1.2074 -0.4162 0.138 -0.092 0.986 86 91 110 0 0
0.5668 1.2083 -0.4166 0.162 -0.091 0.983 88 92 111 0 0
0.5688 1.2076 -0.4164 0.195 -0.091 0.977 89 92 111 0 0
0.5707 1.2066 -0.4161 0.185 -0.095 0.978 88 92 111 0 0
0.5748 1.2107 -0.4175 0.158 -0.086 0.984 89 92 112 0 0
0.5773 1.2111 -0.4177 0.139 -0.085 0.987 88 91 111 0 0
0.5880 1.2042 -0.4157 0.344 -0.085 0.935 92 94 113 0 0
0.5913 1.2064 -0.4164 0.276 -0.084 0.958 93 92 112 0 0
0.5915 1.2019 -0.4150 0.170 -0.100 0.980 90 92 112 0 0
0.5938 1.2020 -0.4150 0.149 -0.095 0.984 88 92 111 0 0
0.5956 1.2008 -0.4147 0.075 -0.092 0.993 88 91 111 0 0
0.6069 1.2006 -0.4148 0.197 -0.089 0.976 87 92 110 0 0
0.6099 1.2021 -0.4154 0.189 -0.089 0.978 86 92 108 0 0
0.6128 1.2034 -0.4159 0.191 -0.088 0.978 87 93 108 0 0
0.6154 1.2040 -0.4161 0.181 -0.088 0.980 87 92 106 0 0
0.6177 1.2040 -0.4161 0.306 -0.187 0.934 85 90 102 0 0
0.6208 1.2056 -0.4167 0.247 -0.183 0.951 81 86 94 0 0
0.6234 1.2061 -0.4169 0.209 -0.209 0.955 73 80 83 0 0
0.6265 1.2079 -0.4176 0.170 -0.157 0.973 66 77 77 0 0
0.6294 1.2091 -0.4180 0.164 -0.147 0.975 64 78 79 0 0
0.6326 1.2109 -0.4187 0.224 -0.129 0.966 69 83 86 0 0
0.6356 1.2123 -0.4192 0.240 -0.129 0.962 71 86 93 0 0
0.6519 1.2171 -0.4211 0.190 -0.075 0.979 78 85 102 0 0
0.6536 1.2159 -0.4207 0.263 -0.109 0.959 78 85 102 0 0
0.6581 1.2154 -0.4207 0.289 -0.101 0.952 82 88 103 0 0
0.6605 1.2157 -0.4208 0.258 -0.104 0.961 83 89 104 0 0
0.6790 1.2155 -0.4211 0.295 -0.123 0.947 77 86 100 0 0
0.6821 1.2171 -0.4216 0.240 -0.130 0.962 77 87 98 0 0
0.6855 1.2190 -0.4223 0.225 -0.120 0.967 76 88 97 0 0
0.7245 1.2096 -0.4200 0.150 -0.081 0.985 85 97 110 0 0
0.7273 1.2105 -0.4203 0.170 -0.081 0.982 86 97 109 0 0
0.7303 1.2116 -0.4208 0.228 -0.079 0.971 86 96 108 0 0
0.7322 1.2110 -0.4206 0.203 -0.077 0.976 86 97 109 0 0
0.7342 1.2104 -0.4204 0.173 -0.078 0.982 89 98 109 0 0
0.7372 1.2115 -0.4209 0.183 -0.079 0.980 87 96 109 0 0
0.7385 1.2099 -0.4204 0.156 -0.101 0.982 88 95 111 0 0
0.7415 1.2110 -0.4208 0.149 -0.097 0.984 86 93 110 0 0
0.7441 1.2116 -0.4210 0.182 -0.101 0.978 85 93 108 0 0
0.7478 1.2139 -0.4218 0.237 -0.106 0.966 85 94 106 0 0
0.7501 1.2139 -0.4219 0.254 -0.105 0.961 86 95 107 0 0
0.7524 1.2137 -0.4219 0.299 -0.104 0.949 85 93 108 0 0
0.7562 1.2163 -0.4228 0.324 -0.103 0.941 84 94 107 0 0
0.7585 1.2163 -0.4228 0.289 -0.104 0.952 84 94 105 0 0
0.7595 1.2139 -0.4221 0.280 -0.099 0.955 82 94 105 0 0
-0.7071 1.2623 -0.4127 -0.630 -0.776 -0.008 74 83 100 0 0
-0.6797 1.2373 -0.4050 -0.720 -0.653 0.237 74 82 102 0 0
-0.6676 1.2445 -0.4076 -0.406 -0.160 0.900 75 83 101 0 0
-0.6640 1.2422 -0.4069 -0.365 -0.161 0.917 75 83 101 0 0
-0.6608 1.2404 -0.4064 -0.329 -0.138 0.934 74 81 101 0 0
-0.6598 1.2428 -0.4072 -0.308 -0.124 0.943 75 81 101 0 0
-0.6553 1.2387 -0.4059 -0.361 -0.135 0.923 76 81 101 0 0
-0.6581 1.2483 -0.4090 -0.405 -0.142 0.903 75 82 101 0 0
-0.6539 1.2447 -0.4079 -0.328 -0.136 0.935 72 81 100 0 0
-0.6501 1.2417 -0.4070 -0.326 -0.117 0.938 72 83 100 0 0
-0.6463 1.2389 -0.4062 -0.364 -0.140 0.921 73 81 100 0 0
-0.6467 1.2440 -0.4078 -0.237 -0.104 0.966 73 82 101 0 0
-0.6465 1.2481 -0.4092 -0.317 -0.213 0.924 71 81 100 0 0
-0.6398 1.2439 -0.4079 -0.250 -0.170 0.953 73 80 100 0 0
-0.6185 1.2425 -0.4079 -0.254 -0.115 0.960 75 82 101 0 0
-0.6157 1.2416 -0.4076 -0.241 -0.116 0.963 73 80 99 0 0
-0.6158 1.2464 -0.4092 -0.260 -0.085 0.962 73 80 99 0 0
-0.6125 1.2442 -0.4085 -0.213 -0.087 0.973 75 82 101 0 0
-0.6102 1.2443 -0.4086 -0.194 -0.082 0.978 73 80 100 0 0
-0.6134 1.2557 -0.4123 -0.392 -0.096 0.915 72 80 97 0 0
-0.6089 1.2512 -0.4109 -0.385 -0.094 0.918 73 80 98 0 0
-0.6053 1.2485 -0.4101 -0.464 -0.293 0.836 72 79 98 0 0
-0.6008 1.2439 -0.4087 -0.443 -0.267 0.856 73 81 100 0 0
-0.5739 1.2352 -0.4063 -0.156 -0.116 0.981 77 86 109 0 0
-0.5703 1.2472 -0.4103 -0.319 -0.075 0.945 77 85 106 0 0
-0.5667 1.2446 -0.4095 -0.310 -0.075 0.948 74 86 106 0 0
-0.5535 1.2405 -0.4084 -0.166 -0.079 0.983 77 85 104 0 0
-0.5527 1.2438 -0.4095 -0.273 -0.082 0.958 76 85 106 0 0
-0.5493 1.2414 -0.4088 -0.273 -0.082 0.958 77 86 108 0 0
-0.5464 1.2400 -0.4084 -0.296 -0.085 0.951 81 88 111 0 0
-0.5437 1.2392 -0.4082 -0.250 -0.082 0.965 82 89 113 0 0
-0.5406 1.2373 -0.4076 -0.224 -0.085 0.971 81 89 113 0 0
-0.5372 1.2347 -0.4068 -0.195 -0.084 0.977 80 90 114 0 0
-0.5350 1.2349 -0.4069 -0.174 -0.090 0.981 80 90 115 0 0
-0.5333 1.2363 -0.4074 0.067 -0.089 0.994 82 90 115 0 0
-0.5313 1.2368 -0.4076 0.181 -0.093 0.979 82 92 113 0 0
-0.5309 1.2412 -0.4091 -0.032 -0.086 0.996 81 90 113 0 0
-0.5190 1.2402 -0.4090 -0.349 -0.095 0.932 79 88 111 0 0
-0.5036 1.2361 -0.4079 -0.346 -0.080 0.935 82 89 114 0 0
-0.5000 1.2385 -0.4088 -0.486 -0.061 0.872 80 90 111 0 0
-0.4805 1.2474 -0.4120 -0.403 -0.071 0.912 81 90 111 0 0
-0.4389 1.2341 -0.4085 -0.209 -0.082 0.974 77 85 100 0 0
-0.4375 1.2366 -0.4093 -0.317 -0.079 0.945 80 88 101 0 0
-0.2766 1.2453 -0.4152 -0.753 -0.200 0.627 86 90 121 0 0
-0.2726 1.2377 -0.4128 -0.753 -0.200 0.627 91 91 122 0 0
-0.2705 1.2385 -0.4131 -0.375 -0.201 0.905 90 91 121 0 0
-0.2675 1.2356 -0.4122 -0.304 -0.136 0.943 88 90 120 0 0
-0.2645 1.2322 -0.4111 -0.334 -0.147 0.931 90 89 121 0 0
-0.2612 1.2276 -0.4097 -0.297 -0.122 0.947 92 92 123 0 0
