ply
format ascii 1.0
element vertex 822
property float x
property float y
property float z
property float nx
property float ny
property float nz
property uchar diffuse_red
property uchar diffuse_green
property uchar diffuse_blue
property uchar class
property uchar detection
end_header
25.7240 21.4196 7.7991 -0.985 -0.089 0.151 90 77 68 0 0
25.8463 21.1752 7.7797 -0.761 -0.621 -0.188 41 32 33 0 0
25.9342 20.9014 7.7542 -0.915 0.344 -0.210 48 41 40 0 0
24.9590 18.9996 7.4568 -0.993 -0.100 0.063 89 77 70 0 0
25.0103 18.9630 7.4564 -0.853 -0.523 -0.001 100 88 79 0 0
25.0522 18.9181 7.4543 -0.614 -0.785 -0.079 111 97 87 0 0
25.0978 18.7140 7.4338 -0.729 -0.660 -0.182 170 153 136 0 0
25.1696 18.5341 7.4181 -0.583 -0.805 -0.109 223 207 184 0 0
25.2202 18.4975 7.4177 -0.583 -0.805 -0.109 231 215 192 0 0
27.1360 19.3912 7.6680 -0.842 -0.480 -0.244 97 82 72 0 0
27.4515 19.4058 7.6936 0.081 -0.990 -0.114 94 80 71 0 0
27.7404 19.3962 7.7144 -0.956 -0.293 -0.017 85 72 65 0 0
26.4909 16.8269 7.3178 -0.874 0.485 0.012 58 47 41 0 0
25.5580 15.3925 7.0785 -0.855 0.518 0.023 99 91 80 0 0
25.6985 15.0098 7.0442 -0.595 -0.804 -0.005 248 240 221 0 0
25.7424 14.9730 7.0432 -0.529 -0.849 -0.009 253 246 227 0 0
25.7939 14.9419 7.0434 -0.828 -0.499 0.258 249 241 219 0 0
26.3833 14.6140 7.0496 -0.457 -0.809 -0.369 220 201 172 0 0
26.5258 14.5112 7.0484 -0.847 -0.499 -0.185 170 153 132 0 0
26.5950 14.3577 7.0356 -0.906 -0.390 -0.164 81 72 62 0 0
26.5950 14.2907 7.0277 -0.994 -0.109 0.017 93 82 71 0 0
26.6130 14.2365 7.0227 -1.000 0.021 -0.024 98 86 74 0 0
2.9594 30.2225 7.0503 -0.965 0.188 -0.185 128 145 130 0 0
3.4339 29.4824 6.9998 -0.797 -0.441 -0.413 57 62 53 0 0
3.9118 28.5875 6.9317 -0.925 -0.370 0.091 213 198 172 0 0
3.9339 28.4622 6.9188 -0.617 -0.785 0.052 229 213 188 0 0
4.3158 28.2920 6.9276 -0.221 -0.969 0.111 140 125 108 0 0
4.3710 28.2986 6.9325 -0.213 -0.968 0.129 206 195 174 0 0
4.4230 28.2928 6.9357 -0.122 -0.981 0.148 174 163 141 0 0
4.5435 28.3427 6.9505 0.454 -0.891 -0.013 84 73 62 0 0
5.4579 28.8706 7.0804 -0.865 -0.452 0.217 232 216 190 0 0
6.2557 28.1431 7.0556 0.168 -0.958 0.233 139 126 108 0 0
6.8823 29.0201 7.2044 0.753 -0.613 -0.238 97 85 76 0 0
9.0778 32.1842 7.7365 0.699 -0.658 -0.281 138 122 107 0 0
9.6110 32.5520 7.8192 -0.957 -0.234 0.173 224 208 182 0 0
9.6602 32.5014 7.8170 -0.155 -0.697 0.700 227 211 185 0 0
9.8762 32.3516 7.8158 -0.512 -0.442 0.736 236 221 194 0 0
9.9192 32.2846 7.8112 -0.894 -0.224 0.387 241 227 200 0 0
9.4716 29.2190 7.4215 -0.622 -0.731 -0.281 176 164 152 0 0
9.6357 29.1469 7.4254 -0.517 -0.798 0.311 176 162 148 0 0
9.6336 28.9803 7.4059 0.444 -0.863 -0.240 175 160 146 0 0
9.9525 28.9720 7.4288 -0.638 -0.385 -0.667 151 134 119 0 0
10.0940 29.0003 7.4427 0.605 -0.702 -0.376 144 128 113 0 0
10.3489 29.1417 7.4783 -0.036 -0.828 -0.560 144 132 119 0 0
10.5131 29.3766 7.5178 0.782 -0.617 -0.082 174 165 152 0 0
11.6051 30.9862 7.7867 0.648 -0.707 -0.284 119 107 98 0 0
11.7996 30.9489 7.7969 -0.961 -0.029 -0.273 182 166 146 0 0
11.8082 30.8076 7.7811 -0.961 -0.029 -0.273 169 153 134 0 0
12.0575 30.7336 7.7912 0.438 -0.893 -0.108 135 120 106 0 0
12.1437 30.7683 7.8017 -0.184 -0.951 0.248 130 116 103 0 0
12.2269 30.7956 7.8111 0.298 -0.954 0.017 130 116 103 0 0
12.3157 30.8347 7.8223 -0.282 -0.838 -0.466 137 123 110 0 0
12.3334 30.7160 7.8098 0.216 -0.832 -0.511 161 148 135 0 0
12.4562 30.8293 7.8322 0.638 -0.746 0.188 139 127 115 0 0
12.5784 30.9403 7.8542 0.625 -0.746 0.230 127 116 107 0 0
13.1620 31.5764 7.9718 0.462 -0.729 -0.505 65 62 63 0 0
13.2961 31.7059 7.9969 -0.382 0.061 -0.922 86 84 85 0 0
14.4300 32.0268 8.1192 -0.242 0.118 -0.963 164 155 143 0 0
14.4235 31.8573 8.0990 -0.202 0.055 -0.978 179 170 160 0 0
14.4239 31.7030 8.0811 -0.004 -0.131 -0.991 183 174 165 0 0
14.4441 31.5893 8.0694 -0.170 -0.032 -0.985 128 121 119 0 0
14.4765 31.3479 8.0438 -0.573 0.084 -0.815 63 58 56 0 0
19.4886 38.9710 9.3049 0.589 -0.691 -0.419 206 188 171 0 0
19.6456 39.0908 9.3306 0.473 -0.715 -0.516 220 206 185 0 0
19.7541 39.1177 9.3418 0.245 -0.622 -0.744 222 210 189 0 0
19.8662 39.1507 9.3541 -0.388 -0.259 -0.884 250 243 223 0 0
19.9201 37.6847 9.1878 -0.351 -0.534 -0.769 147 136 126 0 0
22.6429 39.9148 9.6508 -0.485 -0.051 -0.873 157 148 133 0 0
22.8381 40.0754 9.6841 0.330 -0.197 -0.923 129 119 112 0 0
17.1902 29.3131 8.0107 -0.352 -0.930 0.102 107 97 92 0 0
17.2458 29.2722 8.0101 -0.431 -0.518 0.739 166 158 143 0 0
17.3382 29.2920 8.0193 0.244 -0.942 0.232 138 129 121 0 0
17.4810 29.3943 8.0419 0.207 -0.978 0.028 122 114 107 0 0
17.5743 29.4143 8.0512 0.207 -0.978 0.028 173 164 155 0 0
17.5653 29.2669 8.0334 -0.333 -0.831 0.446 144 136 127 0 0
17.5971 29.1867 8.0265 -0.131 -0.776 0.617 175 167 160 0 0
17.7199 29.2542 8.0435 -0.162 -0.949 0.270 116 108 101 0 0
17.8067 29.2628 8.0510 0.054 -0.986 0.159 121 114 110 0 0
17.9066 29.2923 8.0619 0.223 -0.975 0.011 149 141 137 0 0
17.9906 29.2956 8.0686 -0.058 -0.992 -0.115 149 140 135 0 0
18.0656 29.2843 8.0729 -0.110 -0.972 0.208 171 165 158 0 0
18.1853 29.3440 8.0888 -0.538 -0.691 -0.483 140 136 130 0 0
18.2533 29.3208 8.0912 -0.210 -0.911 -0.356 118 115 111 0 0
18.3405 29.1974 8.0834 -0.604 -0.753 -0.260 188 177 173 0 0
18.4833 29.0319 8.0748 -0.649 -0.726 -0.225 149 142 136 0 0
18.5334 28.9807 8.0727 -0.772 -0.554 -0.312 100 90 85 0 0
18.5654 28.9018 8.0659 -0.550 -0.816 0.180 200 191 187 0 0
18.6327 28.8775 8.0681 -0.014 -0.997 0.076 105 99 94 0 0
18.6227 28.7342 8.0507 -0.410 -0.743 0.529 230 225 220 0 0
18.7917 28.8659 8.0787 0.157 -0.984 0.084 163 155 150 0 0
18.9142 28.9254 8.0948 0.342 -0.934 -0.101 138 123 114 0 0
18.9492 28.8511 8.0888 0.250 -0.870 -0.425 209 196 185 0 0
24.9836 36.3207 9.4086 -0.261 0.048 -0.964 138 140 140 0 0
25.0178 36.2192 9.3994 -0.256 0.000 -0.967 138 142 143 0 0
26.5552 35.5712 9.4393 0.139 -0.336 -0.931 142 145 148 0 0
26.6781 35.5931 9.4510 0.163 -0.416 -0.894 147 152 154 0 0
26.8022 35.6163 9.4630 0.211 -0.449 -0.868 146 152 153 0 0
20.9944 26.3378 7.9500 -0.748 -0.274 -0.605 197 181 163 0 0
21.9327 27.3287 8.1354 0.343 -0.692 -0.635 167 158 151 0 0
22.2318 27.4827 8.1757 0.035 -0.579 -0.815 130 121 118 0 0
22.2395 27.2610 8.1505 -0.784 -0.288 -0.550 116 108 103 0 0
22.8472 26.7703 8.1390 -0.292 -0.919 0.266 113 103 99 0 0
22.8159 26.1750 8.0675 0.078 -0.179 -0.981 115 106 100 0 0
30.9401 31.3772 9.2805 0.388 -0.333 -0.859 109 102 97 0 0
31.0097 31.3286 9.2800 0.202 -0.194 -0.960 113 104 99 0 0
31.2075 31.4179 9.3052 0.138 -0.151 -0.979 102 90 83 0 0
31.4181 31.5202 9.3329 0.175 -0.213 -0.961 78 65 56 0 0
31.6520 31.6463 9.3651 0.132 -0.238 -0.962 82 68 60 0 0
31.8399 31.7223 9.3880 0.222 -0.346 -0.911 77 63 56 0 0
31.7628 31.3921 9.3438 0.185 -0.685 -0.705 65 54 44 0 0
31.9239 31.4389 9.3613 -0.290 -0.738 -0.609 90 78 69 0 0
32.2321 31.5161 9.3934 0.328 -0.880 0.344 78 69 63 0 0
25.5533 24.1048 8.0320 0.334 -0.933 -0.133 83 77 71 0 0
25.7429 24.2009 8.0574 -0.778 -0.223 -0.588 48 50 50 0 0
25.7704 24.1292 8.0511 -0.711 -0.278 -0.646 71 72 75 0 0
25.9381 24.2016 8.0721 -0.083 -0.986 -0.146 62 63 65 0 0
26.1502 24.1186 8.0783 -0.164 -0.860 0.484 50 48 47 0 0
26.1691 24.0382 8.0704 -0.511 -0.676 -0.531 70 68 68 0 0
26.3351 23.7114 8.0449 -0.093 -0.003 -0.996 95 91 89 0 0
26.2342 23.2225 7.9805 -0.688 0.484 -0.541 54 54 53 0 0
26.1824 22.6948 7.9153 -0.898 0.432 -0.090 12 11 14 0 0
26.1431 22.5625 7.8970 -0.886 0.457 -0.078 14 14 15 0 0
26.0137 22.1579 7.8403 -0.936 0.353 -0.005 57 51 48 0 0
25.8883 21.9457 7.8063 -0.034 -0.997 -0.072 76 68 63 0 0
25.7512 21.6324 7.7596 -0.999 -0.017 -0.028 123 112 105 0 0
25.7530 21.5434 7.7494 -0.999 -0.017 -0.028 132 121 112 0 0
25.7670 21.4662 7.7415 -0.961 -0.231 -0.150 103 90 81 0 0
25.7663 21.1961 7.7101 -0.992 0.063 0.112 39 32 32 0 0
25.8442 21.1794 7.7139 -0.674 -0.734 0.085 41 34 34 0 0
25.7649 21.0167 7.6891 -0.227 -0.919 -0.323 42 33 33 0 0
25.9430 20.9158 7.6907 -0.939 0.322 -0.125 50 44 42 0 0
25.9115 20.7988 7.6748 -0.922 0.344 -0.176 38 32 30 0 0
25.7430 20.5570 7.6341 -0.865 0.499 -0.041 49 41 39 0 0
24.8592 19.0817 7.3964 -0.520 -0.852 -0.055 73 65 62 0 0
24.9597 19.0066 7.3952 -1.000 -0.026 -0.010 92 81 74 0 0
25.0101 18.9693 7.3947 -0.814 -0.566 -0.128 105 93 84 0 0
25.0959 18.7188 7.3720 -0.854 -0.494 -0.161 170 153 136 0 0
25.1810 18.5506 7.3588 -0.673 -0.740 -0.005 224 208 184 0 0
25.2263 18.5094 7.3575 -0.673 -0.740 -0.005 233 218 194 0 0
25.5470 18.5436 7.3854 0.332 -0.943 0.008 206 191 172 0 0
27.1454 19.4063 7.6054 -0.842 -0.480 -0.244 97 81 72 0 0
27.4570 19.4177 7.6301 0.075 -0.980 -0.184 96 82 72 0 0
27.7457 19.4080 7.6506 -0.951 -0.277 -0.134 85 73 65 0 0
25.5090 15.0846 6.9807 -0.259 -0.957 -0.133 239 231 212 0 0
25.6894 15.0106 6.9856 -0.584 -0.804 0.115 253 246 227 0 0
25.7373 14.9768 6.9853 -0.529 -0.849 -0.009 252 246 227 0 0
25.7822 14.9409 6.9845 -0.626 -0.775 0.085 247 237 215 0 0
26.3649 14.6088 6.9896 -0.316 -0.880 -0.353 221 204 176 0 0
26.5307 14.5225 6.9920 -0.881 -0.455 -0.129 183 167 142 0 0
26.6436 14.3993 6.9861 -0.648 -0.756 -0.090 84 76 66 0 0
26.5898 14.2951 6.9700 -0.990 -0.117 0.081 89 79 69 0 0
26.6134 14.2447 6.9659 -0.995 0.057 0.077 100 88 76 0 0
2.9591 30.1872 6.9899 -0.996 -0.029 -0.082 126 141 126 0 0
2.9905 30.0851 6.9805 -0.909 -0.354 0.218 118 130 113 0 0
3.4486 29.5172 6.9491 -0.666 -0.518 -0.537 60 66 58 0 0
3.9426 28.4718 6.8656 -0.679 -0.728 0.100 228 214 188 0 0
4.3235 28.2974 6.8737 -0.339 -0.941 -0.011 148 132 117 0 0
4.3771 28.2985 6.8778 -0.263 -0.961 -0.088 209 199 175 0 0
4.4257 28.2796 6.8792 -0.108 -0.989 -0.099 173 161 137 0 0
5.5842 28.7041 7.0137 -0.598 -0.543 0.590 238 221 194 0 0
5.6260 28.6552 7.0112 -0.598 -0.543 0.590 242 225 197 0 0
5.7481 28.6877 7.0239 -0.411 -0.789 0.456 242 225 197 0 0
6.0909 28.3248 7.0076 -0.825 -0.558 0.091 238 224 198 0 0
6.1292 28.2655 7.0036 -0.579 -0.815 0.003 238 224 197 0 0
6.1804 28.2475 7.0053 -0.149 -0.988 0.044 212 198 172 0 0
6.5756 28.4124 7.0535 0.626 -0.651 -0.430 92 79 71 0 0
6.8005 28.9313 7.1298 0.783 -0.595 -0.179 95 81 74 0 0
6.8956 29.0439 7.1498 0.754 -0.599 -0.269 95 82 74 0 0
8.6975 31.6443 7.5818 0.685 -0.602 -0.410 115 106 97 0 0
8.9254 32.1098 7.6521 0.754 -0.636 -0.162 124 112 103 0 0
9.1193 32.2853 7.6866 0.674 -0.690 -0.263 139 123 108 0 0
9.6059 32.5225 7.7499 -0.961 -0.200 0.192 225 209 183 0 0
9.6400 32.4308 7.7419 -0.102 -0.568 0.817 228 212 186 0 0
9.8477 32.2602 7.7376 -0.406 -0.418 0.812 235 220 193 0 0
9.8875 32.1854 7.7320 -0.802 -0.199 0.563 241 227 200 0 0
9.4867 30.0760 7.4600 0.227 -0.714 -0.663 153 141 121 0 0
9.5511 29.5740 7.4071 -0.988 -0.048 0.150 174 162 150 0 0
9.5774 29.1500 7.3603 -0.935 -0.226 -0.273 177 165 150 0 0
9.6278 29.1152 7.3600 -0.590 -0.798 -0.125 178 165 149 0 0
9.8034 29.0713 7.3680 -0.412 -0.836 -0.364 171 155 140 0 0
9.9627 28.9859 7.3700 -0.459 -0.598 -0.657 158 141 125 0 0
10.1216 29.0565 7.3898 0.590 -0.740 -0.324 143 127 112 0 0
10.3642 29.1678 7.4206 -0.425 -0.822 -0.379 148 136 122 0 0
10.6455 29.5230 7.4822 0.791 -0.581 -0.191 166 157 147 0 0
11.8051 30.9515 7.7321 -0.934 0.026 -0.357 182 167 144 0 0
11.8104 30.8027 7.7154 -0.929 0.055 -0.366 168 151 132 0 0
12.0672 30.7460 7.7279 0.438 -0.893 -0.108 143 130 116 0 0
12.1403 30.7513 7.7339 -0.184 -0.951 0.248 134 121 107 0 0
12.2312 30.7957 7.7457 0.298 -0.954 0.017 132 117 104 0 0
12.3327 30.8632 7.7609 -0.282 -0.838 -0.466 139 125 112 0 0
12.3545 30.7535 7.7500 0.259 -0.653 -0.712 170 156 143 0 0
12.4542 30.8160 7.7645 0.677 -0.733 0.071 138 126 113 0 0
12.5815 30.9381 7.7880 0.656 -0.743 0.134 128 116 107 0 0
13.0694 31.5266 7.8917 0.607 -0.764 -0.216 65 58 59 0 0
17.8804 40.1854 9.2423 -0.237 -0.045 -0.970 190 181 177 0 0
14.6055 32.2199 8.0849 -0.346 0.135 -0.929 112 99 94 0 0
19.7070 39.2003 9.2642 0.415 -0.685 -0.599 222 209 189 0 0
19.8731 39.3356 9.2921 -0.312 -0.259 -0.914 245 239 215 0 0
19.9170 39.2396 9.2843 -0.435 -0.262 -0.862 227 219 197 0 0
19.9873 39.1934 9.2842 -0.671 -0.154 -0.725 231 221 201 0 0
20.0902 39.2081 9.2935 -0.734 -0.485 -0.475 231 222 202 0 0
20.1441 39.1312 9.2886 -0.734 -0.485 -0.475 229 221 200 0 0
19.7557 37.5495 9.0782 -0.898 -0.432 -0.083 214 205 188 0 0
22.5291 39.5420 9.5123 -0.582 -0.759 0.292 114 104 98 0 0
17.1422 29.0978 7.9139 -0.608 -0.413 -0.678 171 163 152 0 0
17.5031 29.2952 7.9633 -0.165 -0.504 -0.848 161 153 144 0 0
17.5873 29.3006 7.9701 -0.314 -0.645 -0.696 120 111 104 0 0
17.5797 29.1561 7.9530 -0.099 -0.776 -0.623 246 240 230 0 0
17.6902 29.2039 7.9666 0.273 -0.762 -0.587 149 143 135 0 0
17.9655 29.2534 7.9927 -0.104 -0.972 -0.210 153 145 136 0 0
18.0245 29.2167 7.9928 -0.013 -0.947 0.320 217 209 200 0 0
18.1970 29.2298 8.0071 -0.352 -0.873 -0.338 132 130 123 0 0
18.2834 29.2361 8.0142 -0.173 -0.790 -0.588 93 87 80 0 0
18.3428 29.0694 7.9994 -0.361 -0.828 -0.429 185 174 168 0 0
18.5923 28.9422 8.0033 -0.214 -0.959 -0.186 195 185 180 0 0
18.7081 28.9927 8.0177 -0.608 -0.791 -0.063 112 104 99 0 0
18.8565 28.9642 8.0254 0.013 -0.777 -0.630 163 152 149 0 0
18.9645 29.0012 8.0376 0.280 -0.813 -0.511 156 142 134 0 0
25.2563 37.6501 9.4967 0.589 -0.574 -0.569 56 41 37 0 0
25.0019 37.1142 9.4163 0.488 -0.753 -0.441 62 54 50 0 0
25.0021 36.9597 9.3985 0.283 -0.637 -0.717 105 98 91 0 0
25.1454 37.0176 9.4158 -0.878 -0.060 -0.476 118 111 100 0 0
25.1197 36.8255 9.3918 -0.718 -0.326 -0.614 100 91 78 0 0
25.0645 36.5911 9.3608 -0.164 -0.347 -0.923 130 122 106 0 0
25.1290 36.5332 9.3589 -0.139 -0.225 -0.964 153 150 141 0 0
25.1710 36.4426 9.3516 -0.103 -0.198 -0.975 150 151 148 0 0
25.5574 36.3970 9.3750 -0.070 -0.328 -0.942 108 102 86 0 0
25.6575 36.3900 9.3816 -0.198 -0.279 -0.940 104 98 83 0 0
25.7284 36.3410 9.3812 -0.198 -0.279 -0.940 109 104 92 0 0
25.9680 36.0825 9.3692 -0.086 -0.781 -0.619 103 98 86 0 0
26.8133 35.9253 9.4137 -0.024 -0.597 -0.802 158 156 152 0 0
26.9160 35.9187 9.4205 0.014 -0.617 -0.787 159 160 156 0 0
27.0195 35.9129 9.4275 0.042 -0.627 -0.778 155 156 150 0 0
27.1036 35.8805 9.4300 0.081 -0.717 -0.693 125 122 112 0 0
27.0992 35.7286 9.4122 -0.397 -0.734 -0.551 80 79 67 0 0
27.2098 35.7319 9.4208 -0.296 -0.907 -0.300 97 99 89 0 0
22.0702 27.5088 8.0959 0.198 -0.954 -0.227 171 162 158 0 0
22.2182 27.4673 8.1021 0.182 -0.581 -0.793 133 125 123 0 0
22.3569 27.4133 8.1061 -0.125 -0.214 -0.969 147 138 134 0 0
22.2125 27.1136 8.0610 -0.918 0.355 -0.174 178 170 165 0 0
23.1574 26.8161 8.0967 -0.274 -0.962 0.011 138 131 125 0 0
30.9597 34.1179 9.5128 -0.619 -0.247 -0.745 113 108 107 0 0
30.8500 33.8568 9.4746 -0.517 -0.058 -0.854 117 113 110 0 0
30.9283 33.8136 9.4755 0.014 -0.498 -0.867 114 109 105 0 0
30.9842 33.7445 9.4717 0.287 -0.733 0.617 115 110 106 0 0
31.2959 33.9683 9.5204 -0.919 0.219 -0.329 109 104 101 0 0
31.2770 33.8133 9.5012 -0.895 0.212 -0.393 110 106 103 0 0
31.2468 33.6460 9.4798 -0.895 0.212 -0.393 112 109 107 0 0
31.2494 33.5166 9.4651 -0.404 -0.135 -0.905 108 106 105 0 0
31.2684 33.4064 9.4538 -0.462 -0.007 -0.887 109 108 105 0 0
31.2512 33.2557 9.4353 -0.586 0.074 -0.807 108 107 103 0 0
31.9083 31.9263 9.3311 -0.814 -0.436 -0.383 85 73 65 0 0
31.9526 31.8484 9.3255 -0.814 -0.436 -0.383 81 68 60 0 0
32.0317 31.8076 9.3266 -0.588 -0.706 -0.395 80 69 60 0 0
32.1025 31.3862 9.2835 -0.007 -0.835 0.550 71 61 56 0 0
25.7225 24.1851 7.9842 -0.945 -0.318 -0.077 52 53 55 0 0
25.7744 24.1386 7.9827 -0.192 -0.981 0.016 88 89 93 0 0
25.9430 24.2120 8.0036 -0.096 -0.986 -0.134 80 81 83 0 0
25.9708 24.1405 7.9975 0.054 -0.993 0.104 88 89 90 0 0
25.9966 24.0672 7.9909 0.116 -0.928 0.355 81 82 81 0 0
26.1943 24.0692 8.0058 0.048 -0.902 0.429 84 86 84 0 0
26.5518 23.9334 8.0166 -0.207 0.062 -0.976 93 89 85 0 0
26.7681 24.0500 8.0460 -0.579 0.462 -0.672 89 86 82 0 0
26.2834 23.2768 7.9213 -0.688 0.509 -0.518 74 74 73 0 0
25.9711 22.8737 7.8519 -0.905 0.207 0.371 70 70 71 0 0
26.3682 23.1675 7.9151 -0.996 0.061 -0.072 25 25 29 0 0
26.4079 23.0148 7.9005 -0.462 -0.847 0.263 21 20 25 0 0
26.1998 22.7176 7.8509 -0.898 0.432 -0.090 15 15 18 0 0
26.2137 22.6366 7.8427 -0.880 0.464 -0.103 15 15 17 0 0
26.0343 22.1837 7.7774 -0.927 0.338 -0.160 57 51 49 0 0
25.8861 21.9496 7.7395 -0.067 -0.981 -0.181 69 64 58 0 0
25.7491 21.6365 7.6934 -0.978 -0.010 -0.209 147 138 130 0 0
25.7442 21.5411 7.6821 -0.988 0.014 -0.152 153 145 135 0 0
25.7764 21.4811 7.6775 -0.947 -0.218 -0.236 112 100 91 0 0
25.7608 21.1971 7.6438 -0.986 0.075 0.148 39 33 33 0 0
25.8366 21.1786 7.6473 -0.674 -0.734 0.085 40 33 33 0 0
25.9576 20.9356 7.6283 -0.936 0.334 -0.112 55 48 46 0 0
25.9313 20.8233 7.6134 -0.923 0.339 -0.183 38 30 28 0 0
25.7556 20.5749 7.5719 -0.859 0.508 -0.060 45 37 35 0 0
24.8577 19.0866 7.3345 -0.520 -0.852 -0.055 75 65 61 0 0
25.0134 18.9785 7.3336 -0.814 -0.566 -0.128 104 93 84 0 0
25.1095 18.8997 7.3317 -0.002 -0.998 -0.060 121 108 97 0 0
25.1775 18.5542 7.2970 -0.673 -0.740 -0.005 225 209 184 0 0
25.2224 18.5125 7.2955 -0.506 -0.860 0.070 236 220 196 0 0
25.5290 18.5349 7.3208 0.323 -0.944 -0.069 205 190 171 0 0
28.0083 19.3826 7.6016 -0.194 -0.919 -0.344 87 70 58 0 0
27.9639 19.1819 7.5752 -0.454 -0.855 0.253 85 71 57 0 0
27.7823 18.7109 7.5077 -0.884 0.460 0.086 76 64 57 0 0
25.5451 15.3975 6.9615 -0.863 0.501 0.066 85 77 68 0 0
25.6747 15.0072 6.9263 -0.796 -0.604 -0.038 253 246 227 0 0
25.7491 14.9930 6.9301 -0.777 -0.615 -0.138 252 244 225 0 0
26.3322 14.5935 6.9274 -0.224 -0.916 -0.333 219 202 173 0 0
26.4440 14.6046 6.9369 -0.643 -0.765 -0.043 217 200 170 0 0
26.5001 14.5764 6.9378 -0.751 -0.655 -0.080 212 195 165 0 0
26.5337 14.5325 6.9353 -0.881 -0.455 -0.129 200 183 157 0 0
26.6445 14.4078 6.9292 -0.597 -0.800 -0.063 81 72 63 0 0
26.5938 14.3058 6.9137 -0.994 -0.110 -0.022 85 74 65 0 0
26.6177 14.2556 6.9097 -0.996 0.088 -0.005 97 85 72 0 0
2.9641 30.1771 6.9329 -0.996 -0.029 -0.082 115 129 112 0 0
3.0279 29.9792 6.9151 -0.648 -0.712 0.271 106 117 101 0 0
3.0749 29.9520 6.9155 -0.618 -0.740 0.266 95 105 93 0 0
3.4547 29.5141 6.8935 -0.849 -0.444 -0.287 76 85 76 0 0
3.9462 28.4605 6.8097 -0.695 -0.717 0.054 230 216 189 0 0
4.3348 28.3173 6.8218 -0.347 -0.911 -0.222 162 144 129 0 0
4.3833 28.2985 6.8232 -0.347 -0.911 -0.222 212 200 176 0 0
4.4331 28.2842 6.8252 -0.108 -0.989 -0.099 174 162 136 0 0
5.2808 28.9925 6.9676 -0.609 -0.786 0.110 228 212 186 0 0
5.3018 28.8687 6.9550 -0.634 -0.673 -0.381 230 214 188 0 0
5.4682 28.6694 6.9446 -0.339 -0.588 -0.734 235 219 193 0 0
5.5193 28.6528 6.9464 -0.060 -0.785 -0.616 237 220 194 0 0
5.5677 28.6269 6.9470 -0.352 -0.653 -0.671 240 223 196 0 0
5.6159 28.6003 6.9475 -0.352 -0.653 -0.671 243 226 198 0 0
6.2870 28.2073 6.9519 -0.406 -0.913 0.039 130 118 101 0 0
6.5971 28.4619 7.0034 0.684 -0.701 -0.202 94 79 72 0 0
6.9144 29.0847 7.0974 0.758 -0.590 -0.279 95 81 72 0 0
7.7606 30.1860 7.2843 0.715 -0.687 0.127 112 104 99 0 0
8.9854 32.2649 7.6099 0.588 -0.745 -0.316 126 115 105 0 0
9.0928 32.3822 7.6310 0.405 -0.689 -0.601 135 120 107 0 0
9.1304 32.3007 7.6245 0.691 -0.653 -0.310 139 123 107 0 0
9.6042 32.5024 7.6820 -0.949 -0.276 0.156 225 209 183 0 0
9.6264 32.3782 7.6695 -0.220 -0.596 0.773 227 211 185 0 0
9.8506 32.2533 7.6717 -0.298 -0.599 0.744 236 221 194 0 0
9.8566 32.0881 7.6534 -0.802 -0.199 0.563 241 227 200 0 0
9.5240 30.1601 7.4101 -0.288 -0.583 -0.759 142 130 109 0 0
10.0636 29.0626 7.3249 -0.038 -0.689 -0.724 147 131 116 0 0
10.1285 29.0623 7.3296 0.605 -0.766 -0.219 144 128 113 0 0
10.2197 29.1250 7.3433 0.628 -0.745 -0.225 137 121 107 0 0
10.5152 29.3605 7.3917 0.792 -0.564 -0.236 175 165 153 0 0
11.3844 30.6132 7.5974 0.798 -0.536 -0.275 133 120 107 0 0
11.6341 31.0328 7.6633 0.750 -0.661 -0.023 121 107 97 0 0
11.8626 31.2362 7.7031 0.108 -0.826 -0.553 193 177 156 0 0
11.8154 30.8042 7.6506 -0.892 0.115 -0.436 185 167 146 0 0
12.0977 30.8051 7.6713 0.450 -0.805 -0.386 142 130 115 0 0
12.1604 30.7870 7.6739 0.009 -0.941 -0.338 134 122 108 0 0
12.3690 30.9346 7.7059 -0.671 -0.702 -0.239 135 120 107 0 0
12.3867 30.8157 7.6937 0.303 -0.720 -0.624 139 125 112 0 0
12.4759 30.8548 7.7046 0.671 -0.742 0.012 134 120 109 0 0
12.5997 30.9691 7.7266 0.667 -0.745 0.017 129 117 107 0 0
13.5568 32.2491 7.9419 -0.572 0.220 -0.790 72 71 69 0 0
16.0229 35.7735 8.5224 -0.895 0.418 -0.154 186 175 166 0 0
19.9453 39.4653 9.2282 -0.846 -0.533 0.023 254 252 235 0 0
19.9969 39.3833 9.2227 -0.846 -0.533 0.023 254 251 234 0 0
20.0358 39.2779 9.2135 -0.961 -0.274 0.036 254 251 234 0 0
20.1345 39.2845 9.2215 -0.732 -0.681 -0.026 254 251 233 0 0
20.1950 39.2196 9.2185 -0.732 -0.681 -0.026 254 250 232 0 0
19.9584 38.6047 9.1314 -0.772 0.141 -0.620 254 250 232 0 0
19.7130 37.6358 9.0034 -0.903 -0.428 -0.026 254 250 230 0 0
19.7562 37.5450 8.9963 -0.903 -0.428 -0.026 247 241 224 0 0
19.9528 37.7332 9.0320 0.079 -0.817 -0.571 151 140 130 0 0
19.9940 37.6384 9.0242 -0.035 -0.933 -0.358 210 198 188 0 0
20.1134 37.6847 9.0382 0.218 -0.743 -0.633 183 173 161 0 0
20.2324 37.7299 9.0520 -0.011 -0.554 -0.833 157 145 130 0 0
20.3600 37.7896 9.0681 -0.328 -0.351 -0.877 207 197 183 0 0
22.6834 39.8022 9.4664 -0.672 0.017 0.740 146 137 131 0 0
22.8038 39.8346 9.4789 -0.175 -0.498 0.849 142 130 122 0 0
17.4021 29.5260 7.9135 -0.329 -0.301 -0.895 143 138 132 0 0
17.3714 29.3417 7.8903 0.413 -0.712 -0.568 106 100 93 0 0
17.5302 29.3373 7.9014 -0.241 -0.550 -0.800 124 117 111 0 0
18.7130 28.9989 7.9493 -0.809 -0.361 0.464 105 95 93 0 0
18.8605 29.0976 7.9713 0.393 -0.904 0.170 148 138 134 0 0
24.0104 36.0896 9.1416 0.663 -0.747 0.046 254 248 233 0 0
24.8702 36.7634 9.2810 0.234 -0.962 0.138 113 107 97 0 0
26.8350 35.9563 9.3328 -0.374 -0.826 -0.423 126 116 102 0 0
26.9153 35.9191 9.3344 -0.374 -0.826 -0.423 130 120 105 0 0
27.0094 35.9005 9.3392 -0.173 -0.954 -0.245 106 98 83 0 0
27.0911 35.8651 9.3411 -0.058 -0.921 -0.386 107 103 88 0 0
27.1344 35.7777 9.3344 -0.364 -0.706 -0.608 117 115 100 0 0
27.2108 35.7349 9.3351 -0.562 -0.636 -0.529 108 108 91 0 0
27.4335 35.8882 9.3688 0.151 -0.988 -0.042 77 76 64 0 0
22.5567 26.8667 7.9879 -0.763 -0.636 -0.120 104 94 92 0 0
22.8497 26.8916 8.0121 -0.264 -0.945 -0.193 134 126 120 0 0
22.9244 26.8710 8.0152 0.208 -0.893 -0.399 122 114 110 0 0
22.9661 26.8096 8.0113 -0.152 -0.685 -0.713 112 103 100 0 0
23.0567 26.5844 7.9923 -0.539 0.103 -0.836 127 118 110 0 0
23.3284 26.5794 8.0116 0.102 -0.548 -0.830 104 99 95 0 0
30.6102 33.9850 9.3846 0.270 -0.946 0.179 117 108 102 0 0
30.9128 34.0681 9.4161 -0.795 0.038 -0.606 104 97 95 0 0
30.9167 33.9385 9.4017 -0.785 0.051 -0.618 104 99 95 0 0
30.8685 33.7494 9.3767 -0.095 -0.752 -0.652 103 99 94 0 0
31.9676 31.9956 9.2578 -0.859 -0.467 -0.208 96 84 71 0 0
31.9718 31.8748 9.2444 -0.832 -0.540 0.125 97 84 74 0 0
32.1085 31.8953 9.2567 -0.392 -0.737 0.550 97 85 77 0 0
25.2333 23.8826 7.8444 0.574 -0.801 0.170 104 93 89 0 0
25.7122 24.1796 7.9131 -0.905 -0.423 0.054 52 53 55 0 0
25.7603 24.1293 7.9109 -0.061 -0.998 0.006 84 85 89 0 0
25.9644 24.2393 7.9383 -0.037 -0.943 -0.330 78 79 81 0 0
26.8539 24.1411 7.9921 -0.866 0.372 -0.335 80 76 71 0 0
26.8530 24.0411 7.9807 -0.976 0.217 0.003 79 78 73 0 0
26.3894 23.0027 7.8289 -0.462 -0.847 0.263 17 17 19 0 0
26.2153 22.7385 7.7861 -0.897 0.433 -0.089 16 16 18 0 0
26.1708 22.6011 7.7673 -0.869 0.482 -0.112 14 14 15 0 0
26.0471 22.2019 7.7129 -0.946 0.316 -0.073 55 49 47 0 0
25.9004 21.9692 7.6758 0.071 -0.950 -0.305 72 66 61 0 0
25.7635 21.6561 7.6302 -0.921 0.003 -0.390 145 136 129 0 0
25.7672 21.5690 7.6206 -0.921 0.003 -0.390 145 136 127 0 0
25.7666 21.4780 7.6102 -0.958 -0.021 -0.286 116 103 94 0 0
25.7478 21.1911 7.5762 -0.982 0.188 -0.007 37 31 30 0 0
25.8419 21.1897 7.5829 -0.652 -0.758 0.008 40 33 32 0 0
25.8587 21.1162 7.5758 -0.652 -0.696 -0.300 43 36 34 0 0
24.9899 19.4599 7.3242 -0.939 0.342 -0.027 50 45 42 0 0
24.9450 19.1707 7.2881 -0.549 -0.801 -0.238 76 67 62 0 0
25.0769 19.0411 7.2830 -0.747 -0.660 0.080 102 92 83 0 0
25.1688 18.6336 7.2434 -0.940 -0.340 -0.001 209 193 169 0 0
25.1814 18.5641 7.2365 -0.821 -0.569 0.057 222 207 181 0 0
25.2143 18.5122 7.2330 -0.506 -0.860 0.070 236 221 196 0 0
25.4887 18.5072 7.2524 0.391 -0.910 -0.135 203 188 169 0 0
27.9525 19.1802 7.5088 -0.697 -0.711 -0.091 83 68 55 0 0
27.5896 18.3254 7.3852 -0.870 0.302 0.390 75 62 56 0 0
26.5317 16.8808 7.1439 -0.866 0.500 -0.026 65 56 51 0 0
25.5442 15.4042 6.9040 -0.837 0.537 -0.104 78 70 62 0 0
25.3536 15.1221 6.8581 -0.018 -0.978 -0.209 176 168 151 0 0
25.5881 15.0199 6.8636 -0.325 -0.927 -0.184 248 240 222 0 0
25.6647 15.0074 6.8678 -0.577 -0.815 -0.054 252 245 226 0 0
25.7286 14.9855 6.8699 -0.538 -0.812 -0.228 251 242 220 0 0
25.9359 14.8620 6.8711 -0.543 -0.699 -0.465 240 222 197 0 0
26.0268 14.7910 6.8696 -0.585 -0.586 -0.560 229 212 184 0 0
26.1163 14.7871 6.8757 -0.395 -0.841 -0.370 233 216 185 0 0
26.1733 14.7598 6.8768 -0.395 -0.841 -0.370 228 211 179 0 0
26.2305 14.7325 6.8779 -0.395 -0.841 -0.370 223 204 174 0 0
26.2876 14.7052 6.8789 -0.395 -0.841 -0.370 225 207 177 0 0
26.3448 14.6779 6.8800 -0.395 -0.841 -0.370 224 207 177 0 0
26.4041 14.6520 6.8814 -0.239 -0.862 -0.448 213 196 167 0 0
26.4681 14.6295 6.8835 -0.575 -0.812 -0.102 217 200 171 0 0
26.5987 14.3171 6.8576 -0.990 -0.048 -0.130 86 75 65 0 0
26.6412 14.2797 6.8564 -0.996 -0.083 0.037 94 82 69 0 0
26.6223 14.2001 6.8460 -0.970 0.243 0.009 98 86 72 0 0
2.9668 30.1564 6.8747 -0.984 -0.017 -0.178 123 134 118 0 0
2.9819 29.9777 6.8557 -0.950 -0.313 -0.015 126 136 119 0 0
3.9522 28.4589 6.7551 -0.708 -0.704 0.053 233 219 192 0 0
4.1836 28.3262 6.7569 -0.008 -0.983 -0.185 222 209 184 0 0
4.3921 28.3081 6.7699 -0.347 -0.911 -0.222 212 199 174 0 0
4.4423 28.2955 6.7721 -0.101 -0.979 -0.179 170 157 133 0 0
5.5267 28.6579 6.8910 -0.139 -0.887 -0.440 238 222 195 0 0
5.5778 28.6414 6.8928 -0.254 -0.876 -0.411 237 221 193 0 0
5.6292 28.6256 6.8947 -0.254 -0.876 -0.411 240 224 195 0 0
5.8795 28.5215 6.9011 -0.383 -0.736 0.558 242 225 200 0 0
5.9103 28.4367 6.8938 -0.402 -0.669 0.625 241 226 200 0 0
5.9711 28.4510 6.8998 -0.893 -0.321 0.314 237 223 197 0 0
5.9758 28.2810 6.8810 -0.891 -0.431 -0.144 236 222 196 0 0
6.0708 28.2228 6.8813 -0.842 -0.490 0.227 233 219 193 0 0
6.2945 28.2134 6.8964 -0.534 -0.845 0.009 128 115 100 0 0
6.5123 28.3597 6.9286 0.691 -0.723 0.027 92 78 70 0 0
6.6421 28.5851 6.9632 0.706 -0.621 -0.341 95 81 73 0 0
8.3133 30.8738 7.3407 0.760 -0.447 -0.472 115 105 98 0 0
9.0509 32.2468 7.5481 0.697 -0.666 -0.267 136 121 107 0 0
9.1518 32.3451 7.5664 0.697 -0.666 -0.267 138 124 107 0 0
9.6267 32.5489 7.6235 -0.960 -0.233 -0.157 223 207 181 0 0
9.6058 32.3066 7.5948 0.143 -0.881 0.451 227 211 185 0 0
9.8250 32.3522 7.6157 0.330 -0.855 0.399 229 214 188 0 0
9.8558 32.2527 7.6068 -0.253 -0.807 0.534 237 222 196 0 0
9.8262 31.9922 7.5754 -0.871 -0.140 0.471 238 224 197 0 0
9.5495 30.2134 7.3557 -0.909 -0.129 -0.397 139 126 106 0 0
9.5991 29.1809 7.2433 -0.934 -0.310 -0.175 178 165 148 0 0
9.6344 29.1084 7.2377 -0.497 -0.801 -0.334 183 168 151 0 0
10.0904 29.1171 7.2716 -0.038 -0.689 -0.724 146 130 115 0 0
10.2069 29.2416 7.2940 0.021 -0.977 -0.214 139 123 109 0 0
11.7627 31.4859 7.6582 -0.414 -0.355 0.838 140 127 116 0 0
11.8579 30.8916 7.5983 -0.872 0.101 -0.478 194 178 156 0 0
12.1355 30.8807 7.6171 0.424 -0.726 -0.541 136 121 108 0 0
12.2178 30.9060 7.6259 0.158 -0.564 -0.810 134 120 107 0 0
12.3560 30.8967 7.6348 -0.818 -0.569 0.089 134 120 107 0 0
12.4156 30.8706 7.6361 0.417 -0.801 -0.429 135 121 108 0 0
12.5045 30.9088 7.6468 0.589 -0.781 -0.207 131 117 106 0 0
12.6102 30.9833 7.6628 0.586 -0.772 -0.246 129 117 107 0 0
13.4165 32.0994 7.8463 0.767 -0.641 -0.030 66 64 62 0 0
19.6743 39.3037 9.1065 0.339 -0.845 0.414 234 218 201 0 0
19.8007 39.3643 9.1224 0.332 -0.881 0.336 238 223 206 0 0
19.9129 39.3973 9.1342 0.151 -0.893 0.425 237 225 208 0 0
20.0278 39.4348 9.1467 -0.405 -0.746 0.529 237 224 207 0 0
20.0965 39.3852 9.1461 -0.438 -0.678 0.590 235 220 203 0 0
20.1527 39.3120 9.1419 -0.458 -0.653 0.603 234 219 203 0 0
20.2210 39.2618 9.1412 -0.470 -0.650 0.597 232 217 200 0 0
20.0328 38.7364 9.0686 -0.772 0.141 -0.620 230 215 196 0 0
19.7949 37.7801 8.9441 -0.383 -0.756 0.530 226 211 194 0 0
19.8665 37.7407 8.9448 -0.349 -0.787 0.509 210 197 183 0 0
19.9539 37.7297 8.9499 0.594 -0.802 0.062 134 123 115 0 0
20.5684 37.9878 9.0232 -0.166 -0.403 0.900 133 120 109 0 0
22.5105 39.5020 9.3332 -0.540 -0.107 0.835 121 111 104 0 0
17.3997 29.3859 7.8288 0.184 -0.356 -0.916 107 102 97 0 0
17.7108 29.4977 7.8637 -0.455 -0.745 0.488 116 107 104 0 0
18.1346 29.3890 7.8821 -0.247 -0.798 0.549 98 89 81 0 0
18.3924 29.2744 7.8878 -0.121 -0.717 0.687 97 89 86 0 0
18.4629 29.1251 7.8761 -0.770 -0.451 -0.451 97 88 82 0 0
18.5239 29.0911 7.8767 -0.587 -0.226 -0.778 111 102 94 0 0
18.5612 29.0200 7.8714 -0.685 -0.138 -0.716 105 97 91 0 0
18.6413 29.0156 7.8767 -0.429 -0.314 -0.847 114 106 102 0 0
18.6881 28.9595 7.8738 -0.423 -0.168 -0.891 97 87 86 0 0
18.9029 29.1617 7.9120 0.272 -0.383 -0.883 134 123 121 0 0
23.8844 36.0508 9.0447 0.589 -0.796 0.140 252 248 231 0 0
24.1411 36.2855 9.0896 0.583 -0.785 0.211 254 249 233 0 0
26.9257 35.9346 9.2509 -0.315 -0.919 -0.237 79 76 66 0 0
27.0134 35.9075 9.2542 -0.245 -0.880 -0.407 101 97 86 0 0
27.0973 35.8749 9.2566 -0.111 -0.818 -0.565 95 91 79 0 0
27.1689 35.8258 9.2563 -0.386 -0.699 -0.602 100 97 83 0 0
27.2480 35.7866 9.2576 -0.716 -0.425 -0.554 103 102 88 0 0
27.4351 35.8921 9.2829 0.151 -0.988 -0.042 105 103 92 0 0
21.5605 26.5116 7.8060 -0.940 -0.156 -0.304 183 175 171 0 0
22.7618 26.8984 7.9360 -0.209 -0.927 0.310 98 91 87 0 0
23.0310 26.8922 7.9547 -0.161 -0.301 -0.940 112 103 99 0 0
23.1199 26.8886 7.9607 0.002 -0.377 -0.926 112 105 98 0 0
23.1541 26.8179 7.9553 -0.627 -0.134 -0.768 92 85 78 0 0
23.1231 26.6681 7.9362 -0.282 -0.800 -0.529 93 84 76 0 0
23.6299 26.8338 7.9914 -0.933 -0.146 -0.329 109 106 104 0 0
30.5723 33.8113 9.2754 -0.770 -0.231 0.595 111 102 91 0 0
30.6569 33.7760 9.2776 -0.594 0.341 -0.729 106 98 88 0 0
30.9185 33.8116 9.3004 -0.647 -0.762 -0.034 102 95 88 0 0
31.2208 33.3626 9.2718 -0.225 -0.970 -0.087 94 84 77 0 0
31.3462 33.3728 9.2820 -0.448 -0.830 -0.331 88 77 70 0 0
31.4248 33.3300 9.2829 -0.448 -0.830 -0.331 92 82 77 0 0
31.5120 33.2968 9.2854 -0.314 -0.933 -0.174 91 78 71 0 0
31.6046 33.2695 9.2890 -0.443 -0.869 -0.221 93 88 84 0 0
31.6716 32.1866 9.1722 -0.520 -0.639 0.566 89 76 64 0 0
31.6607 32.0486 9.1560 -0.229 -0.948 0.220 90 75 63 0 0
31.7567 32.0264 9.1604 -0.229 -0.948 0.220 89 75 64 0 0
31.9074 31.9370 9.1612 -0.658 -0.460 0.596 84 72 60 0 0
31.9554 31.8632 9.1564 -0.790 -0.291 0.540 87 74 64 0 0
32.0166 31.8035 9.1541 -0.622 -0.270 0.735 106 94 85 0 0
32.0240 31.1934 9.0861 -0.925 0.308 0.224 78 71 68 0 0
25.4960 24.0610 7.8145 0.396 -0.905 0.155 92 87 85 0 0
25.6620 24.1331 7.8346 -0.436 -0.844 0.314 53 54 54 0 0
26.3709 22.9906 7.7574 -0.462 -0.847 0.263 16 16 18 0 0
26.2238 22.7527 7.7201 -0.888 0.453 -0.083 9 9 11 0 0
25.9661 22.1303 7.6316 -0.961 0.273 -0.044 56 51 48 0 0
25.9174 21.9915 7.6125 0.069 -0.939 -0.338 75 67 63 0 0
25.7939 21.5098 7.5495 -0.939 0.057 -0.338 93 79 71 0 0
25.7377 21.1878 7.5093 -0.979 0.187 -0.075 37 30 29 0 0
25.8456 21.1993 7.5184 -0.608 -0.792 -0.060 41 34 32 0 0
25.8663 21.1295 7.5120 -0.608 -0.758 -0.236 42 36 34 0 0
25.0127 19.4867 7.2660 -0.924 0.324 -0.202 48 43 41 0 0
24.9606 19.2736 7.2383 -0.484 -0.777 -0.402 68 59 56 0 0
25.0151 19.2396 7.2384 -0.484 -0.777 -0.402 73 65 59 0 0
25.1649 18.6368 7.1815 -0.884 -0.432 0.177 206 192 168 0 0
25.2076 18.5129 7.1707 -0.399 -0.915 0.067 237 223 198 0 0
27.2156 19.5698 7.4342 -0.260 -0.900 0.349 145 128 111 0 0
27.7419 19.5099 7.4654 -0.705 -0.524 -0.478 78 64 55 0 0
27.7813 19.4595 7.4626 -0.705 -0.524 -0.478 76 62 50 0 0
28.0167 19.3220 7.4641 -0.594 -0.775 -0.216 85 68 56 0 0
27.9566 19.1911 7.4451 -0.449 -0.277 -0.850 83 66 55 0 0
28.0188 19.1596 7.4460 0.023 -0.777 -0.629 83 68 58 0 0
28.0257 19.0835 7.4380 -0.791 0.538 -0.294 81 69 61 0 0
27.5867 18.4100 7.3307 -0.856 0.271 0.441 56 46 41 0 0
27.5494 18.3011 7.3158 -0.875 0.313 0.370 59 45 39 0 0
26.5028 16.8659 7.0791 -0.856 0.514 -0.050 64 54 48 0 0
25.4380 15.1925 6.8145 -0.464 -0.833 -0.301 163 155 138 0 0
25.5059 15.1738 6.8172 -0.064 -0.973 -0.222 236 227 210 0 0
26.3558 14.6935 6.8246 -0.487 -0.817 -0.308 226 210 179 0 0
26.4247 14.6744 6.8274 -0.239 -0.862 -0.448 223 208 178 0 0
26.4687 14.6376 6.8265 -0.554 -0.825 -0.112 221 206 176 0 0
26.5157 14.6031 6.8260 -0.575 -0.812 -0.102 219 204 175 0 0
26.5633 14.5689 6.8256 -0.918 -0.376 -0.129 215 199 171 0 0
26.5832 14.5154 6.8210 -0.949 -0.259 -0.179 161 146 127 0 0
26.6192 14.3392 6.8038 -0.964 -0.025 -0.264 90 78 68 0 0
26.6466 14.2914 6.8004 -0.993 0.052 -0.108 96 86 72 0 0
26.6313 14.2143 6.7906 -0.954 0.296 -0.043 100 89 76 0 0
26.2696 13.7045 6.7073 -0.955 0.278 -0.108 28 21 21 0 0
26.2410 13.6204 6.6958 -0.090 -0.979 -0.181 31 27 22 0 0
2.9212 30.1566 6.8154 -0.851 0.104 -0.515 132 138 121 0 0
2.9395 29.9927 6.7985 -0.963 0.041 -0.267 159 165 147 0 0
2.9865 29.9663 6.7989 -0.950 -0.313 -0.015 165 171 154 0 0
3.0260 29.9046 6.7949 -0.509 -0.658 0.556 137 148 133 0 0
3.9572 28.4535 6.7001 -0.747 -0.653 -0.127 231 217 189 0 0
4.1899 28.3261 6.7025 -0.018 -0.997 -0.075 214 202 178 0 0
4.3973 28.3043 6.7149 -0.403 -0.908 -0.112 208 194 168 0 0
5.0767 29.0139 6.8420 0.663 -0.742 0.099 211 196 175 0 0
6.2484 28.2297 6.8383 -0.410 -0.907 0.099 152 141 124 0 0
6.2971 28.2038 6.8389 -0.471 -0.877 0.092 116 105 92 0 0
6.5194 28.3646 6.8726 0.696 -0.718 0.006 87 74 66 0 0
6.9515 29.1645 6.9921 0.780 -0.605 -0.159 96 82 73 0 0
9.5659 32.5517 7.5541 -0.924 -0.325 -0.200 223 207 181 0 0
9.6474 32.5902 7.5642 -0.857 -0.152 -0.493 223 207 181 0 0
9.7657 32.3598 7.5471 0.685 -0.705 -0.183 214 198 173 0 0
9.8220 32.3292 7.5477 0.292 -0.956 0.011 231 216 190 0 0
9.8880 32.3246 7.5519 -0.103 -0.994 0.043 237 223 197 0 0
9.8921 32.1541 7.5332 -0.920 -0.211 0.329 238 224 198 0 0
9.5848 30.4627 7.3236 -0.993 0.107 0.043 202 188 159 0 0
9.5598 30.2273 7.2957 -0.444 -0.778 -0.443 136 122 104 0 0
10.1071 29.1468 7.2147 0.169 -0.810 -0.562 146 130 116 0 0
10.2150 29.2504 7.2339 0.045 -0.987 -0.154 136 121 108 0 0
11.6972 31.3226 7.5694 -0.256 -0.447 0.857 144 130 119 0 0
11.8966 30.9700 7.5444 -0.872 0.101 -0.478 171 157 136 0 0
12.4427 30.9212 7.5779 -0.188 -0.908 -0.374 129 116 105 0 0
12.5465 30.9922 7.5931 0.584 -0.708 -0.396 128 115 105 0 0
12.6549 31.0724 7.6098 0.584 -0.708 -0.396 131 119 110 0 0
13.3688 31.9877 7.7622 0.730 -0.682 0.054 61 60 58 0 0
17.1922 39.4679 8.8646 0.650 -0.395 -0.649 74 72 73 0 0
14.6550 31.6774 7.8192 -0.906 -0.332 -0.260 76 75 74 0 0
14.8530 31.9187 7.8601 0.673 -0.541 -0.505 97 98 97 0 0
19.5412 39.4021 9.0244 -0.252 -0.399 0.882 157 137 118 0 0
19.6213 39.3753 9.0272 -0.331 -0.336 0.882 154 137 118 0 0
19.8278 37.6646 8.8520 0.518 -0.847 0.117 131 115 105 0 0
19.9706 37.7546 8.8721 0.518 -0.847 0.117 120 109 101 0 0
20.1388 37.7200 8.8802 0.129 -0.602 0.788 115 103 95 0 0
20.2855 37.8150 8.9012 -0.210 -0.358 0.910 113 100 91 0 0
20.3598 37.7792 8.9025 -0.188 -0.378 0.907 118 105 95 0 0
20.4547 37.7799 8.9094 -0.163 -0.398 0.903 118 104 95 0 0
20.5405 37.7643 8.9137 -0.134 -0.424 0.896 117 106 97 0 0
20.6221 37.7409 8.9170 -0.109 -0.436 0.893 118 109 100 0 0
20.6944 37.7009 8.9176 -0.112 -0.437 0.892 117 107 98 0 0
20.7902 37.7022 8.9246 -0.148 -0.417 0.897 122 111 101 0 0
17.6044 29.8561 7.8270 -0.004 -0.019 -1.000 190 181 174 0 0
17.5264 29.5926 7.7922 -0.059 -0.082 -0.995 110 102 94 0 0
17.8258 29.4174 7.7940 -0.291 -0.629 -0.721 117 107 102 0 0
18.1631 29.3015 7.8052 -0.291 -0.676 -0.677 145 138 130 0 0
18.3268 29.2997 7.8166 -0.048 -0.602 -0.797 140 128 122 0 0
18.3561 29.2155 7.8094 0.344 -0.830 -0.440 210 204 194 0 0
18.5056 29.3204 7.8316 0.146 -0.371 -0.917 171 161 152 0 0
18.5318 29.2315 7.8236 -0.371 -0.267 -0.889 206 201 191 0 0
24.0424 36.1361 8.9822 0.574 -0.814 0.088 253 249 233 0 0
27.5271 35.8712 9.2008 0.312 -0.950 -0.026 90 84 77 0 0
23.1854 26.9718 7.9040 -0.198 -0.220 -0.955 230 224 210 0 0
23.3682 27.0824 7.9292 -0.233 -0.100 -0.967 133 121 109 0 0
23.3406 26.7117 7.8861 0.173 -0.797 -0.579 86 76 67 0 0
23.4345 26.7135 7.8930 -0.599 0.323 -0.732 152 144 135 0 0
29.0562 32.5679 8.9429 0.439 -0.607 -0.662 231 219 200 0 0
29.8794 33.2728 9.0798 0.176 -0.063 -0.982 171 159 144 0 0
30.8434 33.9968 9.2287 -0.594 0.341 -0.729 125 118 109 0 0
30.7323 33.7347 9.1917 -0.707 0.405 -0.580 124 116 106 0 0
30.4077 33.2278 9.1124 -0.682 -0.050 0.729 119 111 106 0 0
31.7245 32.1232 9.0835 -0.308 -0.798 0.518 109 99 91 0 0
31.7905 32.0685 9.0821 -0.468 -0.761 0.449 108 99 91 0 0
31.8647 32.0226 9.0823 -0.503 -0.720 0.479 108 99 91 0 0
31.8579 31.8900 9.0671 -0.779 -0.301 0.551 111 99 91 0 0
32.0011 31.7929 9.0665 -0.555 -0.488 0.673 113 103 93 0 0
31.9403 31.6042 9.0412 -0.833 -0.090 -0.547 91 78 69 0 0
31.9062 31.4443 9.0210 -0.320 -0.786 -0.529 98 85 76 0 0
32.0636 31.2411 9.0097 -0.967 0.204 -0.156 80 73 68 0 0
25.4417 24.0099 7.7357 0.262 -0.864 0.430 92 89 83 0 0
28.4480 25.8436 8.1532 0.634 -0.761 -0.136 98 92 87 0 0
31.1185 28.1727 8.6018 0.562 -0.821 0.103 78 75 72 0 0
26.5326 23.1540 7.7184 -0.051 -0.871 0.489 17 17 19 0 0
26.2181 22.7531 7.6515 -0.884 0.464 -0.061 9 9 11 0 0
25.9338 22.1053 7.5594 -0.959 0.241 -0.149 57 52 48 0 0
25.8313 21.9152 7.5310 -0.757 -0.483 -0.441 75 68 63 0 0
25.7973 21.5191 7.4846 -0.947 0.046 -0.317 93 79 72 0 0
25.7161 21.1737 7.4405 -0.962 0.239 -0.130 40 31 31 0 0
25.8769 21.1456 7.4488 -0.519 -0.839 -0.163 44 37 37 0 0
25.0087 19.4893 7.2031 -0.962 0.260 -0.087 48 44 41 0 0
24.9893 19.3886 7.1906 -0.968 0.218 -0.124 60 55 52 0 0
24.9216 19.2450 7.1698 -0.649 -0.465 -0.602 66 59 56 0 0
24.9911 19.2244 7.1725 -0.511 -0.625 -0.590 75 67 62 0 0
25.1602 18.6392 7.1196 -0.915 -0.385 0.124 211 198 175 0 0
25.1982 18.5114 7.1081 -0.497 -0.868 0.023 241 226 203 0 0
27.1540 19.5251 7.3598 -0.403 -0.672 0.621 136 119 103 0 0
27.7130 19.5764 7.4053 -0.856 -0.470 -0.216 87 74 60 0 0
27.7451 19.5199 7.4013 -0.856 -0.470 -0.216 80 68 57 0 0
27.8137 19.4109 7.3940 -0.729 -0.657 -0.192 89 74 61 0 0
28.0229 19.3345 7.4005 -0.609 -0.789 -0.088 82 66 54 0 0
28.0086 19.2408 7.3890 -0.551 -0.294 -0.781 82 65 55 0 0
28.0690 19.2078 7.3897 -0.121 -0.759 -0.639 81 66 54 0 0
28.0732 19.1294 7.3813 -0.802 0.531 -0.274 76 63 55 0 0
27.5516 18.3896 7.2620 -0.857 0.271 0.439 55 47 41 0 0
26.4885 16.8622 7.0168 -0.849 0.528 -0.032 63 52 45 0 0
25.5019 15.3172 6.7751 -0.816 0.546 -0.189 111 103 90 0 0
25.4498 15.2086 6.7594 -0.727 -0.567 -0.386 151 143 128 0 0
25.5110 15.1849 6.7611 -0.150 -0.961 -0.233 233 227 210 0 0
26.4178 14.6773 6.7693 -0.487 -0.817 -0.308 225 209 180 0 0
26.4689 14.6456 6.7694 -0.545 -0.827 -0.138 220 204 177 0 0
26.5169 14.6118 6.7690 -0.652 -0.736 -0.183 219 204 177 0 0
26.5669 14.5793 6.7690 -0.918 -0.376 -0.129 214 198 172 0 0
26.5896 14.5277 6.7649 -0.929 -0.301 -0.216 172 156 136 0 0
26.6721 14.4507 6.7622 -0.704 -0.641 -0.306 97 84 75 0 0
26.6337 14.3571 6.7491 -0.964 -0.025 -0.264 89 77 68 0 0
26.6523 14.3032 6.7444 -0.997 -0.015 -0.080 96 86 74 0 0
26.6400 14.2282 6.7352 -0.958 0.279 -0.068 98 88 77 0 0
26.2826 13.7212 6.6535 -0.946 0.306 -0.104 28 22 21 0 0
26.2440 13.6303 6.6407 -0.090 -0.979 -0.181 28 24 21 0 0
26.3233 13.6192 6.6451 -0.069 -0.914 -0.399 115 108 99 0 0
2.9551 30.0335 6.7484 -0.963 0.041 -0.267 161 164 146 0 0
2.9911 29.9550 6.7423 -0.950 -0.313 -0.015 149 151 137 0 0
3.0225 29.8555 6.7336 -0.509 -0.658 0.556 125 129 118 0 0
3.7559 29.1253 6.7050 -0.870 -0.491 -0.048 202 196 176 0 0
3.9637 28.4541 6.6459 -0.693 -0.697 -0.186 227 213 185 0 0
4.1980 28.3335 6.6491 0.026 -0.999 0.029 213 201 177 0 0
4.2995 28.3148 6.6542 -0.300 -0.953 0.041 138 123 105 0 0
4.4041 28.3068 6.6607 -0.393 -0.917 0.065 202 188 164 0 0
5.0217 28.9926 6.7793 0.686 -0.725 0.053 181 165 149 0 0
5.1548 29.0739 6.7976 -0.667 -0.694 -0.272 217 200 177 0 0
6.1709 28.1449 6.7670 -0.673 -0.739 0.033 192 177 157 0 0
6.2543 28.2306 6.7823 -0.829 -0.555 -0.068 147 137 120 0 0
6.2971 28.1861 6.7804 0.041 -0.955 -0.295 108 98 86 0 0
9.0499 32.2117 7.4154 0.782 -0.597 -0.178 136 123 107 0 0
9.2861 32.5039 7.4640 0.778 -0.601 -0.185 127 114 98 0 0
9.5766 32.5659 7.4912 -0.928 -0.279 -0.248 224 208 182 0 0
9.6826 32.6717 7.5103 -0.755 -0.012 -0.655 225 209 183 0 0
9.6094 32.2862 7.4628 0.399 -0.653 -0.644 230 214 188 0 0
9.8167 32.3002 7.4789 -0.218 -0.569 -0.793 231 215 190 0 0
9.8358 32.1699 7.4660 -0.644 -0.349 -0.681 236 221 196 0 0
9.7625 29.0841 7.1223 -0.424 -0.845 -0.326 200 184 162 0 0
9.8222 29.0723 7.1252 -0.194 -0.973 -0.122 196 179 159 0 0
9.8868 29.0726 7.1297 0.321 -0.947 -0.002 174 157 138 0 0
10.1316 29.1954 7.1604 0.296 -0.921 -0.254 143 128 114 0 0
11.6615 31.2288 7.4909 -0.067 -0.639 0.767 167 153 139 0 0
11.8915 31.1097 7.4940 -0.972 -0.167 0.164 186 169 151 0 0
11.9354 31.0487 7.4904 -0.872 0.101 -0.478 183 168 149 0 0
12.2903 31.0494 7.5154 -0.204 -0.572 -0.794 135 119 109 0 0
12.3707 31.0697 7.5233 -0.270 -0.615 -0.740 139 125 114 0 0
12.4061 30.9895 7.5170 -0.232 -0.878 -0.419 136 123 111 0 0
12.4816 30.9982 7.5232 0.301 -0.596 -0.744 128 115 105 0 0
13.1738 31.7177 7.6508 0.746 -0.639 -0.187 55 53 50 0 0
13.2554 31.7344 7.6583 0.619 -0.785 -0.007 58 55 53 0 0
14.8779 32.9029 7.9005 -0.954 0.270 0.134 86 83 81 0 0
14.5835 31.8350 7.7626 -0.891 -0.086 -0.445 67 63 62 0 0
14.7171 31.9491 7.7845 -0.015 -0.355 -0.935 66 62 60 0 0
14.7717 31.9038 7.7834 0.443 -0.634 -0.634 80 78 76 0 0
14.9110 32.0275 7.8068 0.670 -0.544 -0.504 98 98 96 0 0
20.0967 38.8425 8.9186 -0.080 -0.895 0.439 170 153 137 0 0
20.2281 38.9101 8.9353 0.016 -0.941 0.337 182 166 151 0 0
19.7522 37.6907 8.7681 -0.366 -0.927 -0.087 167 152 140 0 0
19.8549 37.7085 8.7772 0.082 -0.907 0.414 173 161 151 0 0
19.9487 37.7094 8.7839 0.033 -0.682 0.731 137 127 118 0 0
20.0802 37.6093 8.7822 0.005 -0.534 0.845 182 170 161 0 0
20.1845 37.6284 8.7916 -0.164 -0.414 0.895 169 159 147 0 0
20.2772 37.6263 8.7979 -0.157 -0.408 0.899 193 181 170 0 0
20.3666 37.6179 8.8032 -0.141 -0.412 0.900 171 158 147 0 0
20.4498 37.5982 8.8069 -0.119 -0.429 0.896 190 177 167 0 0
20.5338 37.5798 8.8108 -0.112 -0.445 0.888 198 187 177 0 0
20.6120 37.5510 8.8131 -0.163 -0.423 0.891 169 158 147 0 0
20.7038 37.5459 8.8190 -0.191 -0.431 0.882 199 187 175 0 0
20.7815 37.5158 8.8212 -0.191 -0.431 0.882 187 175 164 0 0
17.6667 29.8218 7.7583 -0.060 -0.088 -0.994 106 98 88 0 0
17.5627 29.5165 7.7175 0.126 -0.740 0.660 217 211 199 0 0
17.6870 29.5872 7.7340 -0.014 -0.832 0.554 201 195 181 0 0
17.8540 29.5936 7.7464 -0.972 -0.047 -0.230 248 244 233 0 0
18.6122 29.4864 7.7879 0.178 -0.358 -0.917 192 179 165 0 0
27.5254 35.8708 9.1143 0.260 -0.966 -0.012 97 86 76 0 0
23.3154 27.1339 7.8601 -0.471 -0.851 -0.232 240 235 220 0 0
23.3831 26.7661 7.8245 0.138 -0.734 -0.665 85 74 66 0 0
30.4232 33.7801 9.0884 0.330 -0.239 -0.913 185 170 154 0 0
30.5746 33.8229 9.1038 0.163 -0.101 -0.981 152 138 126 0 0
30.3880 33.4733 9.0523 -0.783 0.080 0.617 124 115 109 0 0
30.0926 32.8694 8.9653 -0.712 0.013 0.702 117 107 104 0 0
31.2832 33.4431 9.1119 -0.571 -0.821 0.005 109 100 96 0 0
31.7063 33.1327 9.1075 -0.234 -0.920 -0.314 105 97 90 0 0
31.7054 32.1083 8.9951 -0.442 -0.896 -0.036 101 92 85 0 0
31.7504 32.0310 8.9898 -0.663 -0.723 -0.191 102 93 87 0 0
31.7935 31.9519 8.9841 -0.730 -0.642 -0.234 98 89 82 0 0
31.7863 31.8192 8.9690 -0.831 -0.257 0.493 114 104 96 0 0
31.9139 31.7062 8.9656 -0.604 -0.721 0.340 116 107 98 0 0
31.9702 31.6418 8.9625 -0.799 -0.330 -0.502 97 84 76 0 0
31.9379 31.4839 8.9429 -0.320 -0.786 -0.529 96 82 75 0 0
31.9929 31.4186 8.9396 0.012 -0.843 -0.537 96 85 78 0 0
32.1142 31.4230 8.9486 0.270 -0.799 -0.538 79 70 64 0 0
32.0881 31.2728 8.9303 -0.955 0.053 -0.292 82 76 70 0 0
25.4082 23.9803 7.6611 0.132 -0.785 0.606 94 89 84 0 0
25.5170 23.9936 7.6702 -0.090 -0.829 0.551 54 54 51 0 0
28.0498 25.5556 8.0195 0.660 -0.749 -0.057 96 89 80 0 0
26.4746 23.1034 7.6398 -0.165 -0.756 0.633 17 17 19 0 0
25.9278 22.1054 7.4919 -0.906 0.388 0.170 55 50 48 0 0
25.8864 21.9738 7.4746 -0.960 0.279 -0.031 76 68 65 0 0
25.8042 21.8039 7.4501 -0.976 0.218 -0.023 88 77 71 0 0
25.7953 21.7043 7.4386 -0.900 -0.361 -0.243 94 83 77 0 0
25.8022 21.6201 7.4298 -0.995 0.091 -0.029 92 79 72 0 0
25.7935 21.5215 7.4184 -0.995 0.091 -0.029 92 79 72 0 0
25.0313 19.5996 7.1540 -0.944 0.323 0.062 32 27 27 0 0
25.0121 19.4987 7.1416 -0.967 0.251 -0.034 42 38 37 0 0
24.9892 19.3948 7.1286 -0.956 0.220 -0.196 56 52 50 0 0
24.9510 19.2775 7.1130 -0.649 -0.465 -0.602 66 61 57 0 0
25.0160 19.2530 7.1149 -0.693 -0.485 -0.533 74 66 62 0 0
25.0277 18.7724 7.0630 -0.999 0.030 0.031 141 128 113 0 0
25.0415 18.7036 7.0564 -0.999 -0.047 0.024 164 151 132 0 0
25.2029 18.5220 7.0479 -0.724 -0.685 -0.078 240 225 202 0 0
27.9796 19.3068 7.3290 -0.334 -0.923 -0.192 82 66 53 0 0
28.0341 19.2691 7.3286 -0.377 -0.488 -0.787 83 69 56 0 0
28.1114 19.2496 7.3319 -0.121 -0.759 -0.639 82 68 55 0 0
27.4451 18.3122 7.1823 -0.774 0.529 -0.347 66 59 52 0 0
27.5448 18.2336 7.1807 -0.880 0.473 0.044 101 88 76 0 0
27.2292 17.9058 7.1226 -0.727 0.547 -0.415 109 97 83 0 0
26.0654 16.1770 6.8512 -0.942 0.331 0.063 31 25 24 0 0
26.0288 16.0769 6.8376 -0.943 0.329 0.059 32 26 24 0 0
25.4998 15.1839 6.7025 -0.188 -0.979 0.081 149 141 129 0 0
25.9295 15.0861 6.7219 -0.334 -0.904 0.267 190 170 146 0 0
26.4279 14.6922 6.7137 -0.487 -0.817 -0.308 176 158 134 0 0
26.4702 14.6543 6.7125 -0.545 -0.827 -0.138 170 153 128 0 0
26.5487 14.6419 6.7167 -0.918 -0.376 -0.129 171 154 133 0 0
26.5706 14.5898 6.7125 -0.918 -0.376 -0.129 163 147 124 0 0
26.6009 14.5435 6.7095 -0.760 -0.614 -0.212 137 121 103 0 0
26.6802 14.4643 6.7064 -0.593 -0.794 -0.134 74 60 52 0 0
26.6271 14.3605 6.6913 -0.969 -0.204 -0.139 66 53 44 0 0
26.6344 14.2988 6.6850 -0.997 -0.063 0.038 85 75 64 0 0
26.6515 14.2440 6.6802 -0.923 0.384 -0.014 96 86 76 0 0
26.2994 13.7405 6.6003 -0.942 0.336 -0.012 28 23 21 0 0
26.2470 13.6402 6.5856 -0.090 -0.979 -0.181 27 22 21 0 0
2.9707 30.0744 6.6981 -0.963 0.041 -0.267 119 124 114 0 0
2.9957 29.9436 6.6857 -0.950 -0.313 -0.015 113 118 108 0 0
3.7604 29.1164 6.6490 -0.876 -0.456 -0.159 218 210 189 0 0
4.3098 28.3304 6.6018 -0.288 -0.950 0.117 138 122 105 0 0
4.4103 28.3070 6.6063 -0.319 -0.940 0.117 194 180 155 0 0
4.5280 28.3474 6.6188 0.385 -0.923 -0.026 90 79 68 0 0
4.9517 28.9154 6.7097 0.717 -0.697 -0.008 173 157 141 0 0
5.0366 29.0245 6.7274 0.492 -0.870 -0.019 186 170 153 0 0
6.2656 28.2490 6.7285 -0.772 -0.598 -0.213 141 129 113 0 0
6.3081 28.2032 6.7265 0.041 -0.955 -0.295 103 91 79 0 0
9.5876 32.5805 7.4283 -0.827 -0.278 -0.488 221 205 179 0 0
9.6916 32.6811 7.4465 -0.653 -0.139 -0.745 221 205 179 0 0
9.6588 32.4061 7.4144 0.106 -0.470 -0.876 229 213 188 0 0
9.7857 32.3842 7.4208 -0.063 -0.485 -0.872 226 210 185 0 0
9.8105 32.2689 7.4100 -0.618 -0.115 -0.778 231 215 190 0 0
9.8405 32.1678 7.4011 -0.618 -0.115 -0.778 237 222 197 0 0
9.5439 30.1599 7.1629 -0.087 -0.807 0.584 128 114 98 0 0
9.6018 29.1523 7.0576 -0.688 -0.721 -0.084 187 170 150 0 0
9.6558 29.1269 7.0586 -0.405 -0.914 0.009 196 179 157 0 0
9.7724 29.0971 7.0635 -0.362 -0.924 -0.125 223 208 187 0 0
9.8243 29.0661 7.0637 -0.283 -0.959 -0.004 201 184 165 0 0
10.1329 29.1877 7.0983 0.319 -0.944 -0.078 142 127 114 0 0
11.6639 31.2239 7.4251 0.085 -0.706 0.704 171 158 142 0 0
11.8902 31.0968 7.4270 -0.972 -0.160 0.175 186 169 151 0 0
11.9035 30.8057 7.3964 -0.525 -0.542 -0.657 153 138 121 0 0
12.0809 31.0484 7.4350 0.610 -0.598 -0.519 140 125 109 0 0
12.3093 31.0826 7.4545 0.112 -0.647 -0.754 138 122 111 0 0
12.3557 31.0268 7.4517 -0.287 -0.680 -0.675 139 125 114 0 0
12.3831 30.9292 7.4430 -0.780 -0.175 -0.600 133 120 110 0 0
12.5277 31.0909 7.4706 0.361 -0.648 -0.670 127 114 105 0 0
13.2171 31.6432 7.5782 0.402 -0.903 -0.152 59 55 53 0 0
17.4038 39.8967 8.7632 0.669 -0.389 -0.633 82 78 77 0 0
18.5265 42.0785 9.0775 -0.920 0.389 0.039 95 89 88 0 0
14.8460 32.8304 7.8198 -0.954 0.270 0.134 74 71 70 0 0
14.7530 32.4827 7.7757 -0.959 0.266 0.101 83 76 72 0 0
14.6283 32.0734 7.7227 -0.956 0.290 -0.034 94 88 84 0 0
14.8069 32.1221 7.7403 0.050 -0.249 -0.967 112 104 99 0 0
14.8177 31.9888 7.7266 0.503 -0.503 -0.702 94 88 83 0 0
19.5738 39.4505 8.8652 -0.210 -0.742 -0.637 251 240 222 0 0
19.9755 38.7871 8.8211 0.149 -0.895 0.420 193 178 161 0 0
