ply
format ascii 1.0
element vertex 834
property float x
property float y
property float z
property float nx
property float ny
property float nz
property uchar diffuse_red
property uchar diffuse_green
property uchar diffuse_blue
property uchar class
property uchar detection
end_header
1.2282 4.4310 0.0585 0.194 -0.344 -0.919 225 249 255 0 0
1.2461 4.4323 0.0609 -0.243 -0.831 -0.500 233 253 255 0 0
1.3454 4.2674 0.0586 0.648 -0.623 -0.438 240 254 254 0 0
1.3534 4.2700 0.0599 0.570 -0.589 -0.573 239 255 254 0 0
1.3607 4.2743 0.0612 0.581 -0.599 -0.551 240 254 254 0 0
1.3062 4.4448 0.0698 0.116 -0.751 -0.650 239 255 254 0 0
1.3165 4.4420 0.0709 -0.040 -0.644 -0.764 240 254 254 0 0
1.9433 3.9743 0.1089 0.341 -0.900 -0.273 238 255 255 0 0
1.9432 4.9898 0.2021 0.037 -0.084 0.996 170 239 254 0 0
2.2753 4.5203 0.2019 0.144 -0.289 0.946 173 240 255 0 0
2.2833 4.5284 0.2037 0.130 -0.316 0.940 172 241 255 0 0
2.4320 4.5045 0.2207 0.728 -0.393 0.562 174 244 255 0 0
2.4617 4.9977 0.2697 -0.702 -0.284 0.653 174 242 255 0 0
2.7732 4.4742 0.2620 -0.137 -0.941 -0.309 198 254 255 0 0
2.9621 4.4082 0.2803 -0.425 -0.888 0.177 181 245 255 0 0
2.9716 4.4092 0.2816 -0.041 -0.990 0.134 192 252 255 0 0
2.9810 4.4104 0.2829 0.232 -0.973 0.005 204 255 255 0 0
2.9904 4.4126 0.2844 0.383 -0.921 -0.077 208 255 255 0 0
3.1174 4.3716 0.2970 -0.539 -0.812 -0.223 183 251 254 0 0
3.1269 4.3723 0.2983 -0.573 -0.804 -0.160 186 254 255 0 0
3.1947 4.3480 0.3048 0.045 -0.984 -0.175 212 253 255 0 0
3.2137 4.3475 0.3072 -0.447 -0.676 -0.586 192 247 250 0 0
3.2231 4.3526 0.3089 -0.202 -0.635 -0.746 188 248 249 0 0
3.2408 4.3928 0.3149 0.420 -0.593 -0.687 180 243 250 0 0
3.2502 4.4005 0.3168 0.811 -0.463 -0.357 183 247 255 0 0
3.2623 4.3148 0.3105 -0.073 -0.990 -0.123 187 252 255 0 0
3.3374 4.3602 0.3244 0.548 -0.206 -0.810 180 247 255 0 0
3.3478 4.3010 0.3203 0.025 -0.982 -0.185 179 246 255 0 0
3.3763 4.2925 0.3232 -0.497 -0.866 0.051 184 248 255 0 0
3.3858 4.2866 0.3238 -0.573 -0.810 -0.122 183 247 255 0 0
3.3952 4.2846 0.3249 -0.148 -0.965 -0.218 182 247 251 0 0
3.4047 4.2844 0.3261 -0.077 -0.869 -0.488 183 248 252 0 0
3.4141 4.2899 0.3278 0.229 -0.705 -0.672 180 244 253 0 0
3.4424 4.2595 0.3287 -0.630 -0.752 -0.194 185 248 253 0 0
3.4612 4.2509 0.3303 -0.490 -0.849 -0.195 196 252 253 0 0
3.4706 4.2448 0.3310 -0.565 -0.798 -0.209 199 253 253 0 0
3.4893 4.2427 0.3332 0.100 -0.867 -0.487 195 251 252 0 0
3.4987 4.2421 0.3343 0.066 -0.853 -0.517 194 252 253 0 0
3.5081 4.2420 0.3355 0.014 -0.852 -0.524 191 249 251 0 0
3.5176 4.2469 0.3372 0.176 -0.809 -0.561 189 248 252 0 0
3.5278 4.2892 0.3424 -0.416 -0.788 -0.454 189 250 253 0 0
3.5733 4.2168 0.3417 -0.162 -0.955 -0.248 205 251 249 0 0
3.6291 4.2052 0.3478 -0.213 -0.941 -0.262 183 246 255 0 0
3.6379 4.1920 0.3477 -0.235 -0.972 -0.021 179 246 255 0 0
3.6473 4.1920 0.3489 -0.124 -0.991 -0.048 177 244 255 0 0
3.6564 4.1876 0.3497 0.209 -0.951 0.227 177 240 255 0 0
3.6659 4.1911 0.3513 0.162 -0.979 0.123 179 241 252 0 0
3.6754 4.1928 0.3526 0.180 -0.983 -0.023 180 243 252 0 0
3.6850 4.1996 0.3545 0.148 -0.985 -0.085 182 246 255 0 0
3.6944 4.1990 0.3557 0.076 -0.992 -0.105 181 248 255 0 0
3.7037 4.1991 0.3569 0.024 -0.997 -0.073 182 249 255 0 0
3.7119 4.1753 0.3557 -0.718 -0.645 -0.261 183 250 255 0 0
3.7204 4.1600 0.3554 -0.774 -0.595 0.216 184 249 255 0 0
4.4619 4.0161 0.4380 -0.879 -0.355 -0.317 138 224 255 0 0
0.5723 5.2568 0.0386 0.418 -0.872 -0.256 51 87 135 0 0
0.5834 5.2554 0.0399 -0.300 -0.919 -0.254 51 85 141 0 0
0.5923 5.2590 0.0414 0.235 -0.932 -0.275 54 87 144 0 0
0.6967 5.0665 0.0375 -0.540 -0.549 0.638 60 88 150 0 0
1.0716 4.2826 0.0153 0.417 -0.907 -0.055 207 228 254 0 0
1.0697 4.3082 0.0174 0.359 -0.933 -0.009 225 244 255 0 0
1.0878 4.3507 0.0235 -0.295 -0.954 0.046 241 254 253 0 0
1.1049 4.3314 0.0240 -0.612 -0.728 0.309 241 252 254 0 0
1.1519 4.2831 0.0257 -0.090 -0.918 -0.387 247 254 255 0 0
1.1219 4.3781 0.0304 -0.796 -0.605 0.002 243 254 255 0 0
1.1527 4.3473 0.0316 0.418 -0.903 -0.098 219 243 250 0 0
1.2144 4.4218 0.0463 0.083 -0.241 0.967 161 189 223 0 0
1.2334 4.4443 0.0507 0.164 -0.213 0.963 197 225 249 0 0
1.3091 4.4649 0.0624 0.573 -0.808 0.138 239 254 255 0 0
1.4868 4.1276 0.0549 0.079 -0.794 -0.602 240 255 252 0 0
2.0398 4.1736 0.1304 0.002 -0.082 0.997 199 245 253 0 0
2.0402 4.2072 0.1335 0.076 -0.068 0.995 194 244 252 0 0
2.0332 4.2706 0.1383 0.063 -0.069 0.996 190 243 252 0 0
2.0083 5.2176 0.2203 0.268 -0.344 -0.900 169 243 255 0 0
2.5428 4.8090 0.2525 -0.289 -0.256 0.922 175 245 255 0 0
2.6943 4.6541 0.2581 -0.919 -0.307 -0.246 175 242 251 0 0
2.7297 4.4459 0.2439 0.230 -0.961 0.157 176 242 254 0 0
2.7528 4.4939 0.2512 0.006 -0.991 -0.134 177 249 255 0 0
2.7741 4.4770 0.2525 -0.210 -0.919 -0.333 199 255 255 0 0
2.9625 4.4171 0.2714 -0.414 -0.734 -0.539 177 243 255 0 0
2.9915 4.4138 0.2748 0.383 -0.921 -0.077 207 255 255 0 0
3.1378 4.3680 0.2896 -0.177 -0.962 -0.208 186 254 253 0 0
3.1956 4.3546 0.2958 0.135 -0.986 0.097 204 248 251 0 0
3.2416 4.4053 0.3063 0.389 -0.554 -0.736 183 250 255 0 0
3.2509 4.4151 0.3084 0.672 -0.420 -0.611 188 252 255 0 0
3.2634 4.3169 0.3012 -0.038 -0.948 -0.316 187 252 255 0 0
3.2730 4.3108 0.3019 -0.609 -0.763 -0.219 188 253 255 0 0
3.3394 4.3089 0.3103 0.583 -0.812 -0.009 184 251 255 0 0
3.3488 4.3153 0.3120 0.498 -0.862 0.096 182 249 255 0 0
3.3580 4.3383 0.3153 0.713 -0.701 -0.007 182 249 255 0 0
3.3773 4.3032 0.3146 -0.306 -0.606 0.734 188 253 255 0 0
3.3868 4.3029 0.3158 -0.101 -0.511 0.854 186 251 255 0 0
3.3964 4.2923 0.3161 -0.259 -0.700 0.666 187 252 255 0 0
3.4058 4.3074 0.3187 0.005 -1.000 -0.010 190 253 255 0 0
3.4153 4.2821 0.3176 0.292 -0.952 0.092 190 253 255 0 0
3.4342 4.2810 0.3200 -0.841 -0.532 -0.104 185 250 255 0 0
3.4811 4.2412 0.3225 -0.317 -0.919 -0.235 198 254 253 0 0
3.5189 4.2541 0.3285 0.213 -0.803 -0.556 189 250 251 0 0
3.5283 4.2544 0.3297 0.176 -0.809 -0.561 189 250 253 0 0
3.5373 4.2328 0.3289 0.080 -0.968 -0.239 184 249 251 0 0
3.5838 4.2160 0.3334 -0.165 -0.896 -0.412 224 255 255 0 0
3.5930 4.2110 0.3342 0.107 -0.982 -0.159 226 255 253 0 0
3.6024 4.2136 0.3356 0.180 -0.972 -0.153 226 254 255 0 0
3.6119 4.2151 0.3370 0.180 -0.972 -0.153 216 253 255 0 0
3.6212 4.2131 0.3380 -0.061 -0.987 -0.150 187 239 253 0 0
3.6303 4.2075 0.3387 -0.213 -0.941 -0.262 180 241 255 0 0
3.6391 4.1919 0.3384 -0.235 -0.972 -0.021 181 244 255 0 0
3.6484 4.1921 0.3396 -0.437 -0.882 0.177 178 241 255 0 0
3.6576 4.1877 0.3404 -0.437 -0.882 0.177 174 236 247 0 0
3.6670 4.1900 0.3418 0.111 -0.925 0.363 180 240 250 0 0
3.6765 4.1915 0.3432 0.238 -0.861 0.449 180 243 252 0 0
3.6862 4.2005 0.3453 0.148 -0.985 -0.085 184 248 255 0 0
3.6957 4.2017 0.3466 -0.147 -0.964 -0.221 180 247 255 0 0
3.7049 4.1993 0.3476 -0.223 -0.930 -0.293 181 248 254 0 0
3.7142 4.1970 0.3485 -0.410 -0.912 -0.021 181 246 250 0 0
3.7231 4.1893 0.3490 -0.759 -0.651 0.008 182 245 250 0 0
4.0761 3.3584 0.3198 -0.418 -0.721 -0.552 255 253 254 0 0
4.3851 3.3356 0.3576 0.248 -0.337 0.908 133 222 254 0 0
4.4171 3.3723 0.3650 0.072 -0.303 0.950 136 222 255 0 0
4.6597 4.2759 0.4776 0.891 -0.442 -0.106 133 221 255 0 0
4.5576 3.6273 0.4061 0.783 -0.494 0.377 129 219 255 0 0
0.5835 5.2579 0.0291 -0.284 -0.924 -0.257 50 85 139 0 0
1.0613 4.2882 0.0051 -0.346 -0.936 -0.063 188 207 244 0 0
1.0722 4.2835 0.0061 0.417 -0.907 -0.055 212 236 255 0 0
1.0705 4.3085 0.0081 0.485 -0.874 -0.028 228 251 255 0 0
1.0908 4.3461 0.0141 -0.470 -0.880 0.062 242 254 253 0 0
1.1281 4.3657 0.0206 -0.650 -0.758 0.048 242 255 254 0 0
1.1398 4.3593 0.0215 -0.601 -0.796 -0.072 234 253 254 0 0
1.1520 4.3516 0.0224 0.450 -0.893 0.001 211 237 244 0 0
1.1580 4.3593 0.0239 0.640 -0.748 0.177 144 176 197 0 0
1.2435 4.3734 0.0362 -0.067 -0.297 0.952 109 144 193 0 0
1.2582 4.4066 0.0410 -0.074 -0.239 0.968 149 184 226 0 0
1.2663 4.4093 0.0423 -0.074 -0.239 0.968 164 196 231 0 0
1.2745 4.4120 0.0436 -0.074 -0.239 0.968 183 206 238 0 0
1.3121 4.4595 0.0526 0.492 -0.504 0.710 232 250 255 0 0
1.5010 4.1397 0.0487 0.757 -0.651 0.053 238 254 252 0 0
1.5041 4.1555 0.0505 0.341 -0.940 0.032 239 255 253 0 0
1.5124 4.1570 0.0517 0.380 -0.916 0.128 238 255 252 0 0
2.1019 4.0728 0.1203 0.083 -0.070 0.994 207 245 251 0 0
2.3090 4.3627 0.1726 0.905 -0.364 -0.222 174 244 255 0 0
2.5245 4.8037 0.2393 -0.331 -0.284 0.900 178 246 255 0 0
2.5504 4.7650 0.2392 -0.403 -0.284 0.870 176 244 255 0 0
2.5124 5.1739 0.2704 0.130 -0.503 0.854 177 243 255 0 0
2.6472 4.4980 0.2281 -0.889 -0.336 0.312 178 246 255 0 0
2.6558 4.5063 0.2299 -0.304 -0.304 0.903 177 247 255 0 0
2.7346 4.4942 0.2390 0.175 -0.963 -0.203 177 245 254 0 0
2.7538 4.4952 0.2416 0.006 -0.991 -0.134 180 249 251 0 0
2.7750 4.4789 0.2429 -0.155 -0.964 -0.215 197 255 255 0 0
2.9822 4.4256 0.2649 0.024 -0.826 -0.563 183 248 252 0 0
2.9926 4.4150 0.2653 0.383 -0.921 -0.077 186 247 250 0 0
3.0010 4.4303 0.2677 -0.270 -0.501 -0.822 188 247 251 0 0
3.0111 4.4237 0.2684 -0.270 -0.501 -0.822 189 247 249 0 0
3.1779 4.3502 0.2835 0.212 -0.977 -0.022 208 247 254 0 0
3.1873 4.3522 0.2849 0.212 -0.977 -0.022 215 252 255 0 0
3.1967 4.3554 0.2863 0.093 -0.995 0.046 207 251 255 0 0
3.2063 4.3528 0.2874 -0.464 -0.869 -0.171 194 254 255 0 0
3.2161 4.3468 0.2881 -0.508 -0.852 -0.131 186 254 253 0 0
3.2258 4.3423 0.2889 -0.511 -0.836 -0.198 184 254 254 0 0
3.2355 4.3366 0.2897 -0.425 -0.898 -0.117 184 254 254 0 0
3.2645 4.3171 0.2917 -0.385 -0.812 -0.437 186 251 255 0 0
3.2741 4.3126 0.2925 -0.609 -0.763 -0.219 186 251 255 0 0
3.3022 4.3279 0.2975 -0.162 -0.504 -0.849 184 251 255 0 0
3.3410 4.2763 0.2980 0.637 -0.700 0.323 183 250 255 0 0
3.3503 4.2856 0.3000 0.637 -0.700 0.323 184 251 255 0 0
3.3785 4.3022 0.3051 0.202 -0.979 0.034 189 252 255 0 0
3.3880 4.3065 0.3067 0.204 -0.971 0.125 188 251 255 0 0
3.3974 4.3074 0.3080 0.005 -1.000 -0.010 188 251 255 0 0
3.4069 4.3075 0.3092 0.005 -1.000 -0.010 189 253 255 0 0
3.4165 4.2829 0.3083 0.149 -0.988 -0.046 189 252 255 0 0
3.4259 4.2789 0.3091 -0.558 -0.812 -0.174 188 253 255 0 0
3.4353 4.2723 0.3098 -0.558 -0.812 -0.174 187 252 254 0 0
3.4447 4.2644 0.3103 -0.825 -0.556 -0.102 187 252 254 0 0
3.4541 4.2579 0.3109 -0.604 -0.787 -0.126 190 251 252 0 0
3.5207 4.2922 0.3225 0.119 -0.918 -0.379 193 251 253 0 0
3.5301 4.2895 0.3235 -0.404 -0.678 -0.614 188 249 250 0 0
3.5848 4.2118 0.3237 0.107 -0.982 -0.159 216 255 253 0 0
3.5942 4.2126 0.3250 0.107 -0.982 -0.159 221 255 254 0 0
3.6036 4.2153 0.3264 0.180 -0.972 -0.153 230 255 255 0 0
3.6131 4.2168 0.3278 0.180 -0.972 -0.153 222 254 255 0 0
3.6316 4.2096 0.3295 -0.316 -0.923 -0.219 180 239 253 0 0
3.6403 4.1949 0.3294 -0.240 -0.954 -0.183 182 240 252 0 0
3.6689 4.2070 0.3341 0.570 -0.779 -0.262 184 247 255 0 0
3.6786 4.2140 0.3360 0.523 -0.800 -0.295 185 249 255 0 0
3.6875 4.2022 0.3361 0.196 -0.980 -0.015 184 251 255 0 0
3.6967 4.1996 0.3370 -0.377 -0.919 0.118 183 250 255 0 0
4.0329 4.0958 0.3712 -0.610 -0.788 -0.084 218 252 255 0 0
4.4639 4.0613 0.4237 -0.079 -0.919 -0.386 143 222 253 0 0
4.4691 4.0409 0.4226 -0.705 -0.605 -0.371 143 223 255 0 0
4.4706 4.0016 0.4193 -0.573 -0.173 -0.801 141 224 254 0 0
1.0650 4.2820 -0.0043 -0.100 -0.994 0.046 196 215 248 0 0
1.0705 4.3110 -0.0010 -0.001 -0.982 0.191 231 252 255 0 0
1.1085 4.3279 0.0053 -0.660 -0.734 0.162 242 254 254 0 0
1.1452 4.3046 0.0080 -0.505 -0.834 0.224 247 254 255 0 0
1.1284 4.3674 0.0113 -0.610 -0.792 -0.029 242 255 255 0 0
1.1404 4.3605 0.0122 -0.592 -0.805 -0.040 231 251 254 0 0
1.1526 4.3527 0.0131 0.736 -0.676 -0.033 198 226 237 0 0
1.1590 4.3593 0.0145 0.170 -0.984 0.044 117 153 175 0 0
1.3323 4.4583 0.0454 0.073 -0.459 -0.886 218 236 252 0 0
1.3394 4.4641 0.0468 -0.293 -0.938 -0.186 225 243 254 0 0
1.4933 4.1640 0.0407 0.075 -0.990 0.119 237 254 255 0 0
1.5028 4.1622 0.0418 -0.172 -0.947 -0.273 238 254 255 0 0
1.5124 4.1601 0.0428 -0.121 -0.972 -0.202 238 255 255 0 0
1.5231 4.1548 0.0437 -0.238 -0.897 -0.373 237 255 254 0 0
1.5329 4.1518 0.0447 -0.238 -0.897 -0.373 239 254 254 0 0
1.5428 4.1487 0.0458 -0.238 -0.897 -0.373 242 255 255 0 0
1.5522 4.1471 0.0468 -0.348 -0.911 -0.220 241 254 254 0 0
1.5621 4.1441 0.0478 -0.124 -0.908 -0.401 239 253 253 0 0
2.1576 3.8531 0.0994 0.085 -0.072 0.994 229 254 255 0 0
2.2522 4.6536 0.1808 0.505 -0.380 0.775 175 245 255 0 0
2.5480 4.7211 0.2247 -0.608 -0.410 0.679 178 244 255 0 0
2.7064 4.5752 0.2325 -0.149 -0.697 0.701 178 245 254 0 0
2.7252 4.5015 0.2286 0.037 -0.952 -0.304 179 246 255 0 0
2.7353 4.4977 0.2295 0.093 -0.977 -0.194 177 246 253 0 0
2.7641 4.5001 0.2334 0.191 -0.957 -0.217 187 251 253 0 0
2.7759 4.4809 0.2333 -0.155 -0.964 -0.215 195 255 255 0 0
2.7957 4.4768 0.2355 -0.240 -0.947 -0.212 198 255 255 0 0
2.8052 4.4782 0.2368 0.059 -0.970 -0.237 208 255 255 0 0
2.9601 4.4747 0.2565 0.885 -0.389 0.254 182 251 255 0 0
2.9682 4.4952 0.2593 0.901 -0.378 0.212 182 251 255 0 0
3.0017 4.4368 0.2586 -0.273 -0.604 -0.748 184 249 253 0 0
3.0117 4.4313 0.2594 -0.273 -0.604 -0.748 184 247 252 0 0
3.0213 4.4318 0.2607 -0.225 -0.537 -0.813 182 247 251 0 0
3.0313 4.4264 0.2615 -0.225 -0.537 -0.813 183 248 252 0 0
3.0395 4.4474 0.2644 0.840 -0.490 0.235 182 250 251 0 0
3.1863 4.4036 0.2795 -0.483 -0.873 -0.075 213 254 255 0 0
3.2153 4.3990 0.2828 0.255 -0.613 -0.748 186 254 253 0 0
3.2609 4.4840 0.2960 0.821 -0.221 -0.526 186 251 255 0 0
3.3325 4.2899 0.2885 -0.087 -0.686 0.722 180 247 253 0 0
3.3513 4.3012 0.2919 -0.071 -0.920 0.386 182 250 253 0 0
3.4081 4.3076 0.2997 0.005 -1.000 -0.010 190 251 254 0 0
3.4176 4.3076 0.3010 0.005 -1.000 -0.010 190 254 254 0 0
3.4365 4.2865 0.3016 -0.540 -0.777 0.322 189 255 254 0 0
3.4459 4.2633 0.3008 -0.807 -0.577 0.130 188 252 252 0 0
3.5219 4.2961 0.3134 0.119 -0.918 -0.379 196 254 255 0 0
3.5860 4.2135 0.3145 0.107 -0.982 -0.159 207 252 247 0 0
3.5954 4.2143 0.3158 0.107 -0.982 -0.159 213 252 251 0 0
3.6048 4.2169 0.3172 0.180 -0.972 -0.153 229 255 255 0 0
3.6143 4.2185 0.3186 0.180 -0.972 -0.153 221 255 255 0 0
3.6235 4.2147 0.3194 -0.316 -0.923 -0.219 190 239 253 0 0
3.6328 4.2130 0.3205 -0.218 -0.973 -0.076 178 238 249 0 0
3.6416 4.1969 0.3202 -0.192 -0.935 -0.299 185 243 254 0 0
3.6707 4.2211 0.3261 -0.017 -0.568 -0.823 187 250 255 0 0
3.6886 4.2014 0.3267 0.371 -0.788 0.491 183 250 255 0 0
3.6987 4.2169 0.3293 0.368 -0.886 0.282 183 250 255 0 0
3.7082 4.2185 0.3307 0.238 -0.823 0.516 183 250 255 0 0
3.7576 4.1041 0.3271 0.875 -0.270 -0.401 182 249 255 0 0
4.0763 4.0626 0.3646 -0.288 -0.667 -0.687 215 244 248 0 0
1.0723 4.3092 -0.0103 -0.001 -0.982 0.191 234 253 255 0 0
1.1295 4.3674 0.0019 -0.609 -0.791 -0.055 240 254 255 0 0
1.1416 4.3600 0.0029 -0.592 -0.805 -0.040 227 248 253 0 0
1.1551 4.3716 0.0056 -0.710 -0.701 0.063 100 133 162 0 0
1.3467 4.3969 0.0324 0.324 -0.926 0.191 146 170 212 0 0
1.3289 4.4705 0.0363 0.591 -0.416 0.691 167 189 228 0 0
1.3438 4.4552 0.0370 -0.224 -0.943 0.245 179 200 236 0 0
1.3514 4.4600 0.0383 -0.068 -0.990 0.124 194 213 244 0 0
1.3576 4.4685 0.0399 -0.102 -0.983 0.153 204 222 247 0 0
1.4947 4.1631 0.0316 0.075 -0.990 0.119 230 245 254 0 0
1.5034 4.1633 0.0328 -0.121 -0.972 -0.202 234 248 255 0 0
1.5127 4.1619 0.0338 -0.121 -0.972 -0.202 236 251 255 0 0
1.5223 4.1598 0.0349 -0.241 -0.927 -0.286 237 252 255 0 0
1.5679 4.2872 0.0516 -0.310 -0.309 0.899 241 255 255 0 0
1.9327 4.2166 0.0925 -0.310 -0.427 0.849 242 255 255 0 0
1.9622 4.2075 0.0955 -0.282 -0.389 0.877 236 255 255 0 0
2.2069 4.1635 0.1233 0.281 -0.087 0.956 182 242 252 0 0
2.2067 4.2048 0.1268 0.273 -0.087 0.958 179 241 253 0 0
2.1206 4.9576 0.1795 0.053 -0.078 0.996 176 244 255 0 0
2.2537 4.6520 0.1707 0.341 -0.360 0.868 174 247 255 0 0
2.2601 4.6696 0.1731 0.185 -0.299 0.936 176 246 255 0 0
2.2673 4.6828 0.1751 0.511 -0.279 0.813 176 246 255 0 0
2.3164 4.4810 0.1643 -0.016 -0.295 -0.955 176 244 255 0 0
2.7088 4.5653 0.2220 -0.031 -0.678 0.735 180 247 255 0 0
2.7185 4.5663 0.2233 -0.031 -0.678 0.735 180 247 255 0 0
2.7364 4.4988 0.2199 0.169 -0.981 -0.098 179 248 255 0 0
2.7555 4.5009 0.2225 -0.061 -0.969 -0.241 181 251 253 0 0
2.7650 4.5024 0.2238 0.191 -0.957 -0.217 185 252 253 0 0
2.7769 4.4829 0.2237 -0.155 -0.964 -0.215 193 255 255 0 0
3.0472 4.4945 0.2595 0.960 -0.264 0.089 184 249 255 0 0
3.0571 4.4916 0.2605 0.872 -0.463 -0.158 185 248 253 0 0
3.1583 4.4113 0.2667 -0.339 -0.689 0.640 207 255 255 0 0
3.3327 4.3463 0.2837 0.919 -0.357 0.170 181 249 252 0 0
3.3430 4.3006 0.2811 -0.194 -0.944 0.269 187 252 255 0 0
3.3525 4.2983 0.2821 0.139 -0.978 0.158 187 252 255 0 0
3.3619 4.2992 0.2834 0.306 -0.947 0.101 187 252 255 0 0
3.3714 4.3007 0.2848 0.149 -0.984 0.101 187 252 254 0 0
3.3904 4.2871 0.2861 -0.048 -0.957 -0.287 186 250 252 0 0
3.3998 4.2863 0.2872 -0.048 -0.957 -0.287 189 250 253 0 0
3.4093 4.2816 0.2880 -0.096 -0.945 -0.314 191 252 253 0 0
3.4188 4.2802 0.2891 -0.020 -0.957 -0.289 193 254 255 0 0
3.4377 4.2785 0.2914 -0.143 -0.940 -0.309 189 253 253 0 0
3.4471 4.2663 0.2916 0.192 -0.897 -0.398 187 251 251 0 0
3.5231 4.2998 0.3042 0.094 -0.992 -0.087 197 255 255 0 0
3.5420 4.2953 0.3063 -0.181 -0.642 -0.745 188 252 252 0 0
3.5872 4.2159 0.3054 0.148 -0.989 0.010 204 253 249 0 0
3.5966 4.2161 0.3066 0.048 -0.991 -0.123 213 255 254 0 0
3.6060 4.2187 0.3080 0.075 -0.980 -0.184 224 255 255 0 0
3.6154 4.2191 0.3093 0.075 -0.980 -0.184 210 248 255 0 0
3.6247 4.2164 0.3102 -0.383 -0.911 -0.153 182 236 248 0 0
3.6523 4.2024 0.3126 0.088 -0.678 -0.730 187 247 255 0 0
3.6618 4.2047 0.3140 -0.553 -0.551 -0.626 188 251 255 0 0
3.6724 4.2325 0.3177 -0.015 -0.564 -0.826 187 252 255 0 0
3.6816 4.2288 0.3186 -0.157 -0.568 -0.808 183 250 255 0 0
3.6894 4.1956 0.3168 0.349 -0.805 0.480 182 251 255 0 0
3.6997 4.2142 0.3197 0.368 -0.886 0.282 183 250 255 0 0
3.7271 4.0353 0.3081 0.889 -0.265 -0.374 183 250 255 0 0
3.8226 4.2220 0.3362 0.263 -0.367 -0.892 181 248 255 0 0
4.0086 4.1062 0.3503 -0.540 -0.832 0.130 177 243 255 0 0
4.0346 4.0904 0.3523 -0.418 -0.871 -0.259 181 238 249 0 0
4.0939 4.0465 0.3562 -0.812 -0.451 -0.370 169 231 242 0 0
4.3689 4.7395 0.4504 0.936 -0.349 -0.045 255 254 255 0 0
4.3966 3.3374 0.3350 0.761 -0.641 0.103 137 224 254 0 0
1.0704 4.3162 -0.0194 -0.137 -0.966 0.217 237 253 255 0 0
1.1325 4.3404 -0.0094 -0.556 -0.828 -0.069 245 254 255 0 0
1.1309 4.3666 -0.0074 -0.583 -0.812 -0.013 239 253 255 0 0
1.1543 4.3761 -0.0036 -0.745 -0.666 0.019 108 132 166 0 0
1.2524 4.2663 -0.0001 -0.255 -0.958 0.129 139 176 232 0 0
1.2609 4.2674 0.0011 -0.165 -0.979 0.120 161 206 254 0 0
1.5131 4.1637 0.0249 -0.121 -0.972 -0.202 214 229 248 0 0
1.5261 4.2803 0.0362 0.599 -0.523 -0.607 235 252 255 0 0
1.5330 4.2865 0.0376 0.599 -0.523 -0.607 237 253 255 0 0
1.5771 4.2629 0.0413 -0.192 -0.240 0.952 241 253 253 0 0
1.6314 4.2350 0.0460 0.045 -0.226 0.973 240 255 255 0 0
1.9397 4.1951 0.0823 -0.465 -0.525 0.713 241 254 254 0 0
1.9507 4.1875 0.0831 -0.487 -0.607 0.628 238 254 255 0 0
1.9625 4.1770 0.0837 -0.544 -0.584 0.602 233 253 254 0 0
2.1627 4.1652 0.1085 0.767 -0.235 0.597 231 255 255 0 0
2.1697 4.2127 0.1134 0.869 -0.308 0.388 220 255 255 0 0
2.1749 4.2298 0.1154 0.869 -0.308 0.388 216 254 255 0 0
2.2466 4.5960 0.1551 0.430 -0.900 -0.074 176 246 253 0 0
2.2657 4.6470 0.1618 0.541 -0.349 0.765 175 244 252 0 0
2.7114 4.5536 0.2113 -0.031 -0.678 0.735 182 249 255 0 0
2.7211 4.5546 0.2126 -0.031 -0.678 0.735 182 249 255 0 0
2.7374 4.4999 0.2102 0.169 -0.981 -0.098 181 250 255 0 0
2.7468 4.5025 0.2116 0.061 -0.997 -0.054 182 253 255 0 0
2.7660 4.5038 0.2142 0.154 -0.987 -0.035 184 251 254 0 0
2.7975 4.4816 0.2164 -0.252 -0.947 -0.199 199 254 255 0 0
3.0147 4.4222 0.2394 -0.095 -0.961 -0.259 181 250 255 0 0
3.1037 4.3782 0.2472 -0.536 -0.803 -0.261 188 251 255 0 0
3.1221 4.3915 0.2506 -0.355 -0.880 -0.316 187 253 252 0 0
3.1318 4.3882 0.2516 0.013 -0.936 -0.351 195 255 255 0 0
3.1691 4.4108 0.2583 -0.475 -0.878 0.062 202 252 253 0 0
3.3631 4.2977 0.2738 -0.486 -0.706 -0.515 189 254 255 0 0
3.3916 4.2853 0.2765 0.002 -0.781 -0.625 189 253 255 0 0
3.4010 4.2821 0.2774 0.257 -0.763 -0.593 193 254 255 0 0
3.4105 4.2830 0.2787 -0.061 -0.812 -0.580 196 255 255 0 0
3.4199 4.2815 0.2798 -0.061 -0.812 -0.580 194 255 255 0 0
3.4294 4.2802 0.2809 -0.408 -0.835 -0.370 190 251 252 0 0
3.4388 4.2744 0.2816 0.498 -0.860 -0.111 184 248 248 0 0
3.4671 4.2657 0.2846 -0.234 -0.903 -0.360 189 253 253 0 0
3.5048 4.2664 0.2895 0.074 -0.952 -0.298 191 251 252 0 0
3.5145 4.2849 0.2923 -0.561 -0.813 0.157 193 253 254 0 0
3.5238 4.2726 0.2924 -0.068 -0.665 0.744 194 254 255 0 0
3.5421 4.2448 0.2925 0.079 -0.937 -0.342 192 253 254 0 0
3.5515 4.2431 0.2935 -0.250 -0.934 -0.253 190 251 252 0 0
3.5885 4.2200 0.2964 -0.093 -0.995 -0.036 207 255 255 0 0
3.5978 4.2191 0.2975 -0.093 -0.995 -0.036 215 255 255 0 0
3.6072 4.2196 0.2988 -0.041 -0.998 -0.049 212 251 255 0 0
3.6166 4.2192 0.2999 -0.041 -0.998 -0.049 191 233 245 0 0
3.6631 4.2099 0.3051 -0.660 -0.567 -0.493 186 249 255 0 0
3.6833 4.2400 0.3102 -0.229 -0.483 -0.845 183 250 255 0 0
3.7604 4.2662 0.3223 0.794 -0.482 -0.369 183 250 255 0 0
3.7710 4.2825 0.3250 0.760 -0.475 -0.443 183 250 255 0 0
4.0011 4.1128 0.3405 -0.275 -0.961 0.020 175 245 255 0 0
4.0183 4.0999 0.3417 -0.309 -0.951 0.002 179 241 255 0 0
4.0272 4.0970 0.3426 -0.309 -0.951 0.002 178 237 251 0 0
4.0353 4.0866 0.3427 0.024 -0.958 -0.287 180 239 247 0 0
4.0444 4.0852 0.3438 -0.111 -0.931 -0.347 204 254 253 0 0
4.1034 4.0398 0.3476 -0.795 -0.328 -0.511 157 230 249 0 0
4.4079 4.8436 0.4535 0.930 -0.361 -0.063 253 253 251 0 0
4.5920 3.7562 0.3869 0.594 -0.287 0.752 134 220 255 0 0
0.5680 5.3046 -0.0130 -0.888 -0.458 -0.051 54 84 137 0 0
1.0595 4.2811 -0.0330 0.190 -0.972 0.140 189 213 246 0 0
1.0725 4.3138 -0.0287 -0.137 -0.966 0.217 240 254 255 0 0
1.0972 4.3408 -0.0233 -0.646 -0.751 0.136 237 255 255 0 0
1.1353 4.3362 -0.0188 0.235 -0.965 0.118 244 254 255 0 0
1.1323 4.3657 -0.0168 -0.583 -0.812 -0.013 238 252 255 0 0
1.5680 4.5183 0.0516 0.569 -0.731 0.377 241 252 255 0 0
1.5753 4.5248 0.0530 0.569 -0.731 0.377 240 253 255 0 0
1.8657 3.6959 0.0229 -0.138 -0.957 0.254 240 255 255 0 0
1.9419 4.1910 0.0730 -0.224 -0.750 -0.622 240 255 253 0 0
2.0112 4.1323 0.0771 -0.624 -0.736 0.264 238 254 253 0 0
2.0218 4.1258 0.0779 -0.434 -0.848 0.303 239 254 253 0 0
2.1774 4.2236 0.1059 0.854 -0.278 0.440 234 255 255 0 0
2.3331 4.6609 0.1614 0.762 -0.423 -0.490 181 245 254 0 0
2.7138 4.5439 0.2008 0.013 -0.603 0.798 185 249 255 0 0
2.7373 4.5105 0.2011 -0.073 -0.977 -0.202 180 249 255 0 0
2.7478 4.5039 0.2019 0.013 -0.999 0.031 182 251 255 0 0
2.8451 4.4998 0.2141 -0.459 -0.881 0.112 210 252 251 0 0
2.9945 4.5814 0.2399 0.761 -0.259 0.595 181 252 254 0 0
3.0314 4.4747 0.2360 0.090 -0.991 -0.094 185 248 253 0 0
3.0428 4.4495 0.2354 0.193 -0.888 -0.417 189 248 254 0 0
3.1048 4.3801 0.2377 -0.150 -0.940 -0.306 187 252 255 0 0
3.1144 4.3788 0.2389 -0.206 -0.966 -0.154 185 250 252 0 0
3.1238 4.3809 0.2403 -0.077 -0.972 -0.220 189 253 253 0 0
3.1328 4.3917 0.2423 0.013 -0.936 -0.351 196 255 255 0 0
3.1426 4.3866 0.2431 -0.279 -0.906 -0.319 197 255 255 0 0
3.1902 4.3938 0.2498 -0.527 -0.811 0.256 192 250 251 0 0
3.3927 4.2863 0.2671 0.203 -0.821 -0.534 193 255 255 0 0
3.4021 4.2877 0.2684 0.203 -0.821 -0.534 197 255 255 0 0
3.4116 4.2888 0.2697 -0.122 -0.851 -0.511 200 255 255 0 0
3.4211 4.2870 0.2708 -0.198 -0.866 -0.460 195 255 255 0 0
3.4305 4.2837 0.2717 -0.408 -0.835 -0.370 191 251 252 0 0
3.4400 4.2763 0.2724 0.498 -0.860 -0.111 187 248 249 0 0
3.4966 4.2684 0.2790 -0.226 -0.972 -0.069 187 251 251 0 0
3.5058 4.2538 0.2790 -0.235 -0.896 0.377 187 251 251 0 0
3.5156 4.2811 0.2825 -0.359 -0.868 0.343 189 250 251 0 0
3.5442 4.2873 0.2866 0.480 -0.490 0.728 194 254 254 0 0
3.5527 4.2446 0.2843 -0.005 -0.998 -0.063 192 252 252 0 0
3.5709 4.2192 0.2845 0.241 -0.968 -0.074 192 251 255 0 0
3.5897 4.2239 0.2873 -0.205 -0.968 -0.144 206 255 255 0 0
3.5990 4.2203 0.2882 -0.004 -0.980 -0.197 208 255 255 0 0
3.6084 4.2213 0.2895 -0.105 -0.978 -0.179 195 238 245 0 0
3.6178 4.2203 0.2907 -0.087 -0.987 -0.134 177 223 236 0 0
3.6269 4.2133 0.2912 -0.473 -0.866 -0.159 175 235 246 0 0
3.6454 4.2073 0.2931 -0.091 -0.920 -0.381 177 244 253 0 0
3.6646 4.2160 0.2963 -0.603 -0.647 -0.467 183 248 254 0 0
3.8614 4.3261 0.3305 0.448 -0.305 -0.840 181 248 254 0 0
3.9910 4.0938 0.3283 0.575 -0.814 0.079 174 248 255 0 0
4.0371 4.0927 0.3341 -0.014 -0.963 -0.271 194 247 251 0 0
4.0458 4.0876 0.3348 -0.021 -0.887 -0.462 213 255 255 0 0
4.0550 4.0870 0.3360 -0.205 -0.888 -0.411 210 254 253 0 0
0.6971 5.0582 -0.0271 -0.881 -0.461 0.104 83 106 163 0 0
1.0602 4.2820 -0.0422 0.552 -0.834 0.028 198 223 249 0 0
1.0644 4.2929 -0.0408 0.727 -0.680 0.092 220 244 255 0 0
1.0669 4.3082 -0.0393 0.030 -0.988 0.151 236 254 255 0 0
1.0740 4.3127 -0.0380 -0.621 -0.764 0.172 241 254 254 0 0
1.0989 4.3392 -0.0327 -0.705 -0.704 -0.082 238 255 255 0 0
1.1359 4.3373 -0.0281 0.189 -0.955 0.228 243 255 254 0 0
1.4562 4.4357 0.0208 0.102 -0.114 0.988 131 160 200 0 0
1.4567 4.4611 0.0229 0.119 -0.120 0.986 148 176 213 0 0
1.4590 4.4817 0.0248 0.135 -0.123 0.983 164 191 223 0 0
1.4628 4.4978 0.0266 0.100 -0.122 0.987 179 205 232 0 0
1.4733 4.5224 0.0299 0.010 -0.152 0.988 209 230 247 0 0
1.5049 4.5409 0.0355 -0.058 -0.172 0.983 237 252 255 0 0
1.5126 4.5464 0.0369 -0.058 -0.172 0.983 239 253 255 0 0
1.5377 4.5276 0.0386 0.076 -0.356 0.931 241 254 255 0 0
1.5492 4.5214 0.0396 0.182 -0.398 0.899 242 254 255 0 0
1.5562 4.5289 0.0411 0.151 -0.405 0.902 243 254 255 0 0
1.6672 4.3273 0.0393 0.397 -0.263 0.879 238 255 254 0 0
1.6723 4.3402 0.0410 0.382 -0.268 0.885 237 255 254 0 0
1.6783 4.3504 0.0426 0.403 -0.277 0.872 238 255 255 0 0
2.0028 4.1343 0.0670 -0.575 -0.722 0.385 240 255 254 0 0
2.1789 4.1823 0.0934 0.723 -0.236 0.650 241 254 254 0 0
2.1790 4.2212 0.0965 0.898 -0.271 0.347 240 254 254 0 0
2.1839 4.2394 0.0986 0.890 -0.282 0.359 240 255 254 0 0
2.7582 4.5074 0.1937 -0.243 -0.968 0.067 179 248 253 0 0
2.7680 4.5064 0.1948 0.128 -0.989 0.073 183 247 251 0 0
2.9457 4.4715 0.2149 -0.247 -0.911 -0.329 202 255 255 0 0
3.0175 4.4161 0.2197 -0.407 -0.841 -0.357 186 251 253 0 0
3.0228 4.4758 0.2251 -0.219 -0.976 -0.016 186 251 253 0 0
3.0326 4.4749 0.2263 0.013 -0.991 0.132 190 251 254 0 0
3.0423 4.4743 0.2275 0.017 -0.990 0.141 190 249 253 0 0
3.0573 4.3939 0.2230 -0.180 -0.865 -0.468 189 250 253 0 0
3.1058 4.3830 0.2284 -0.150 -0.940 -0.306 183 251 252 0 0
3.1155 4.3801 0.2294 -0.206 -0.966 -0.154 186 252 251 0 0
3.1250 4.3803 0.2306 -0.011 -0.971 -0.238 189 253 253 0 0
3.1338 4.3952 0.2329 0.013 -0.936 -0.351 195 255 255 0 0
3.1441 4.3811 0.2331 -0.310 -0.943 -0.117 195 254 252 0 0
3.1539 4.3762 0.2340 -0.335 -0.940 -0.061 198 255 255 0 0
3.1636 4.3727 0.2350 -0.335 -0.940 -0.061 200 255 255 0 0
3.1830 4.3659 0.2369 -0.509 -0.861 -0.013 196 252 251 0 0
3.1915 4.3916 0.2400 -0.514 -0.853 0.090 189 251 250 0 0
3.2211 4.3669 0.2419 -0.563 -0.815 -0.136 186 250 252 0 0
3.4033 4.2938 0.2594 0.413 -0.712 -0.567 195 255 255 0 0
3.4127 4.2993 0.2611 -0.166 -0.694 -0.701 197 255 255 0 0
3.4222 4.2852 0.2612 -0.409 -0.911 -0.044 194 254 255 0 0
3.4317 4.2802 0.2620 -0.469 -0.883 0.003 193 253 254 0 0
3.4411 4.2826 0.2634 0.509 -0.747 -0.428 192 253 254 0 0
3.4506 4.2881 0.2651 0.509 -0.747 -0.428 188 254 253 0 0
3.4601 4.2955 0.2669 0.545 -0.702 -0.457 188 254 253 0 0
3.4977 4.2681 0.2695 -0.344 -0.939 0.025 185 253 252 0 0
3.5160 4.2326 0.2691 -0.356 -0.656 0.665 188 252 252 0 0
3.5257 4.2477 0.2715 -0.355 -0.921 0.161 192 253 254 0 0
3.5358 4.2841 0.2757 -0.143 -0.784 0.604 195 255 255 0 0
3.5817 4.2320 0.2774 -0.486 -0.831 -0.269 191 249 253 0 0
3.5909 4.2250 0.2781 -0.205 -0.968 -0.144 204 255 255 0 0
3.6003 4.2234 0.2791 -0.092 -0.960 -0.265 202 250 254 0 0
3.6096 4.2225 0.2803 -0.095 -0.968 -0.233 189 233 242 0 0
3.6190 4.2213 0.2814 -0.095 -0.968 -0.233 177 227 238 0 0
3.6281 4.2146 0.2820 -0.494 -0.839 -0.228 182 244 255 0 0
3.6756 4.2261 0.2890 -0.004 -0.606 0.796 183 251 254 0 0
3.6843 4.2112 0.2889 -0.334 -0.555 0.762 183 252 255 0 0
3.9813 4.0784 0.3165 0.609 -0.771 -0.184 178 246 255 0 0
3.9922 4.0943 0.3192 0.268 -0.961 -0.069 174 249 255 0 0
4.0255 4.1444 0.3274 0.487 -0.729 -0.482 183 242 248 0 0
4.0353 4.1483 0.3290 0.544 -0.654 -0.526 198 252 254 0 0
4.0454 4.1547 0.3308 0.518 -0.685 -0.513 205 253 255 0 0
4.0475 4.0922 0.3261 -0.021 -0.887 -0.462 207 252 255 0 0
4.0566 4.0907 0.3271 -0.205 -0.888 -0.411 194 242 246 0 0
4.4622 4.0710 0.3776 -0.317 -0.920 -0.230 143 224 254 0 0
1.0661 4.2915 -0.0501 0.742 -0.670 -0.018 226 248 255 0 0
1.0685 4.3068 -0.0486 0.030 -0.988 0.151 238 255 254 0 0
1.0843 4.3335 -0.0445 -0.424 -0.681 0.597 242 253 254 0 0
1.1460 4.2502 -0.0430 0.424 -0.835 -0.351 242 255 255 0 0
1.1359 4.3398 -0.0373 0.058 -0.939 0.338 241 255 252 0 0
1.1519 4.3675 -0.0331 0.453 -0.890 0.053 166 158 194 0 0
1.9977 4.1242 0.0564 -0.675 -0.682 0.281 243 255 252 0 0
2.0069 4.1230 0.0575 -0.346 -0.932 0.105 243 255 253 0 0
2.1801 4.2213 0.0873 0.939 -0.320 0.130 245 255 255 0 0
2.1854 4.2378 0.0893 0.939 -0.320 0.130 245 255 254 0 0
2.3468 4.6527 0.1423 0.134 -0.063 0.989 179 246 252 0 0
2.7269 4.5353 0.1819 -0.624 -0.677 0.391 184 251 255 0 0
2.7353 4.5465 0.1838 -0.715 -0.621 -0.323 181 252 255 0 0
2.8466 4.5086 0.1952 -0.106 -0.994 -0.011 195 249 251 0 0
2.9069 4.4863 0.2012 -0.168 -0.970 0.177 215 255 255 0 0
2.9169 4.4832 0.2022 -0.624 -0.781 0.019 208 255 253 0 0
2.9672 4.4592 0.2068 -0.270 -0.878 -0.394 220 255 255 0 0
3.0045 4.4770 0.2130 0.405 -0.884 0.232 203 251 253 0 0
3.0142 4.4771 0.2142 0.102 -0.989 -0.108 198 252 254 0 0
3.0339 4.4736 0.2165 -0.009 -0.997 0.078 190 250 250 0 0
3.0436 4.4736 0.2177 -0.009 -0.997 0.078 186 250 249 0 0
3.0533 4.4732 0.2189 0.250 -0.968 -0.011 184 252 251 0 0
3.0584 4.5458 0.2252 0.679 -0.281 0.679 183 255 252 0 0
3.1356 4.3822 0.2224 -0.011 -0.971 -0.238 197 255 255 0 0
3.1452 4.3819 0.2236 -0.310 -0.943 -0.117 197 255 254 0 0
3.1549 4.3785 0.2246 -0.310 -0.943 -0.117 197 255 254 0 0
3.1940 4.3594 0.2281 -0.228 -0.957 -0.181 192 252 252 0 0
3.3750 4.4090 0.2552 0.650 -0.184 -0.737 188 254 253 0 0
3.3845 4.4308 0.2581 0.650 -0.184 -0.737 189 255 254 0 0
3.4234 4.2851 0.2517 -0.409 -0.911 -0.044 192 253 255 0 0
3.4328 4.2795 0.2525 -0.469 -0.883 0.003 193 254 255 0 0
3.5078 4.2324 0.2585 -0.638 -0.510 0.577 188 254 253 0 0
3.5170 4.2260 0.2591 -0.533 -0.716 0.451 189 253 252 0 0
3.5268 4.2456 0.2619 -0.355 -0.921 0.161 192 254 253 0 0
3.5368 4.2783 0.2658 -0.364 -0.922 0.128 194 254 254 0 0
3.5643 4.2412 0.2664 -0.283 -0.906 -0.315 198 255 255 0 0
3.5737 4.2399 0.2675 -0.486 -0.831 -0.269 196 254 255 0 0
3.6015 4.2258 0.2700 -0.092 -0.960 -0.265 203 251 253 0 0
3.6108 4.2246 0.2711 -0.231 -0.921 -0.313 195 242 248 0 0
3.6201 4.2219 0.2720 -0.231 -0.921 -0.313 181 234 242 0 0
3.6292 4.2136 0.2726 -0.538 -0.780 -0.319 185 247 255 0 0
3.6386 4.2142 0.2738 -0.208 -0.947 -0.246 182 249 255 0 0
3.6664 4.2050 0.2767 0.090 -0.584 0.807 184 252 255 0 0
3.6761 4.2116 0.2784 0.081 -0.503 0.861 184 252 253 0 0
3.6867 4.2382 0.2818 0.338 -0.541 0.770 183 253 255 0 0
3.8993 4.4065 0.3222 0.765 -0.296 -0.572 183 251 254 0 0
3.9589 4.5227 0.3389 0.695 -0.418 -0.585 181 250 255 0 0
3.9797 4.1417 0.3119 0.493 -0.533 -0.687 179 246 254 0 0
4.0071 4.1359 0.3150 0.569 -0.588 -0.575 177 246 253 0 0
4.0173 4.1439 0.3169 0.569 -0.588 -0.575 184 247 252 0 0
4.0275 4.1514 0.3188 0.553 -0.625 -0.551 192 248 249 0 0
4.0375 4.1576 0.3206 0.519 -0.608 -0.601 211 255 255 0 0
4.0477 4.1645 0.3224 0.519 -0.608 -0.601 208 254 252 0 0
4.1475 4.0687 0.3277 -0.433 -0.887 -0.160 154 235 254 0 0
4.1556 4.0606 0.3282 -0.237 -0.971 -0.023 158 233 252 0 0
4.2339 4.4151 0.3658 -0.797 -0.122 0.591 168 237 253 0 0
4.4376 4.0820 0.3660 -0.674 -0.738 0.033 217 239 253 0 0
4.4455 4.0748 0.3664 -0.674 -0.738 0.033 166 213 231 0 0
4.4559 4.0805 0.3682 -0.044 -0.987 -0.155 152 222 247 0 0
4.4642 4.0751 0.3689 -0.126 -0.960 -0.249 143 227 255 0 0
0.7843 4.8850 -0.0504 -0.172 -0.547 0.820 155 174 228 0 0
1.0536 4.2813 -0.0618 -0.666 -0.739 0.104 186 206 246 0 0
1.0667 4.2924 -0.0593 0.742 -0.670 -0.018 229 250 255 0 0
1.1455 4.2538 -0.0521 0.424 -0.835 -0.351 245 255 255 0 0
1.1314 4.3314 -0.0480 -0.126 -0.811 0.572 241 255 248 0 0
1.1378 4.3379 -0.0467 0.043 -0.933 0.356 237 254 250 0 0
1.1520 4.3698 -0.0425 -0.435 -0.830 0.350 153 143 185 0 0
1.5066 4.3762 0.0035 0.111 -0.152 0.982 87 120 172 0 0
1.5641 4.4825 0.0189 0.323 -0.442 0.837 193 216 241 0 0
1.8120 4.1567 0.0259 0.756 -0.394 -0.523 240 255 255 0 0
1.8652 4.0367 0.0236 0.913 -0.407 -0.010 241 255 253 0 0
1.8773 4.0253 0.0243 0.690 -0.469 -0.551 241 255 253 0 0
1.8830 4.0355 0.0258 0.752 -0.428 -0.501 241 255 253 0 0
1.9870 4.1349 0.0467 -0.667 -0.708 0.231 245 254 252 0 0
2.3934 4.4046 0.1192 0.125 -0.061 0.990 187 245 251 0 0
2.3825 4.5166 0.1264 0.110 -0.065 0.992 186 247 252 0 0
2.8187 4.5079 0.1816 -0.474 -0.874 0.104 226 254 255 0 0
2.8286 4.5061 0.1827 -0.056 -0.998 -0.000 223 252 255 0 0
2.8383 4.5055 0.1839 -0.056 -0.998 -0.000 212 253 255 0 0
2.8478 4.5076 0.1853 -0.059 -0.996 0.073 199 250 253 0 0
2.9681 4.4628 0.1973 -0.371 -0.878 -0.302 220 254 255 0 0
3.0101 4.4179 0.1993 0.830 -0.485 -0.276 220 255 255 0 0
3.0176 4.4471 0.2025 0.345 -0.937 -0.059 213 255 255 0 0
3.0450 4.4691 0.2077 0.429 -0.790 0.439 190 255 251 0 0
3.0544 4.4746 0.2093 0.532 -0.746 0.401 184 253 250 0 0
3.1367 4.3845 0.2130 -0.011 -0.971 -0.238 198 255 255 0 0
3.1463 4.3827 0.2141 -0.310 -0.943 -0.117 198 255 255 0 0
3.1951 4.3608 0.2186 -0.334 -0.869 -0.365 195 253 254 0 0
3.2959 4.5472 0.2457 0.865 -0.229 0.446 182 252 252 0 0
3.4340 4.2788 0.2430 -0.780 -0.525 0.341 189 253 255 0 0
3.5087 4.2195 0.2481 -0.638 -0.510 0.577 189 255 254 0 0
3.5184 4.2354 0.2505 -0.789 -0.600 0.134 190 255 254 0 0
3.5279 4.2445 0.2524 -0.399 -0.912 -0.092 190 254 253 0 0
3.5380 4.2781 0.2563 -0.078 -0.991 0.113 190 252 251 0 0
3.5471 4.2628 0.2563 0.485 -0.665 0.568 191 251 251 0 0
3.5655 4.2440 0.2572 -0.283 -0.906 -0.315 197 255 255 0 0
3.5934 4.2296 0.2597 -0.092 -0.971 -0.219 208 255 255 0 0
3.6027 4.2284 0.2608 -0.092 -0.971 -0.219 209 255 255 0 0
3.6121 4.2274 0.2619 -0.184 -0.958 -0.219 204 253 255 0 0
3.6214 4.2254 0.2630 -0.184 -0.958 -0.219 181 234 240 0 0
3.6306 4.2183 0.2636 -0.422 -0.882 -0.211 181 241 251 0 0
3.6403 4.2286 0.2656 0.274 -0.956 -0.106 184 248 255 0 0
3.6499 4.2312 0.2670 0.274 -0.956 -0.106 186 251 255 0 0
3.6608 4.2661 0.2711 0.529 -0.809 0.257 184 252 255 0 0
3.9776 4.1101 0.2998 0.817 -0.496 -0.294 179 248 255 0 0
4.0095 4.1480 0.3068 0.543 -0.587 -0.601 184 244 252 0 0
4.0197 4.1555 0.3087 0.543 -0.587 -0.601 196 251 255 0 0
4.0298 4.1619 0.3105 0.509 -0.617 -0.599 203 252 255 0 0
4.0400 4.1690 0.3123 0.523 -0.578 -0.627 213 255 255 0 0
4.0502 4.1763 0.3142 0.523 -0.578 -0.627 198 248 249 0 0
4.0511 4.1037 0.3088 -0.095 -0.849 -0.520 178 238 246 0 0
4.0598 4.0989 0.3095 -0.207 -0.810 -0.548 173 241 250 0 0
4.0687 4.0956 0.3104 -0.368 -0.722 -0.586 167 237 247 0 0
4.1486 4.0690 0.3186 -0.018 -0.987 -0.157 157 238 255 0 0
4.1578 4.0680 0.3197 -0.355 -0.928 -0.114 159 235 251 0 0
4.1674 4.0708 0.3212 -0.812 -0.582 -0.051 163 235 250 0 0
4.4304 4.0874 0.3561 -0.805 -0.570 0.164 241 253 255 0 0
4.4385 4.0807 0.3566 -0.673 -0.737 0.064 202 236 255 0 0
4.4464 4.0735 0.3571 -0.673 -0.737 0.064 161 218 238 0 0
4.4543 4.0663 0.3576 -0.674 -0.738 0.033 150 224 249 0 0
4.4564 4.0290 0.3550 -0.116 -0.846 -0.520 144 228 255 0 0
4.5663 4.1554 0.3787 0.926 -0.325 0.190 141 226 255 0 0
0.6027 5.2362 -0.0579 -0.890 -0.454 0.039 59 86 147 0 0
0.7931 4.8674 -0.0609 -0.162 -0.564 0.810 165 185 236 0 0
1.0529 4.2854 -0.0709 0.479 -0.876 -0.057 194 216 251 0 0
1.0619 4.2851 -0.0698 0.788 -0.613 -0.063 219 241 255 0 0
1.0630 4.3036 -0.0683 0.121 -0.990 0.070 231 252 255 0 0
1.1035 4.3143 -0.0623 -0.641 -0.761 -0.103 240 253 255 0 0
1.1344 4.3266 -0.0574 0.297 -0.885 0.358 242 255 250 0 0
1.1402 4.3344 -0.0561 0.043 -0.933 0.356 233 252 252 0 0
1.1436 4.3707 -0.0530 -0.438 -0.824 0.358 130 147 174 0 0
1.7804 4.2962 0.0230 0.088 -0.553 0.829 240 254 253 0 0
2.4428 3.9053 0.0787 0.001 -0.071 0.997 231 255 255 0 0
2.8398 4.5027 0.1740 -0.236 -0.957 -0.168 216 249 254 0 0
2.9097 4.4806 0.1813 -0.263 -0.964 -0.051 192 250 252 0 0
2.9685 4.4730 0.1883 -0.319 -0.924 0.210 212 248 246 0 0
2.9990 4.4531 0.1907 -0.216 -0.968 -0.128 219 255 255 0 0
3.0106 4.4266 0.1902 0.810 -0.550 -0.205 219 255 255 0 0
3.0187 4.4481 0.1928 0.345 -0.937 -0.059 212 255 255 0 0
3.0478 4.4457 0.1964 -0.062 -0.854 -0.516 192 254 251 0 0
3.0561 4.4654 0.1989 0.574 -0.801 0.170 191 255 252 0 0
3.0895 4.3941 0.1979 -0.283 -0.579 -0.764 190 252 251 0 0
3.1377 4.3868 0.2035 -0.011 -0.971 -0.238 194 254 252 0 0
3.1472 4.3879 0.2048 -0.330 -0.892 -0.308 191 253 250 0 0
3.1963 4.3584 0.2089 -0.310 -0.630 -0.712 199 253 255 0 0
3.2060 4.3543 0.2098 -0.141 -0.709 -0.691 193 251 252 0 0
3.5575 4.2542 0.2474 0.202 -0.960 -0.193 192 254 253 0 0
3.5946 4.2321 0.2505 -0.131 -0.917 -0.378 211 255 255 0 0
3.6039 4.2303 0.2516 -0.131 -0.917 -0.378 210 255 254 0 0
3.6133 4.2292 0.2527 -0.191 -0.917 -0.351 203 253 254 0 0
3.6225 4.2247 0.2535 -0.281 -0.845 -0.454 180 233 237 0 0
3.6417 4.2325 0.2566 0.355 -0.888 -0.292 189 249 255 0 0
3.6511 4.2325 0.2578 0.274 -0.956 -0.106 187 250 255 0 0
3.6618 4.2640 0.2615 0.496 -0.815 0.301 186 251 253 0 0
3.9691 4.1063 0.2891 0.755 -0.420 -0.503 179 250 252 0 0
4.0014 4.1481 0.2963 0.624 -0.556 -0.549 188 247 255 0 0
4.0117 4.1570 0.2983 0.547 -0.555 -0.627 197 247 255 0 0
4.0210 4.1568 0.2995 -0.821 -0.428 0.377 217 255 255 0 0
4.0421 4.1777 0.3037 0.437 -0.598 -0.671 195 250 253 0 0
4.0616 4.1040 0.3008 -0.144 -0.832 -0.536 172 241 255 0 0
4.1498 4.0688 0.3094 -0.079 -0.997 0.008 157 234 250 0 0
4.1590 4.0687 0.3106 -0.355 -0.928 -0.114 160 236 252 0 0
4.4393 4.0792 0.3473 -0.700 -0.686 0.196 182 229 249 0 0
4.4585 4.0340 0.3464 -0.257 -0.888 -0.381 143 227 253 0 0
4.6215 4.3182 0.3884 0.908 -0.333 0.254 141 227 254 0 0
4.5772 3.7069 0.3372 0.384 -0.270 0.883 139 226 254 0 0
0.6178 5.2042 -0.0692 -0.889 -0.450 0.082 63 90 151 0 0
0.8003 4.8534 -0.0713 -0.110 -0.571 0.814 173 194 242 0 0
1.0624 4.2865 -0.0790 0.788 -0.613 -0.063 223 245 255 0 0
1.0642 4.3031 -0.0775 0.121 -0.990 0.070 234 253 255 0 0
1.0724 4.3050 -0.0763 -0.592 -0.798 0.111 239 255 254 0 0
1.1168 4.3721 -0.0658 -0.644 -0.763 0.061 242 252 252 0 0
1.1265 4.3704 -0.0647 -0.623 -0.771 0.128 231 249 253 0 0
1.1400 4.3598 -0.0637 -0.562 -0.825 0.058 178 204 225 0 0
1.1460 4.3674 -0.0624 -0.452 -0.861 0.234 102 126 161 0 0
1.1590 4.3578 -0.0614 -0.380 -0.879 0.290 103 116 167 0 0
1.8251 4.3033 0.0198 -0.645 -0.689 -0.332 241 255 255 0 0
1.8034 4.4108 0.0248 0.360 -0.214 0.908 240 254 254 0 0
2.8410 4.5022 0.1642 -0.404 -0.812 -0.422 223 252 255 0 0
2.8605 4.5019 0.1667 -0.077 -0.994 -0.073 207 253 253 0 0
2.9109 4.4803 0.1715 -0.263 -0.964 0.030 190 251 254 0 0
3.0098 4.4536 0.1822 0.247 -0.950 -0.190 211 255 255 0 0
3.0205 4.4387 0.1825 0.705 -0.693 -0.152 207 255 255 0 0
3.0486 4.4513 0.1870 -0.062 -0.854 -0.516 195 255 253 0 0
3.0573 4.4657 0.1892 0.560 -0.813 0.159 198 255 255 0 0
3.1385 4.3937 0.1944 -0.152 -0.902 -0.404 193 255 252 0 0
3.1483 4.3888 0.1953 -0.199 -0.912 -0.359 193 255 252 0 0
3.1971 4.3667 0.1999 -0.383 -0.622 -0.683 205 254 255 0 0
3.2069 4.3619 0.2008 -0.232 -0.595 -0.769 198 252 254 0 0
3.2263 4.3532 0.2026 0.054 -0.698 -0.714 188 254 253 0 0
3.2337 4.4145 0.2081 0.733 -0.384 -0.562 186 255 255 0 0
3.2821 4.4090 0.2138 0.677 -0.219 0.703 185 255 255 0 0
3.2929 4.3601 0.2117 0.686 -0.713 0.146 184 254 254 0 0
3.3023 4.3657 0.2133 0.291 -0.956 0.035 184 254 254 0 0
3.3117 4.3753 0.2152 0.471 -0.816 0.336 185 255 255 0 0
3.5248 4.4772 0.2498 0.482 -0.177 -0.858 190 255 255 0 0
3.5349 4.4941 0.2524 0.500 -0.175 -0.848 189 255 254 0 0
3.5959 4.2357 0.2414 -0.131 -0.917 -0.378 210 254 253 0 0
3.6429 4.2360 0.2474 0.355 -0.888 -0.292 192 251 255 0 0
3.6629 4.2611 0.2518 0.492 -0.809 0.321 189 253 253 0 0
3.9844 4.2460 0.2918 -0.784 -0.321 0.531 180 254 255 0 0
3.9920 4.2276 0.2915 -0.643 -0.367 0.672 182 250 253 0 0
3.9978 4.1921 0.2896 -0.822 -0.426 0.377 187 248 251 0 0
4.0056 4.1767 0.2895 -0.801 -0.489 0.345 195 248 255 0 0
4.0134 4.1619 0.2894 -0.822 -0.426 0.377 207 251 255 0 0
4.0208 4.1447 0.2891 -0.845 -0.386 0.371 216 253 255 0 0
4.0895 4.0946 0.2943 -0.591 -0.677 -0.439 171 242 246 0 0
4.1509 4.0686 0.3002 -0.079 -0.997 0.008 161 237 251 0 0
4.1602 4.0693 0.3015 -0.355 -0.928 -0.114 162 238 251 0 0
4.2169 4.0154 0.3048 -0.767 -0.527 0.367 154 234 255 0 0
4.4674 4.0734 0.3411 0.294 -0.937 -0.189 144 228 254 0 0
4.3757 3.3977 0.2803 0.841 -0.514 -0.169 143 229 254 0 0
4.3874 3.4149 0.2830 0.876 -0.468 -0.118 143 229 254 0 0
4.6175 3.6527 0.3297 0.481 -0.277 0.832 137 226 255 0 0
0.8085 4.8370 -0.0817 -0.110 -0.571 0.814 180 203 246 0 0
1.0567 4.2812 -0.0894 0.617 -0.786 -0.032 206 230 255 0 0
1.0657 4.3021 -0.0868 0.038 -0.994 0.102 235 254 255 0 0
1.0747 4.3020 -0.0856 -0.592 -0.798 0.111 239 255 254 0 0
1.0851 4.2987 -0.0845 -0.735 -0.675 0.070 239 254 249 0 0
1.0771 4.3390 -0.0827 0.259 -0.821 0.508 241 255 251 0 0
1.1188 4.3695 -0.0752 -0.644 -0.763 0.061 241 250 254 0 0
1.1255 4.3756 -0.0739 -0.740 -0.672 0.012 221 239 250 0 0
1.1487 4.3634 -0.0718 -0.701 -0.686 0.193 86 120 160 0 0
1.1629 4.3506 -0.0709 -0.326 -0.912 0.250 86 114 167 0 0
1.1733 4.3474 -0.0698 -0.395 -0.886 0.243 95 115 172 0 0
2.5119 3.9641 0.0741 0.100 -0.055 0.994 227 254 255 0 0
2.5015 4.2320 0.0917 0.024 -0.068 0.997 212 251 255 0 0
2.4868 4.7337 0.1254 0.107 -0.056 0.993 185 249 251 0 0
2.8420 4.5044 0.1545 -0.358 -0.895 -0.266 225 255 255 0 0
2.9122 4.4795 0.1618 -0.340 -0.897 0.281 192 253 255 0 0
3.0108 4.4558 0.1727 0.247 -0.950 -0.190 198 255 255 0 0
3.0390 4.4672 0.1771 0.685 -0.494 -0.535 195 253 254 0 0
3.0494 4.4563 0.1777 -0.117 -0.916 -0.384 198 254 255 0 0
3.0900 4.4239 0.1805 -0.901 -0.421 0.103 202 253 255 0 0
3.1492 4.3945 0.1860 -0.246 -0.857 -0.453 190 255 251 0 0
3.2271 4.3629 0.1937 0.184 -0.739 -0.648 188 254 253 0 0
3.3223 4.3804 0.2071 0.826 -0.525 -0.204 186 255 255 0 0
3.3316 4.3996 0.2097 0.914 -0.377 0.150 186 255 255 0 0
3.4666 4.3951 0.2266 0.977 -0.213 0.018 186 252 251 0 0
3.4763 4.4026 0.2284 0.914 -0.324 -0.245 187 253 252 0 0
3.5877 4.2383 0.2310 -0.092 -0.940 -0.328 204 254 253 0 0
3.5971 4.2370 0.2321 -0.092 -0.940 -0.328 210 255 252 0 0
3.6064 4.2363 0.2332 -0.133 -0.949 -0.285 206 251 248 0 0
3.6442 4.2376 0.2382 0.344 -0.915 -0.211 193 250 255 0 0
3.6641 4.2627 0.2425 0.561 -0.813 0.152 193 254 255 0 0
3.9772 4.2569 0.2821 -0.783 -0.297 0.546 180 251 253 0 0
3.9838 4.2284 0.2809 -0.740 -0.370 0.562 182 254 253 0 0
3.9917 4.2125 0.2808 -0.740 -0.370 0.562 186 251 253 0 0
3.9982 4.1852 0.2797 -0.836 -0.449 0.317 192 250 252 0 0
4.0061 4.1706 0.2797 -0.836 -0.449 0.317 205 254 255 0 0
4.0136 4.1536 0.2794 -0.877 -0.409 0.253 211 255 255 0 0
4.0212 4.1373 0.2792 -0.886 -0.399 0.236 205 250 255 0 0
4.0285 4.1197 0.2789 -0.912 -0.328 0.245 196 247 251 0 0
4.0726 4.0994 0.2831 -0.100 -0.995 -0.021 181 243 255 0 0
4.0925 4.1100 0.2864 -0.694 -0.435 -0.574 173 240 248 0 0
4.0995 4.0917 0.2860 -0.555 -0.732 -0.395 177 245 248 0 0
4.1616 4.0707 0.2924 -0.341 -0.940 0.023 166 240 251 0 0
4.1703 4.0670 0.2933 -0.328 -0.939 -0.101 175 249 255 0 0
4.1947 4.0442 0.2948 -0.722 -0.686 -0.092 157 236 251 0 0
4.2028 4.0360 0.2953 -0.720 -0.676 -0.153 154 235 254 0 0
4.2122 4.0378 0.2966 -0.374 -0.401 0.836 153 235 255 0 0
4.2089 3.7799 0.2779 0.927 -0.357 0.111 156 234 254 0 0
4.4588 4.5978 0.3678 -0.806 -0.362 -0.468 154 226 251 0 0
4.4221 4.0742 0.3260 -0.742 -0.443 0.503 160 224 242 0 0
4.4572 4.0630 0.3297 -0.212 -0.778 0.591 145 229 253 0 0
4.3780 3.4040 0.2729 0.840 -0.530 0.117 144 230 253 0 0
4.3896 3.4206 0.2755 0.844 -0.536 -0.017 145 231 254 0 0
4.7387 4.6581 0.4078 0.933 -0.346 0.096 144 228 255 0 0
4.6352 3.4488 0.3089 0.787 -0.570 0.236 139 226 254 0 0
1.0545 4.2679 -0.0999 -0.677 -0.722 0.140 186 211 248 0 0
1.0578 4.2812 -0.0986 0.515 -0.854 0.075 211 235 255 0 0
1.0629 4.2902 -0.0973 0.292 -0.945 0.147 231 251 255 0 0
1.0668 4.3019 -0.0960 -0.188 -0.968 0.168 237 255 255 0 0
1.0771 4.2990 -0.0949 -0.658 -0.749 0.084 239 255 254 0 0
1.1273 4.3516 -0.0849 -0.469 -0.843 -0.264 243 252 255 0 0
1.1644 4.3495 -0.0803 -0.006 -0.996 0.090 84 123 170 0 0
1.6705 4.2234 -0.0244 0.052 -0.109 0.993 94 121 166 0 0
1.7414 4.3763 -0.0048 -0.136 -0.142 0.980 132 157 198 0 0
1.7527 4.4322 0.0006 -0.071 -0.119 0.990 194 212 236 0 0
1.7867 4.3479 -0.0009 -0.336 -0.368 0.867 211 229 247 0 0
1.8339 4.3119 0.0026 -0.528 -0.681 0.507 236 253 255 0 0
1.8464 4.3004 0.0034 -0.095 -0.813 0.575 236 253 255 0 0
1.8580 4.3240 0.0065 -0.091 -0.335 0.938 239 255 255 0 0
1.8695 4.3157 0.0074 0.000 -0.335 0.942 239 255 255 0 0
1.9791 4.2481 0.0167 0.414 -0.223 0.882 241 255 255 0 0
2.3371 4.2360 0.0616 -0.337 -0.236 0.912 245 255 255 0 0
2.3508 4.2129 0.0618 -0.417 -0.254 0.873 245 255 255 0 0
2.4176 4.1482 0.0658 0.763 -0.345 -0.547 245 255 254 0 0
2.5530 4.3198 0.0950 0.107 -0.056 0.993 199 249 252 0 0
2.5427 4.5080 0.1067 0.108 -0.056 0.993 193 247 249 0 0
2.7832 4.5199 0.1382 0.111 -0.898 -0.427 219 255 255 0 0
2.7929 4.5205 0.1395 0.111 -0.898 -0.427 221 255 255 0 0
2.8000 4.5443 0.1420 -0.034 -0.861 -0.508 219 255 253 0 0
3.0289 4.4907 0.1675 0.028 -0.512 -0.859 194 254 254 0 0
3.0503 4.4603 0.1682 -0.033 -0.936 0.349 194 252 254 0 0
3.0600 4.4604 0.1694 -0.033 -0.936 0.349 199 252 255 0 0
3.0799 4.4511 0.1713 -0.381 -0.735 0.561 200 250 255 0 0
3.1000 4.4383 0.1730 0.089 -0.991 -0.097 197 255 255 0 0
3.1114 4.4073 0.1723 -0.443 -0.790 -0.423 195 255 255 0 0
3.1211 4.4049 0.1734 -0.651 -0.663 -0.370 199 255 255 0 0
3.1309 4.4005 0.1743 0.147 -0.739 -0.657 197 255 255 0 0
3.1404 4.4017 0.1756 0.039 -0.726 -0.687 192 254 253 0 0
3.3422 4.4160 0.2024 0.877 -0.421 -0.230 186 254 255 0 0
3.4202 3.8843 0.1756 0.969 -0.207 0.136 185 255 255 0 0
3.5889 4.2414 0.2218 -0.049 -0.919 -0.390 201 253 251 0 0
3.6077 4.2388 0.2240 -0.092 -0.940 -0.328 212 255 255 0 0
3.6170 4.2373 0.2251 -0.284 -0.884 -0.372 201 255 253 0 0
3.6359 4.2379 0.2276 0.525 -0.832 -0.177 200 255 255 0 0
3.6454 4.2406 0.2290 0.395 -0.904 -0.163 195 250 255 0 0
3.6557 4.2606 0.2317 0.573 -0.714 -0.402 194 252 254 0 0
3.6654 4.2660 0.2333 0.553 -0.827 0.098 193 253 253 0 0
3.6513 3.5601 0.1827 0.851 -0.292 -0.436 190 254 253 0 0
3.9694 4.2625 0.2719 -0.651 -0.312 0.692 185 253 254 0 0
3.9756 4.2294 0.2704 -0.745 -0.376 0.551 181 251 251 0 0
3.9833 4.2122 0.2702 -0.702 -0.398 0.590 183 251 250 0 0
3.9913 4.1979 0.2702 -0.760 -0.384 0.525 190 251 252 0 0
3.9984 4.1761 0.2696 -0.816 -0.432 0.384 200 255 255 0 0
4.0064 4.1624 0.2696 -0.864 -0.396 0.311 211 255 255 0 0
4.0140 4.1466 0.2695 -0.877 -0.409 0.253 206 254 255 0 0
4.0217 4.1316 0.2695 -0.914 -0.374 0.156 194 248 250 0 0
4.0942 4.1144 0.2776 -0.738 -0.485 -0.469 177 244 252 0 0
4.1011 4.0953 0.2771 -0.555 -0.732 -0.395 175 242 250 0 0
4.1094 4.0877 0.2776 -0.533 -0.784 -0.318 179 246 252 0 0
4.1628 4.0710 0.2833 -0.407 -0.892 -0.198 169 242 251 0 0
4.1714 4.0666 0.2841 -0.365 -0.931 0.020 178 251 255 0 0
4.2037 4.0347 0.2860 -0.709 -0.685 -0.170 154 237 255 0 0
4.2405 3.8613 0.2787 0.931 -0.354 0.091 157 235 255 0 0
4.4382 4.0551 0.3174 0.111 -0.888 0.446 145 229 255 0 0
4.4479 4.0569 0.3187 0.111 -0.888 0.446 141 227 252 0 0
4.4604 4.0733 0.3215 0.680 -0.615 0.400 146 230 254 0 0
4.3801 3.4088 0.2653 0.709 -0.549 -0.443 146 232 255 0 0
4.6440 3.4468 0.3016 0.506 -0.836 0.213 139 226 254 0 0
4.6715 3.4568 0.3058 -0.369 -0.915 0.165 139 226 255 0 0
4.7360 3.5402 0.3198 0.895 -0.426 0.133 137 226 255 0 0
4.7573 3.5870 0.3258 0.895 -0.426 0.133 137 226 255 0 0
0.6654 5.1033 -0.1026 -0.893 -0.443 0.084 80 104 161 0 0
1.0522 4.2758 -0.1090 0.444 -0.896 -0.001 195 221 251 0 0
1.0589 4.2810 -0.1078 0.515 -0.854 0.075 217 240 255 0 0
1.0643 4.2892 -0.1066 0.292 -0.945 0.147 234 252 255 0 0
1.0687 4.3000 -0.1053 -0.188 -0.968 0.168 238 254 255 0 0
1.0781 4.2989 -0.1042 -0.712 -0.669 0.214 239 255 254 0 0
1.0803 4.3151 -0.1028 -0.624 -0.776 0.096 238 255 249 0 0
1.1651 4.3506 -0.0896 -0.427 -0.893 -0.144 111 152 188 0 0
1.7371 4.2148 -0.0258 -0.012 -0.097 0.995 88 121 172 0 0
1.8237 4.5170 0.0057 -0.011 -0.258 0.966 233 252 255 0 0
1.9755 4.3716 0.0152 -0.264 -0.352 0.898 242 254 254 0 0
