ply
format ascii 1.0
element vertex 699
property float x
property float y
property float z
property uchar diffuse_red
property uchar diffuse_green
property uchar diffuse_blue
end_header
1.0527266942210147 4.242384969660931 -0.789179979209696 238 254 255
1.0676881824868758 4.228299905042405 -0.7865515961742239 232 252 255
1.094923941417693 4.268772653292125 -0.7857166016382832 148 212 252
1.110451931192724 4.253146708061331 -0.7829285042313582 146 210 247
1.1222608461902932 4.2462636557760876 -0.781106906462274 124 187 230
1.1333856362127392 4.240967689117149 -0.7794618317429748 96 156 202
1.1398936752143722 4.246718259068727 -0.7790280933549539 70 125 175
1.143296751979527 4.260001573234915 -0.7794152122232275 60 109 164
1.1504382025809576 4.2643488010168396 -0.7788219848216029 62 106 164
1.165782911699865 4.248808597892811 -0.7760608998431985 68 110 170
1.1789921073872116 4.238357767590543 -0.773858915756847 74 118 179
1.1980364373192163 4.2135415842146315 -0.770101807214701 76 123 182
1.2170814396280976 4.188530056774724 -0.7663329482313372 75 124 182
1.2330005542136835 4.17103733231012 -0.7633866128639087 85 133 188
1.2472999295719804 4.157422007032807 -0.7608653719950252 99 147 195
1.2553408089973348 4.1592725655059795 -0.7600155669507004 104 152 197
1.2625037015381668 4.163336213589696 -0.7594028371772189 108 153 194
1.2702195060122794 4.166050854128489 -0.7586434788730327 100 145 184
1.2342188434269794 4.278898771018015 -0.7696849047411145 99 142 182
1.240760235762732 4.285091289709923 -0.7692735854624824 99 141 181
1.2942750945018011 4.172051858176233 -0.7561289153518647 95 137 180
1.3021957400422186 4.174344643377454 -0.7553198896687837 95 138 181
1.3044972663786754 4.191050079795984 -0.7560430144077683 102 145 190
1.3019034339510442 4.220488296367595 -0.7581114895330602 107 151 199
1.307385215391714 4.229326212047168 -0.757984764401837 115 159 209
1.3100005732228717 4.245676832590145 -0.75864920955621 98 144 193
1.3116570719983252 4.264668312970022 -0.7595859445356717 119 163 212
1.3129538037523247 4.284767714764181 -0.7606318370068271 136 180 230
1.3392034979693983 4.48520974891094 -0.769471408647162 109 150 206
1.9756548302030965 3.2431631475851774 -0.6192553753427453 76 122 183
2.071000581475099 3.294831853396763 -0.6109545464951657 76 126 186
2.070265034879935 3.399852035778124 -0.6173164534289476 78 128 187
2.183486933541675 3.378332715921653 -0.6025082339644803 80 131 194
2.2746623675560382 3.89573894097009 -0.6225293167608011 86 137 200
2.265945244880139 4.012731988008614 -0.6305597770934808 88 139 204
2.280003016731617 3.9885376386889524 -0.6274353859166025 88 140 204
2.2921998803743784 3.972537996572936 -0.6250228153915987 100 152 211
2.3038504155388138 3.9588314528325492 -0.6228124884519584 149 191 235
2.313924606677821 3.952281448343727 -0.621217973673843 208 235 255
3.5971747983686533 3.9030723423639575 -0.46501354039340254 246 254 255
3.6060574359583493 3.903775063785666 -0.46399462676885306 246 255 255
3.6137502760186146 3.8719071323056378 -0.46117199848981516 245 255 255
3.6219670360106795 3.8564969135556377 -0.45927000347902597 246 255 255
3.7286314562147385 3.875664083617501 -0.44767564411162186 245 253 255
3.737064883247169 3.8689779309793852 -0.44626895982664094 237 251 252
3.746165073186851 3.8732914992306653 -0.44543978009766055 230 251 252
3.756670268779232 3.899204558049862 -0.4457331786450729 225 253 254
3.765897442432456 3.904365696020463 -0.444939467690791 224 254 254
0.9178184674741291 4.229227658015929 -0.8137729337604089 111 157 179
0.9225824538214189 4.238144225131516 -0.8137527266234074 113 157 181
0.9380606851809303 4.243063261927015 -0.812208269891059 150 185 217
0.9447147996864872 4.2479558195076965 -0.8117151056337941 174 206 237
0.9531899179979515 4.248844548266671 -0.810758473221544 201 229 249
0.9607453039129067 4.251793320466785 -0.8100382504335295 221 246 254
0.968240360491811 4.254902572135747 -0.8093350936068494 232 254 255
0.9762121942201882 4.256968543771416 -0.8085108988977632 236 255 255
0.984191550828796 4.259036898993152 -0.8076859530933912 238 255 254
0.9916804945495077 4.262233446245642 -0.8069888931496428 239 255 254
1.0059211717983227 4.2501368121995124 -0.8045458753745673 240 254 253
1.0203282133750518 4.23757638791496 -0.8020544897773588 241 254 252
1.0859517538289851 4.14776525526332 -0.7887019387390125 243 253 254
1.0548694564166698 4.239807265718318 -0.7980700914352026 238 254 255
1.068674292259347 4.2283912596113025 -0.7957209288474805 230 251 254
1.0448016997215908 4.304649043436233 -0.8032582846363868 205 235 244
1.0957129817898432 4.269354977367108 -0.7950132951676151 169 237 255
1.1113398904084792 4.2534905245155885 -0.7921731989836688 174 240 255
1.1296391625722002 4.231139214984685 -0.7886153757295618 162 229 253
1.1364227560677496 4.236169123631481 -0.7881152068455229 140 205 245
1.1457735633088248 4.235077026811246 -0.7869322910192819 104 167 222
1.149010042997466 4.2487235366514495 -0.7873851770814451 72 129 190
1.1539712840938865 4.258306959231527 -0.7873824353464892 59 107 170
1.1676599586062308 4.246761344793778 -0.7850391643534603 64 108 173
1.1856630735534242 4.224602317921651 -0.7815285022227599 75 120 185
1.208274348308337 4.190983581343032 -0.7767633658163409 86 134 197
1.2228627974499626 4.17683151174966 -0.7741524698139131 90 138 199
1.2368353683150122 4.164091178463108 -0.7717018646596712 88 137 195
1.2483234804970817 4.157412165456869 -0.7699204005562107 86 133 187
1.2555140290737674 4.161381297183923 -0.7693064493543592 84 132 180
1.2610810178712455 4.169445239947202 -0.769138000838119 94 138 183
1.269068107544018 4.171506415369226 -0.7683116908419493 98 143 183
1.2914550943699301 4.137303727655065 -0.7635374121913409 104 148 185
1.2901601966145024 4.162744534064153 -0.7652561831142548 107 151 186
1.2893545991849529 4.187157493963665 -0.7668533708005806 104 148 185
1.2837419233558987 4.224042293316227 -0.7697910003987095 97 141 179
1.287044676524936 4.23839937497305 -0.7702796689026091 95 140 180
1.305046654837617 4.21506577871281 -0.7666969225323353 99 144 183
1.3094110430475658 4.226773100366479 -0.7668959896953468 99 144 183
1.311431328971883 4.244665982396426 -0.7677550892125072 87 132 174
1.3129995400008951 4.263893746777746 -0.768750208596476 96 139 182
1.3140647760410025 4.284606719659078 -0.7698966643929915 105 148 193
1.3181863159028877 4.321328448703554 -0.7716627510530206 128 169 221
1.3336072736379996 4.452452121607844 -0.7778849781094125 122 165 220
1.3393459958139484 4.513662883518596 -0.7809638364160222 98 139 193
2.2734739607802665 3.9055839728637736 -0.6321123421389409 86 137 200
2.2552705898233034 4.026051872539906 -0.6416915432950846 87 139 202
2.268375357279251 4.0064323846487415 -0.6389215136796174 86 140 204
2.2819727180075855 3.9842730846685592 -0.6359365428104977 90 144 207
2.29428840777069 3.9676812829809562 -0.6334468294250167 108 159 217
2.30631325452839 3.9521905777945086 -0.6310595226095599 163 203 244
2.315400046688879 3.950200014135164 -0.6298528665132583 218 239 255
3.606469974481267 3.884614364542078 -0.47176584261353255 246 255 255
3.6146481264557395 3.8669723008036443 -0.46970525620376546 245 255 255
3.7298426202697104 3.8777653748834706 -0.4566235229007513 244 254 255
3.738185281200991 3.8695481208155993 -0.45512280297712504 236 252 252
3.747298200003877 3.8740269218945835 -0.45431080634346566 229 253 253
3.756211381548879 3.875137826982395 -0.4533155636769619 225 253 254
0.9167910529051249 4.233691472854394 -0.8234443922730158 109 156 178
0.923272276740926 4.23886808320808 -0.8229990795085892 114 158 183
0.9334087329894921 4.23605309461647 -0.8216127034398756 130 171 199
0.9391260930354451 4.242967926918228 -0.8213683617068515 156 192 223
0.9466046105609598 4.246038516596282 -0.820670994072255 181 212 241
0.9541512961827916 4.248983940455992 -0.8199575856457961 207 235 252
0.9617075305891419 4.251933528131304 -0.8192433021782047 225 250 255
0.9693726456200175 4.2546651001086735 -0.8185022535173024 234 255 255
0.9771965567801368 4.257064208265604 -0.8177212524803524 237 255 255
0.9850288832719428 4.259466120313793 -0.8169394255331962 239 255 254
0.9929841334576537 4.26161187421187 -0.8161267475079362 240 254 253
1.0107753767559464 4.241448489144276 -0.8127308746295583 240 254 251
1.080162484042985 4.143326765206543 -0.7982547917725843 244 254 252
1.0833661619651216 4.156048709373578 -0.7986772999223316 241 253 253
1.0476921640187096 4.300337925089498 -0.8120536191647295 197 231 242
1.0980053695429546 4.266381207188156 -0.8039085894939942 181 249 255
1.1110101070985454 4.256727012491933 -0.8017478307793906 180 247 255
1.1289137150218955 4.2353226160310955 -0.798260092187768 171 239 255
1.1386387277277858 4.2333318333613 -0.7969748803617561 154 221 254
1.1452950996065863 4.238703509357149 -0.7965210221778017 125 193 246
1.1506704057343435 4.247212110382209 -0.796418232989072 86 147 211
1.160394947486433 4.245259556644673 -0.7951354945652135 60 112 176
1.1732666739959463 4.2356444324609805 -0.7929930627565589 59 107 169
1.1875065867510506 4.222617984318778 -0.7904718256387085 64 111 174
1.2073236970203225 4.195824482475433 -0.7864152164625802 80 128 190
1.2145722993090102 4.199745860739156 -0.7857990536797653 96 144 208
1.2421867708380812 4.15339220093994 -0.7795760990160668 100 148 209
1.2507835086703876 4.1538395553219445 -0.7785795566084461 92 138 196
1.2576293043816287 4.1586557320783895 -0.778067992092596 81 126 180
1.2610611068998934 4.1720525666424475 -0.7785059792816592 80 123 173
1.2714717328636604 4.168041600882746 -0.7770112960542167 88 132 177
1.2944612777228022 4.132290406122486 -0.7720100913509815 91 135 176
1.2946337674372448 4.154009230724477 -0.7733628347206981 94 138 176
1.2803282369582887 4.212714655147165 -0.7787802281120976 100 145 182
1.2826990005284198 4.2293470215081115 -0.7795492896122298 101 146 183
1.2912369598941946 4.2303157308480746 -0.7785927201378197 97 145 183
1.2922314124701562 4.250713757420262 -0.7797639605961424 100 148 186
1.3039348435208802 4.243608566552451 -0.7779195088756559 103 148 187
1.3121133812981185 4.245597741597448 -0.7770703117645276 99 144 183
1.3140741835847418 4.263816762485995 -0.7779885713021909 99 142 182
1.3146833000079927 4.285734929852814 -0.7793018684623945 105 148 190
1.9897273290397661 3.2974103891395092 -0.6363360353230095 75 125 186
2.244546456771129 4.039422992915197 -0.6528769960738682 86 138 202
2.2577189881202906 4.019721804916685 -0.6500609515537484 86 140 204
2.2707997496525807 4.000147770513167 -0.6472638871089874 87 140 206
2.284190844578451 3.978865490879879 -0.6443218130876424 94 148 210
2.296295967167193 3.9631890474159093 -0.6418875050564936 119 169 224
2.3083812872629044 3.947370625644838 -0.6394465802575509 179 217 253
3.5902391932569144 3.8952527613675416 -0.4833390348946738 240 248 250
3.599220536399146 3.89934736379343 -0.48252726281386604 246 254 255
3.607467612428599 3.8822251154781675 -0.48046145801355905 246 255 255
3.615555365935174 3.862344604620743 -0.4782402381800245 245 255 255
3.730756393732777 3.874852890578725 -0.4652978758076761 243 253 254
3.739390028238146 3.871490418966204 -0.4640560352428345 234 252 254
3.748887197302311 3.8819961501199383 -0.4635881538316823 228 254 253
3.7573565761230547 3.876023274489863 -0.46220083558627323 225 255 255
0.9264636026288813 4.234112773316044 -0.831594630126822 116 161 187
0.9325522481677634 4.240179547491835 -0.8312636695231064 136 177 205
0.9403321824917299 4.242562298852611 -0.8304919033498539 161 196 226
0.9475810500183619 4.246142158025374 -0.8298611705171116 187 217 244
0.9548318345888354 4.2497476780720245 -0.8292318767090732 213 239 253
0.9626701175754628 4.252073218672073 -0.8284494438920564 229 252 255
0.9702372168808641 4.255026800602506 -0.8277401166709909 236 255 255
0.9782013885181039 4.257114143463674 -0.8269272133832081 238 255 255
0.9862280845564685 4.259080026961207 -0.8260989714971377 239 254 254
0.9954306849640879 4.258403768119792 -0.8249590035439565 239 254 254
1.077763474637443 4.1511517538244425 -0.8081843699083372 242 255 252
1.0597641207464699 4.212783152543913 -0.8143326575896463 239 255 253
1.102390648408106 4.258451166868022 -0.8122231799694998 185 252 253
1.1105346898842479 4.2603126143058265 -0.8113741764224763 183 248 248
1.1266010872055205 4.243295849605695 -0.8083549893404545 174 238 245
1.1368745833636744 4.240022843325616 -0.8069187514035429 156 222 248
1.145453213729579 4.24080317545581 -0.8059477417526114 121 188 240
1.1512286970987928 4.248359173815691 -0.80575084269543 80 142 203
1.1615161141805765 4.2450475563510786 -0.804310437975089 60 114 171
1.174878090797148 4.234235767117143 -0.8020165219378529 64 112 169
1.1919492790878201 4.214284614338939 -0.7986869993540695 60 109 166
1.2051149417362688 4.203754682206013 -0.7964347782404096 63 111 170
1.227833153593012 4.1696303080527315 -0.7915117756566181 77 123 183
1.246647183555275 4.144885528398329 -0.787663209797308 91 137 197
1.2556236926640452 4.144357429773483 -0.7865597961346041 95 139 199
1.2569942491800061 4.1627804036592915 -0.7875936166478151 85 130 188
1.2706289639352872 4.1506767860265885 -0.7851832795684254 77 120 174
1.2762914854369665 4.15850453299346 -0.7850174914109234 77 120 172
1.2937074941222273 4.136756069945943 -0.7815301185547775 77 121 169
1.2893534889742393 4.16996886995805 -0.7842067184215958 78 122 168
1.281984656628899 4.211128754021226 -0.7877587541274601 81 125 169
1.2834245875432968 4.230140787640529 -0.7888225869863275 84 131 174
1.300397811760627 4.209483036330527 -0.7854588198640995 88 135 180
1.3026409433479376 4.22658916705131 -0.7863031535525532 91 138 183
1.3048442018307387 4.2439475677087675 -0.7871686276398442 96 140 184
1.3065802168493441 4.262671359861621 -0.7881784681469916 95 140 181
1.302749164101371 4.296078450424255 -0.7908054087681219 98 143 184
1.3047534418985895 4.314492385236545 -0.7917631659203581 107 151 191
1.3180082928578227 4.303475930473713 -0.7894687101478405 111 154 192
1.3315361525003546 4.489533348481311 -0.7999468354667127 107 151 200
1.9811222132519466 3.2803393066247106 -0.6440125656568776 76 127 186
1.9861963793034028 3.287780229317243 -0.6438917161359754 76 128 187
1.9903550080230086 3.2981985309363497 -0.6440733654108992 76 128 188
2.0754875219703726 3.3912244108192677 -0.639978566599617 79 129 191
2.267389898972134 3.865812764291987 -0.647959955851577 83 138 202
2.26248337993343 4.0029428307530885 -0.6574545011456269 85 138 204
2.274450023724982 3.9882854741587503 -0.6550768988180031 86 139 204
2.286338559696815 3.9737706279924834 -0.6527178588862691 91 144 205
2.298426088799929 3.9581238511802987 -0.6502615704594481 136 185 234
2.309469235325136 3.9470961336448784 -0.6482297962888477 197 231 255
2.317778267512403 3.9487082866581282 -0.6473449442063691 238 253 255
3.582447230133188 3.8941544024621986 -0.4931785052579785 236 240 243
3.5912459574710245 3.8928632188707395 -0.4920466830539251 245 253 255
3.6003158172899004 3.8996550163105543 -0.49140776981917833 246 254 255
3.6084854132905635 3.8804286618187773 -0.48918551910635644 244 254 255
3.6165827458236923 3.8609882488441922 -0.48695796626293053 246 255 255
3.7318521939515814 3.875007640102314 -0.4741403311749573 241 253 253
3.74039290759467 3.8701328198881106 -0.4728063875168922 232 252 253
3.750151455478708 3.884770313032408 -0.4725952346110351 227 253 252
3.7591131176049046 3.8863206498991225 -0.47162863790182374 225 255 255
0.918644128933057 4.234096342108504 -0.8418010951871269 106 152 179
0.9269012691830282 4.235388521247096 -0.8409048097575469 119 162 191
0.9333796592963254 4.240606097002954 -0.8404820815064538 142 180 211
0.9410378244772849 4.243261082479384 -0.8397479950246792 168 202 232
0.9483238882574159 4.246763499638912 -0.8391147258206285 194 223 248
0.9556726530926171 4.250155908116145 -0.8384666560289112 218 244 255
0.9633014753399703 4.252952189950506 -0.837745488467379 231 254 255
0.9709395833093454 4.2557521747357345 -0.8370234630810208 237 255 255
0.9793272580458021 4.2568922850422855 -0.8361014993915812 239 255 255
0.9665755763213338 4.305724641605948 -0.8408769503438485 239 254 254
0.9636147367636665 4.3327550689361 -0.8430327572245506 239 253 254
1.0793580892758465 4.149808508646615 -0.8170542670079898 241 255 252
1.0369934237868585 4.267649683698544 -0.8299576602253558 237 255 252
1.0989357764850465 4.247983201117428 -0.821275088247214 179 241 255
1.10680034286839 4.250456435009653 -0.8205043158030988 194 255 255
1.1123763250283047 4.258393602929751 -0.8203704177585357 191 252 252
1.1249157603682642 4.2497794517800775 -0.8183036281571799 176 240 247
1.1332442836198524 4.251190725527979 -0.8174067951363628 153 219 246
1.141305561985491 4.25326033091916 -0.8165856857393404 116 185 238
1.149269261710857 4.2555863701294365 -0.8157932966059588 66 129 189
1.161659072570449 4.247206677805343 -0.8137599539044345 59 113 170
1.1776907564755932 4.22990271237898 -0.8106978336375746 65 114 168
1.1833289765093202 4.2378592932518 -0.8105578252840129 63 110 167
1.1909871381682293 4.240929192770088 -0.8098514227803422 63 109 168
1.208891321829572 4.218794772105786 -0.8062442036598813 66 111 171
1.2480515470750375 4.143927719498555 -0.7965893852245145 71 115 176
1.2614941067894834 4.132308885980781 -0.7942146586131316 75 119 180
1.287179008737269 4.178074326184168 -0.7942119864443639 72 116 166
1.2881583741935703 4.198047839281151 -0.7954281102230734 74 120 169
1.2864342173585939 4.225099874682636 -0.797438208332861 78 124 174
1.294977463331368 4.226040477757926 -0.7964844221625913 77 125 174
1.297578899249244 4.242302496235892 -0.7972599035706296 74 122 170
1.299904769074579 4.2594196154064825 -0.7981252273920711 80 125 174
1.3036840168941097 4.272910518668142 -0.7985756711306219 80 124 170
1.9745905904916716 3.2802338186575866 -0.6525132228571755 75 127 183
1.978751858387956 3.2904950788737577 -0.6527027251346874 75 129 186
1.9840812787437634 3.297190869026001 -0.6525153387995792 74 128 187
1.9912079556008284 3.2982751176133305 -0.6517396916503764 74 128 188
2.063894424497211 3.3817149773306854 -0.6486580760042953 79 129 190
2.069958579833456 3.3870641017514904 -0.6482934138323717 79 129 192
2.0760691960893385 3.392320012929261 -0.6479170040668213 79 129 192
2.1018613456108555 3.7893979119861623 -0.6713415563730196 78 134 195
2.1054644549618606 3.807501380437727 -0.6721207143304231 78 134 195
2.2690214975834024 3.863069564963347 -0.6563669533695856 84 139 204
2.2711565559321887 3.891359550758611 -0.6580004484475823 85 140 205
2.263959857355307 4.000965802204402 -0.6661698293369231 87 141 206
2.27636010543441 3.9843115161884324 -0.6635831539849242 88 143 207
2.2885727506815776 3.9682708361784713 -0.6610597416548429 100 153 211
2.300687755008786 3.952442667538966 -0.6585621264408589 148 195 240
2.310562043249839 3.9467988938445377 -0.6570106446635944 206 237 255
2.319303355062485 3.94638611138054 -0.6559429915267994 243 254 255
2.357180290119985 3.889230478788437 -0.6476225963479592 254 254 252
2.365995432821081 3.888018476329515 -0.6464928333065261 254 254 254
3.5834644358009213 3.892007788059653 -0.5018947211441164 237 242 245
3.5922603085931617 3.890736858580492 -0.5007633193109263 246 254 255
3.6011688331034026 3.8928443980778757 -0.49984392874128414 246 255 255
3.6095025769988496 3.8786332834820048 -0.4979041301700873 245 255 255
3.6180787641258805 3.872139139524535 -0.49645036921896507 247 255 255
3.733550405608501 3.88521114696479 -0.48358280166341616 239 253 254
3.741390841496765 3.868703021054913 -0.48154844152809334 231 252 253
3.7507983792692885 3.877785849461349 -0.4810350739181176 225 254 252
3.7606270201492227 3.8928233655649227 -0.48086890391820564 225 255 255
0.9171075851651223 4.239680374312716 -0.8516427682663723 104 148 178
0.9268079034970492 4.237829734087984 -0.8503629228335116 122 162 195
0.9349956082952182 4.239298193036479 -0.8494901380310023 146 183 216
0.9417436104808963 4.243960290839348 -0.8490071566620143 175 207 237
0.9490315638681813 4.247463443458454 -0.8483806391008571 202 229 251
0.9566790610641369 4.2501963803122385 -0.847658646410195 223 248 255
0.9638066438797303 4.254113717344252 -0.8470795508170779 234 255 255
0.9565620713232189 4.290258527895474 -0.8504154625380645 237 255 255
0.9698461327669884 4.2805174084309305 -0.8481693623759053 239 255 255
0.9669527483340644 4.30721293540561 -0.8503410626370502 240 254 255
0.9672509256104228 4.326880525343695 -0.8516521843915932 240 254 255
1.0747190687295722 4.162791889631513 -0.8276422099902728 242 255 254
1.0381529677391983 4.267356082459284 -0.8391481842867016 237 255 253
1.104708822340175 4.236792527208813 -0.8291436893996121 172 226 255
1.1140002030818652 4.235844652277884 -0.8279742660325998 184 241 255
1.1230357856046833 4.235502318607888 -0.8268767102321191 187 248 255
1.1253665721669566 4.251169158190717 -0.827672285971695 179 244 254
1.1337360262097722 4.252489436345117 -0.8267677500770828 147 217 251
1.1415430890479126 4.255177786118638 -0.8260237360839068 101 174 231
1.1507332004931126 4.254551030630782 -0.8248883371201623 60 127 190
1.1652969093323486 4.240892674658644 -0.8222219182250636 66 119 180
1.1790452213712985 4.229116082582442 -0.8197812682567353 76 122 181
1.184993303342869 4.2363168791765755 -0.8195671939448123 73 117 178
1.1881375515310315 4.250460643185455 -0.8201617888824958 67 111 174
1.2007615025806944 4.241365260701145 -0.8180383715141706 65 109 172
1.2560539552110432 4.126646759082518 -0.8036110476606466 67 108 171
1.3399530664740036 4.603446487883764 -0.8262821585048484 91 137 179
1.9728101179035458 3.2885038739600625 -0.6610210801149016 76 127 184
1.9803793139908077 3.288137445453775 -0.6600961933602986 74 128 185
1.9845221291007114 3.2985633902708735 -0.6603175367728028 73 127 186
1.9926446861739209 3.296503847514786 -0.6592109471157778 73 127 188
2.2401184729260795 4.033934936747816 -0.6802813670210395 85 139 206
2.2664511120667896 3.9944039110601395 -0.6744444930085342 88 141 207
2.2787723501993415 3.978046318818486 -0.6718598441029584 90 144 207
2.291019501926022 3.961787047500831 -0.6692907339964183 111 161 215
2.3028754651955308 3.947093060342967 -0.6668752962479031 161 202 242
2.3121880927947642 3.9440191760429886 -0.6655577870406051 211 238 255
2.321273387940094 3.941972509063605 -0.6643376321108445 244 255 255
2.3693804726852927 3.835513417662884 -0.651329970506722 254 254 252
3.5845002903929917 3.890492697739348 -0.5106451389957325 238 243 246
3.5933637327965235 3.891371713636997 -0.5096516679324502 245 253 255
3.601815731435448 3.8801016213409603 -0.5078753027896682 245 255 255
3.610448148247505 3.87486783532128 -0.5064907740118652 245 255 255
3.6744048903082 3.742153673294999 -0.48980137358663384 251 255 254
3.7250518721519357 3.8727050343773453 -0.49271901753302433 245 253 255
3.734621292299455 3.8849112411526985 -0.4924171537376046 237 253 253
3.7423350561155244 3.8664134927623857 -0.49023369609411876 229 253 253
3.7518779614326276 3.877649309292041 -0.4898685452129783 225 255 253
3.761538395622824 3.8900597697406525 -0.48956984649880536 224 255 255
0.9170266776817151 4.242087688754173 -0.8611081290961037 105 146 179
0.9334060492147364 4.225596366113061 -0.858004955807107 126 164 200
0.9398479414914256 4.2308656512610385 -0.8576098511736259 152 186 221
0.9444977294471228 4.240135478581224 -0.8577084697059367 181 212 239
0.9499301005820949 4.247741011521421 -0.8575972922236541 208 233 251
0.9574637408176734 4.2507303765635385 -0.8569124496506642 228 249 255
0.9648334039955379 4.254111707208645 -0.8562746022924667 236 255 255
0.9585012751955313 4.288227814172797 -0.8594219817142092 238 255 254
0.9800593902040117 4.2598663895796385 -0.8548703377597894 239 255 255
0.9677713904368302 4.307706086462841 -0.8596886195000383 240 255 255
1.0716611838836765 4.172150922084269 -0.8378326348637346 242 254 254
1.038496759427659 4.268945181607627 -0.8485674766699633 238 254 253
1.047193157569176 4.269492050741029 -0.8475730479765358 222 245 250
1.0871804367202478 4.259531520844383 -0.8421246255915832 94 138 195
1.1022734519115924 4.2449725835449765 -0.8393099018843869 127 174 224
1.1154172637471402 4.234926028149225 -0.837043496243938 148 199 241
1.1252571604417378 4.232667348956718 -0.8357162782758727 157 212 246
1.1300727236868466 4.242396366724765 -0.83582744904255 155 216 249
1.133765022705791 4.2548990820069434 -0.8362667696638197 135 203 246
1.1419169774857167 4.256768916940812 -0.8354298891568718 83 155 215
1.1542182481321217 4.248630643761845 -0.8333975311997439 50 115 181
1.1659146396309366 4.241900368094961 -0.8315358692792334 69 119 182
1.1814133924151133 4.225859760306688 -0.8285689278288194 90 134 195
1.1878445312832469 4.231870716624256 -0.8282271742293926 95 139 202
1.193999995606665 4.238611172923058 -0.8279693803886848 94 137 202
1.200082290211164 4.245590733235383 -0.8277370644005836 90 131 196
1.199742156005175 4.26852663562771 -0.829387826408745 81 122 186
1.2821202858142426 4.129550248886543 -0.809846458916601 70 113 168
1.284702692886352 4.1450540211214175 -0.8106283045041319 66 109 165
1.2854753299103014 4.165261299144824 -0.8119553275123791 66 111 167
1.2857251435176733 4.186966333941901 -0.8134496033718269 70 115 172
1.8106297726097191 3.35035266909033 -0.6923694833143024 85 138 200
1.8260648763274105 3.327759007177393 -0.6889500008087169 92 146 212
1.978920216532883 3.0943564431680928 -0.654408615951139 75 126 189
1.987065985617627 3.2933105002945333 -0.6674100657561357 73 128 188
1.9929212300401804 3.298405820649317 -0.6670724198436375 73 127 189
1.9970007746032332 3.3092141567479136 -0.6673467843099219 73 127 189
2.241769135271772 4.0312323397186836 -0.6889709810553257 83 139 206
2.2548849237188695 4.011801155664991 -0.6860489939494664 87 140 206
2.267907170839443 3.992508685024696 -0.6831478555411942 88 141 207
2.2813035426572545 3.971228573293374 -0.6800627288881512 92 146 208
2.293460175759362 3.9553197109812777 -0.6775019633862428 123 171 223
2.3050587444421597 3.941754492661423 -0.675172027205728 175 211 246
2.313815049612195 3.941230455413497 -0.6740952936364668 217 240 255
2.3237330428118748 3.935251837324402 -0.672497617752279 246 255 255
3.5768033621368973 3.892337138870424 -0.5206639700548599 241 245 246
3.585591933743557 3.890792662611616 -0.5195117577308523 240 245 248
3.5944783392319826 3.8923371534150744 -0.5185648074680647 245 253 255
3.602869581691439 3.879312812878639 -0.5166537643572888 245 255 255
3.611491566627627 3.87384634366722 -0.5152459673090581 245 255 255
3.656528145584299 3.7048400298316637 -0.4980310096553424 247 255 255
3.7262143887762793 3.8740118950183486 -0.5016325677159476 243 253 254
3.73569115959913 3.8845951728402848 -0.501250130448166 237 253 253
3.7432795425396477 3.864142671494091 -0.4989128957729083 229 253 253
3.753588263110718 3.8873959450434032 -0.4993212327160647 225 255 253
0.9236134981289279 4.22991826217991 -0.868742292679722 111 148 184
0.9337881017509454 4.226992725764536 -0.867324532566578 135 169 208
0.9404508919352326 4.2317836766795205 -0.8668787143602849 160 191 228
0.9451203445291383 4.241018110900052 -0.8669891510371915 189 216 243
0.9522035829506188 4.244969578511529 -0.8664330387472078 213 237 252
0.9582487205248224 4.251264318037989 -0.8661687148797601 230 250 255
0.9658604662691982 4.254109190568917 -0.8654702664294439 237 255 255
0.9609831505133701 4.284978924282871 -0.8682702654448883 238 254 254
0.9811328647301232 4.259763818516586 -0.864065039649281 240 255 254
1.0540350280853905 4.215031281937881 -0.8521961618809835 242 254 250
1.0382660396487355 4.271862394039683 -0.858156591488476 238 253 250
1.0915991612121687 4.25156493120771 -0.8503679122776232 73 108 168
1.1043548083340913 4.24249113327308 -0.8482014936179859 82 119 176
1.1182775692660698 4.230584562702419 -0.845692755796412 90 129 185
1.1223842700789413 4.241956158246363 -0.8460237482072063 97 143 194
1.1313110849197212 4.241902454141881 -0.8449606901993517 101 154 201
1.1371124593212305 4.249350497650749 -0.8448082777644885 93 153 205
1.1452761585740152 4.251172256533242 -0.8439707182589904 65 127 190
1.1597100599493286 4.237853217489457 -0.8412996952050485 57 115 180
1.1771810170484938 4.217061957920194 -0.837730638370453 68 117 176
1.1991217597333315 4.185218246929909 -0.8328359276554983 84 128 188
1.1896921265788405 4.229876110800344 -0.837168224196046 100 141 204
1.199380140315976 4.2279356081431 -0.8358790794347907 117 158 222
1.2022586436993454 4.242777906412319 -0.8366055422435743 126 167 231
1.2023130176627626 4.26473744053287 -0.838179230880858 119 161 222
1.2632388485519355 4.135543155735965 -0.8216537746275838 110 152 210
1.277103406970595 4.144670433360124 -0.8206654734822736 93 136 191
1.2795498191513794 4.16058689855803 -0.821520498956922 82 124 182
1.2818420052421737 4.177028852532753 -0.8224316363742783 75 116 178
1.2835989055170003 4.194969801832025 -0.8235141501506855 74 115 178
1.276297651596698 4.236145192537195 -0.8273433200303295 73 114 179
1.2830067893870023 4.241820711973171 -0.8269556533597294 68 109 174
1.2897610610760049 4.2474327101959535 -0.8265580606249346 64 106 167
1.8009394740776825 3.3589785044800884 -0.7019747717708307 87 140 202
1.8170605452851416 3.334563550157845 -0.698305133101159 84 140 207
1.8064811066486741 3.3862176632969843 -0.7032772860413621 86 144 217
1.9681861226864068 3.1725081832128406 -0.6687126216381403 72 128 196
1.9817921764647857 3.153176425491652 -0.6657071685386143 75 128 192
1.9867959865566778 3.1599617543443057 -0.6656017026250025 78 127 188
1.9922756385692166 3.1653578802325497 -0.6653398138698554 81 128 187
2.1328549586901944 3.5320937275885025 -0.6750488308636452 83 133 196
2.137278606785054 3.5450215010343435 -0.6754541942761265 82 133 196
2.1415948184862894 3.558517124589012 -0.67591316608274 82 134 196
2.1454218140256303 3.5740268022993544 -0.6765751099875574 80 135 197
2.267974968024921 3.881092125858379 -0.6841292795523651 84 140 207
2.2732728502313115 3.8955031768031056 -0.6845376445078909 84 140 207
2.2574461700818915 4.004970819866499 -0.6942924816586671 88 141 207
2.2704430665826263 3.9857262625676317 -0.6913655815888388 89 143 208
2.283347501842115 3.966619391420216 -0.6884595597957498 99 152 213
2.295895098368497 3.948867372296385 -0.6856933689678126 142 187 234
2.306973974207362 3.937646945572439 -0.6835714395212814 197 229 255
2.3154404169358536 3.9384443506179365 -0.6826242492458704 229 248 255
3.5778765105264827 3.8920257010186536 -0.5294922392527396 237 241 242
3.6038273664707825 3.875762544541805 -0.5252428450462309 245 255 255
3.6124131734072638 3.869489753300273 -0.5237727423511186 245 255 255
3.658065791747414 3.7153275916220445 -0.5072628877105929 249 255 255
3.727511347822696 3.877592649853197 -0.5106990546626246 242 252 253
3.737006754578155 3.8883367820811787 -0.5103455104643856 234 252 252
3.745971868513018 3.8899415911293604 -0.5093972496386032 228 254 253
3.755396509978187 3.8986062885884314 -0.5089024722509721 224 255 255
0.9268224585629828 4.225127726384332 -0.877280165089336 118 152 191
0.9338488902448522 4.2290956099193515 -0.8767396847134141 143 174 216
0.9406956164025706 4.23349177521582 -0.8762520722330938 169 197 235
0.945914412020276 4.241522588252031 -0.8762253188126292 197 222 248
0.952828483186977 4.245853812535115 -0.8757249368609942 220 241 254
0.960341687200279 4.248886325357331 -0.8750578148435683 233 252 255
0.9679863577714067 4.251651189828421 -0.8743553822982207 238 255 255
0.9748654526227212 4.2561574760773615 -0.8738720489599666 239 254 254
0.9822434896413241 4.259577704914974 -0.873249525391361 240 255 254
1.0688752054848782 4.163074807415581 -0.8558675977357241 242 254 252
1.0956317729934784 4.244500433344381 -0.8586970964282883 110 144 199
1.11321928909311 4.223978148694693 -0.8550997085966788 86 120 175
1.13003893632359 4.205123910833848 -0.8517162838977834 70 106 162
1.1225073420208354 4.244118836588779 -0.8554831059112727 66 108 163
1.1320496856971298 4.242603038282107 -0.8542402258500654 64 113 167
1.1395605194763003 4.245955570041401 -0.8535969709434524 59 111 168
1.1485802183983773 4.2457035115944075 -0.8525091864587622 58 110 173
1.1667310610808352 4.223367290165015 -0.8487113297793222 62 112 174
1.1839341837317037 4.203160825573302 -0.845182785134896 67 113 172
1.2059969161810926 4.1709510488903145 -0.8401935038132137 69 114 172
1.192207929662924 4.226244270277408 -0.8459033077816542 77 118 180
1.2026640560633666 4.22240180524086 -0.8443806259422085 96 137 201
1.2055105826401884 4.2373087952948 -0.8451418747125956 119 160 224
1.2057896442744778 4.258701038414106 -0.8466854524528037 130 171 233
1.2085229467637386 4.274166686731958 -0.8475012973717673 135 178 233
1.2713106896725106 4.139780503679618 -0.8301537799348031 136 179 233
1.2737807705022757 4.155556605251383 -0.8310237086288146 134 177 232
1.274399277971498 4.176128891059881 -0.8324666152439362 128 170 228
1.2742063991476928 4.198926763236508 -0.8341697355694138 117 158 222
1.2800127625654825 4.206687476837136 -0.8340534241182623 107 148 214
1.2819870442502446 4.224286561644633 -0.8351164836120346 97 137 206
1.2842971627129312 4.24117763492307 -0.8360875504676927 88 127 196
1.7952893886050814 3.377475644567006 -0.7118570017943058 80 132 196
1.7987159749520552 3.389258080944896 -0.7123192026284332 74 130 199
1.8077467802433578 3.385133485656833 -0.7109446866064554 76 135 210
1.8180434486346075 3.377338689693927 -0.709149611149885 83 145 224
1.82173602442859 3.388534073099336 -0.7095370140690466 86 150 233
1.969164899724219 3.2165066849371344 -0.6793817790574995 75 128 192
2.0167300639666204 3.2519219802457044 -0.6763535304280951 77 131 193
2.023574822205432 3.253700134044014 -0.6756731976901376 77 131 193
2.031284460253212 3.252715529725718 -0.6746867192413764 78 131 192
2.03338177714541 3.2699057138039005 -0.6757050570419441 80 130 190
2.133532840867357 3.5330371805697354 -0.6832264170021702 83 133 196
2.138040091867268 3.545670918268537 -0.6836232572885748 82 133 196
2.270513552833673 3.8000130188655645 -0.6866652802559491 87 141 205
2.2748871638449195 3.892836483102164 -0.6929881317871703 86 141 207
2.2613425362985358 3.992129712961878 -0.7019118720921809 87 141 206
2.2737695256475687 3.9753530727866346 -0.6992022827241813 90 144 207
2.2861159201609973 3.9586976014949875 -0.6965111776045207 106 158 218
2.2980545241157126 3.9436699484146955 -0.693988386512642 160 203 245
2.3090567960204234 3.932755932725097 -0.6918797741208078 214 242 255
2.3170639888750975 3.9356618294812615 -0.6911447621058988 237 253 255
3.6049371931031735 3.876608288641479 -0.5341261642265884 245 255 255
3.6135661110326645 3.8714963382848273 -0.5327265181054296 245 255 255
3.650216688202055 3.707615207691828 -0.5163034890578869 248 254 254
3.6592425634280175 3.7180362949467027 -0.516001608091747 249 255 255
3.7190146569073583 3.8646731757803803 -0.5197236232957901 249 253 254
3.7284586816218304 3.8752260067280604 -0.5193818841458505 241 251 253
3.738085092097976 3.888147552015742 -0.5191931045003565 234 252 252
3.7469616782988227 3.8883285949368416 -0.51815420536762 226 254 255
3.7570935772049503 3.9080104375720066 -0.5184037540867845 224 255 255
0.9276507176185891 4.2255430544691395 -0.886477207699106 123 153 196
0.9342187270906882 4.230521701566335 -0.8860749887820617 150 178 222
0.9408329143328346 4.235438195868807 -0.8856626117548924 177 202 242
0.9465447238530472 4.242389832970996 -0.8855106501007625 205 229 252
0.9539120316420836 4.245720900171709 -0.8848894642465992 225 246 255
0.9618393550453443 4.247832652062062 -0.8841099612527412 236 253 255
0.9687075273011344 4.252331876015912 -0.8836360227300311 240 255 255
0.9754561935268887 4.257136168679549 -0.8831992540349816 240 254 254
0.9834468520290024 4.25918276025701 -0.8824073340839558 240 255 253
0.9911967412066669 4.2617928163092555 -0.8816864405281984 239 255 252
1.0711633196818493 4.160147880574247 -0.8645471376586383 242 254 252
1.0310648416241543 4.272625113757743 -0.8777821489095924 241 253 250
1.0961741675634962 4.2456498853072935 -0.8680360522916254 162 205 245
1.1140311462943346 4.224486874736866 -0.8643245535141506 142 184 225
1.1287927533659843 4.210511581608718 -0.861521936158254 104 144 191
1.1316070183786293 4.224897028916047 -0.8622739944907756 68 112 161
1.1368002547515348 4.233708867255098 -0.8623237954100389 61 109 159
1.1428778933018597 4.24047048139582 -0.8621141719348432 61 107 161
1.1538202451455235 4.2355634059434655 -0.8604480449291183 66 109 168
1.1686535833028395 4.221206375130215 -0.857608131207631 71 114 174
1.1846974631565965 4.203799576160912 -0.8543947550854782 71 114 172
1.2056926717516607 4.174182422594658 -0.8496737501488624 70 114 174
1.1954073541881696 4.220935180529133 -0.8544192306167022 69 110 175
1.2026132580679603 4.225061902333551 -0.8538771901805754 72 113 178
1.205320404976309 4.240331669036399 -0.8547086544484488 80 121 187
1.2076087347277757 4.256767317271404 -0.8556776823106194 92 133 196
1.210668697358333 4.271420618977384 -0.8564208517940827 104 147 204
1.2699824881243094 4.167646609068107 -0.8415668171905697 119 162 217
1.271151641426659 4.186892251961593 -0.8428803967104607 129 171 229
1.2742540522269084 4.201411074432718 -0.8436083929063225 134 175 240
1.2781132081998823 4.214132748785115 -0.8441111771214602 134 175 241
1.2794415977484614 4.233419761445593 -0.8454090196084894 132 171 238
1.280844636208446 4.2526814689816606 -0.846696112234915 128 166 232
1.2831814964620594 4.269707899769214 -0.847703965906627 119 157 219
1.838295612990321 3.1963162289669325 -0.7009769302970483 80 124 178
1.7517551926616504 3.4597126658115362 -0.7310985701285704 79 124 180
1.7743791084061402 3.417611779473342 -0.7252428074788808 77 123 182
1.801105867825357 3.3634975769208233 -0.7179947679163955 76 126 188
1.8064568367834706 3.3697433116655717 -0.7178322816826966 76 127 193
1.8135370241239213 3.3711058049024354 -0.7170965747737368 75 129 199
1.8053372689404188 3.416399838264623 -0.7214850052338104 76 135 205
1.8152726947118882 3.4097607331348847 -0.7198074502489858 78 139 212
1.8254328552175059 3.402411194983835 -0.7180496793822853 78 143 217
1.8334998170802344 3.4010982001814156 -0.716995249360684 81 149 225
1.843157279483131 3.395118510387987 -0.7154003649324796 84 153 231
1.8552563717716928 3.3818993657891934 -0.7129701180162618 85 153 234
1.8644643365102864 3.377107571679387 -0.7115180915837933 84 153 235
1.8732174336732634 3.3736257543811887 -0.7102187698595243 82 152 235
1.8828685590873486 3.367432594012075 -0.7086085300276577 82 153 237
1.904874006228335 3.346723564627876 -0.7044399815092213 78 150 228
1.9134073621716323 3.3437069535996398 -0.7032017824612657 83 151 226
1.9219312859321698 3.340693810555659 -0.7019649621152266 86 148 219
1.971543232903155 3.2801487550433945 -0.691521444070752 85 131 191
2.0096097570755664 3.2774096995088384 -0.6868065833973755 77 130 192
2.014926501872265 3.2842252552302287 -0.6866911420731749 77 131 193
2.0232569926062287 3.2814016062422615 -0.685491526846198 78 132 192
2.0163928819151264 3.3278041530537656 -0.689805412335777 79 132 191
2.134742009114733 3.5320183548018176 -0.6911968850869541 84 134 197
2.138770180775846 3.5464383127809596 -0.6918077846430644 83 134 197
2.243448329224682 3.9225408335589877 -0.7077869066298419 87 141 205
2.247590320776587 3.942140957967287 -0.7087751588355937 86 141 206
2.2529546673804837 3.9952729167335357 -0.7121485519939936 86 141 207
2.263964589386657 3.984996951434854 -0.7100693516076219 87 140 206
2.2762422845445007 3.9688298783634757 -0.707395538020915 94 145 209
2.2885299112888466 3.9523800251958656 -0.7046992130962811 117 167 224
2.30017358096923 3.938649126993055 -0.7022842910199827 175 215 254
3.597220438876873 3.877128445709056 -0.5440338923653973 245 255 255
3.6059321469706873 3.8741705998838194 -0.5427790048426909 245 255 255
3.614524937093065 3.86820891205665 -0.5413115673823201 245 255 255
3.7201875918192804 3.8662191126812884 -0.5286478508156782 247 253 253
3.7296985678101313 3.877810983078157 -0.5283960507481115 239 250 252
3.73934759462203 3.8909775618475697 -0.5282467096953313 232 252 251
3.748156893925943 3.8899999407015757 -0.5271296681287199 226 254 255
0.9273798557614835 4.228365033574884 -0.8959921686751492 125 154 196
0.9349231627377276 4.23121403738817 -0.8953195844476511 155 181 225
0.941725716820944 4.235720679409789 -0.8948626033301467 184 208 246
0.948623425428669 4.2400531910998085 -0.8943809220103857 211 234 254
0.9555330773043996 4.2443944863336185 -0.893898505619463 229 249 255
0.9628448640542943 4.247875093335222 -0.8933020699949537 238 254 255
0.9695923126291776 4.252647348775849 -0.8928721124543508 240 254 255
0.9761925508018948 4.257788976471157 -0.8924880856508771 240 254 254
0.9793464423666237 4.270736867479447 -0.8931144155996905 240 255 253
0.9943023399898208 4.25709700508864 -0.8902919570298362 239 254 252
1.0731236482526965 4.137968389216839 -0.8717700375076199 240 255 255
1.0459985049160656 4.220218378229785 -0.8813285860807084 241 254 254
1.0817369105639347 4.261056964959011 -0.8802525613957899 173 221 255
1.0923631001158343 4.257058171040909 -0.8786866119625587 181 230 255
1.1131689832853804 4.228955703850333 -0.8740555773051143 177 224 252
1.1258511822631756 4.2199297086645196 -0.8718582982401345 153 197 237
1.1325591378247557 4.225078287757261 -0.8714620631389851 102 147 194
1.1350068057197378 4.2404654820017775 -0.8723602501630906 71 116 167
1.1422672661036397 4.244416260954154 -0.8718061815465237 68 110 164
1.1540860226045664 4.237409978444444 -0.8698669717348199 70 109 166
1.169141956847174 4.222515816859481 -0.8669358534013245 79 119 177
1.1799019393779395 4.217950392377417 -0.8653103337105862 85 127 185
1.1940110817593905 4.205180574203005 -0.8626552231615662 80 122 183
1.200052483099469 4.212079431060412 -0.862472963299897 76 117 181
1.2030856950362847 4.226437616623571 -0.8632224372650629 75 116 182
1.2067696973207005 4.239308620340534 -0.863780110411967 72 113 179
1.2083676505987593 4.25746080956425 -0.8649922733224189 72 113 176
1.2126203442987142 4.2691554146843576 -0.8653918498477107 75 118 177
1.267828450436774 4.175621202056334 -0.8516395151663817 81 123 181
1.2707355115937595 4.190529775279444 -0.8524464013345818 89 131 190
1.2746109057135595 4.203115464540871 -0.8529594049965724 99 140 204
1.2773815393264674 4.218617570762511 -0.8538282498293768 108 149 213
1.2775036653232932 4.241011764646081 -0.8555424844075519 119 158 225
1.2801166803757722 4.257215217892176 -0.8564841177151202 130 168 231
1.8332390713600508 3.274884258552486 -0.7152103344925845 76 124 185
1.8360608034618058 3.2879259679910064 -0.7158832070303965 75 125 188
1.8081532056462668 3.389043790638687 -0.7269908064961368 73 124 189
1.8153639134839885 3.3901348447380792 -0.7262218725745642 73 127 191
1.8105154976694917 3.4260817936243937 -0.7295703948555848 74 129 195
1.8439951544884106 3.4862478866077447 -0.7302535768713972 81 150 235
1.8551903659870443 3.475945025652378 -0.7281336694771203 85 157 238
1.8995309081614895 3.435096407675653 -0.7197341435074497 111 167 236
1.9134158586559995 3.416017903554932 -0.7166185698764377 112 163 230
1.9227832051425016 3.41073098646688 -0.7151021295392145 107 155 218
1.9338801049480554 3.400015268023876 -0.7129619843032663 103 150 211
1.9519761793724062 3.3673113475264764 -0.7082963667508021 101 147 207
1.9619509379916014 3.3597972053683143 -0.7065361315536339 96 143 203
1.9636470069744305 3.3783627420112277 -0.7077685933141801 89 139 198
1.9748559418830456 3.366918995275712 -0.7055589933261701 83 134 194
1.985866483659837 3.3559935000028323 -0.7034128724048344 79 131 191
2.059211632708801 3.2640584767573033 -0.6876380470190254 80 132 190
2.0638461154831176 3.273323082090081 -0.6878048710676633 80 132 190
2.135820032590859 3.5314834426099884 -0.6992173448457422 85 135 198
2.2446680652839066 3.9216704748006492 -0.7164585386493025 86 139 205
2.24891244157581 3.940832471040188 -0.71743553268576 85 140 205
2.2553863824016767 3.9890384729984647 -0.7203907351862396 87 141 209
2.2671850871599784 3.9751581010923367 -0.7179232634282989 89 142 209
2.2789489258621907 3.9612346082296566 -0.7154565882965204 100 152 215
2.290699596971015 3.947167786154564 -0.7129804070560924 127 177 230
2.3022885434203877 3.933638351654648 -0.710564843526003 188 226 255
2.3285622501902066 3.9318587351921788 -0.7073188179408515 251 255 255
2.37309344572239 3.8012987003828753 -0.6919716037376313 254 254 252
3.5983249525166343 3.877848894605334 -0.5529139041292833 246 255 255
3.6069262277245033 3.8717349881179226 -0.5514242656343171 244 255 255
3.721385294161626 3.8681810942406094 -0.5376073672432076 245 253 255
3.7307843507989085 3.877785287600639 -0.5372366706767087 237 251 252
3.7401677884002 3.8865602990140458 -0.5368038147372981 231 252 253
3.748740033345309 3.8819334108611825 -0.5354323990648808 226 254 255
0.9294871696786401 4.2259811592782075 -0.9048253212149643 131 161 200
0.9363617582304499 4.23029354988617 -0.904353118164486 161 188 226
0.9419950432470017 4.237378740621589 -0.9042465272436854 191 214 247
0.9495570974517195 4.240249376220779 -0.9035792506416818 220 240 255
0.9564664246024371 4.2445948698717135 -0.9031055543962236 235 252 255
0.963331547600758 4.249074471203044 -0.9026476696951271 240 253 255
0.986026209150216 4.258003290695637 -0.9006698520609673 241 254 254
1.0661240812766117 4.156282185080944 -0.8831720128909939 243 254 255
1.0495938555381124 4.2143126759550755 -0.8897068626436118 239 253 254
1.0266936617675106 4.28745976503009 -0.8981879728046105 234 254 254
1.0848917806474896 4.25607489500071 -0.8888310992779724 180 224 255
1.0944722228048265 4.25452140017163 -0.887575999815688 180 227 254
1.1123049908538065 4.233433017110927 -0.8838033577255557 164 212 249
1.1238755430922251 4.227061932169752 -0.8819327186752705 143 190 237
1.1321045584413583 4.228614333695579 -0.8810825429124342 119 162 217
1.1351682001330006 4.24254868571151 -0.8818203663969366 88 128 186
1.143026643549256 4.2450733510303404 -0.8810907441638465 69 109 167
1.1631084598689796 4.218131605607385 -0.876590191460798 73 114 170
1.172905358880032 4.215894020454448 -0.8752555039827719 85 128 183
1.1830642842252663 4.2127630083837 -0.8738074964290452 103 145 204
1.1997342615142876 4.193715831635463 -0.8703334344207624 111 153 213
1.2058067791108278 4.200496990911486 -0.8701509235043461 111 153 214
1.2098925415516684 4.212226327260864 -0.8705938640184075 102 145 205
1.211537545377633 4.230085283842655 -0.8718091840476065 92 137 197
1.2187912601322752 4.234179120926969 -0.8712749135003192 82 126 186
1.2225456495551064 4.247027154721166 -0.8718453333268497 73 118 177
1.2239635068610808 4.265828192552995 -0.8731618705253187 70 115 172
1.2651475481158976 4.1849266279861075 -0.8619073643701347 67 112 171
1.2678055876825756 4.2005095435176125 -0.8628232686545526 70 114 173
1.2690874061084443 4.2197102593803795 -0.8641874367159627 69 112 174
1.2718593474022004 4.235286363633661 -0.8650893394299645 73 114 176
1.2692622862659453 4.264703904886217 -0.8677185221152676 81 121 186
1.7935029195482632 3.500327985443838 -0.7454108729069536 77 126 186
1.8140818218193997 3.6021954840107226 -0.7510196457408957 72 135 208
1.9630899046160395 3.4563010623921864 -0.721889188746737 87 140 196
2.047790302678908 3.280022564822869 -0.6979618098187217 81 135 195
2.0498837437184996 3.297706747822792 -0.6991103253061353 80 134 194
2.2413426639685228 3.9032160439758097 -0.7242770385452785 85 139 209
2.2459105610027206 3.9206993980247304 -0.725117204651527 85 139 209
2.250303257399617 3.9392193718128468 -0.7260599103819025 85 140 209
2.277192741875515 3.8581670183043926 -0.7164832068243058 87 141 211
2.257484189779905 3.98428646925707 -0.7287686349541368 86 140 212
2.269340596284262 3.970100073036587 -0.7262472726055434 89 143 213
2.280911163752281 3.9570051142157965 -0.7238458552857874 102 156 216
2.292869223313986 3.9419467263404155 -0.7212436426863622 139 189 235
2.3032597151945295 3.93389058328946 -0.7193794771784054 195 231 255
2.328069032604584 3.9390302311124814 -0.716852580282083 254 253 255
2.3363234876664354 3.940888436336717 -0.7160235372515236 255 253 254
3.6080675259697794 3.8734680818618856 -0.560373361222603 244 255 255
