ply
format ascii 1.0
element vertex 707
property float x
property float y
property float z
property uchar diffuse_red
property uchar diffuse_green
property uchar diffuse_blue
end_header
2.3215850165917686 4.08467728109618 -0.1444295766657855 154 181 200
2.3310468169960106 4.084562519408174 -0.1432753996388784 148 176 197
2.34015260388109 4.086434275748209 -0.1421236335562072 146 178 198
2.3493807297515277 4.087651360127701 -0.1409704602866288 143 175 196
2.358643670972093 4.088693204818429 -0.13981665754445585 135 170 190
2.367768643085625 4.0905487883570455 -0.13866288103357785 135 172 191
2.3783162991124813 4.084173011748579 -0.13750553153623576 133 169 191
2.3892642339924968 4.075318214726664 -0.13635055145923075 138 172 197
2.3962359614314823 4.089860283784124 -0.13519745965834715 136 170 197
2.4032446859818695 4.104479431963075 -0.1340382506039399 138 172 199
2.436771409520706 4.13177400296276 -0.12937536038335437 140 175 197
2.4483591419934325 4.1187165165319355 -0.12822913938878813 140 172 195
2.4576727248787726 4.119892836556795 -0.12706636389898626 142 174 195
2.4692162459403484 4.10669755472338 -0.12592839835814681 147 178 198
2.492976526384941 4.074960911254569 -0.12368079832772798 146 173 190
2.503821511925755 4.065458213723655 -0.12255180879171099 146 169 185
2.5561525370316 4.027878785871559 -0.11693279990571608 41 50 65
2.5489859464229734 4.146273406179563 -0.11535892392254372 21 31 43
2.558497912192753 4.14650433231748 -0.11419146186259224 12 22 34
2.5681920753395744 4.145400345448363 -0.11302935175581887 8 16 29
2.577882383399753 4.144295865757627 -0.11186772306858804 9 17 30
2.5876576551346413 4.142520799660897 -0.11070958502930965 16 22 34
2.5977068980443896 4.138604070338372 -0.1095622747277583 19 25 37
2.6077133302694295 4.134913680749015 -0.10841551381341248 17 24 34
2.627748414030368 4.127050348697439 -0.10612926123841308 19 26 34
2.6371442054028966 4.127969420954793 -0.10496176018182464 18 25 33
2.64685609520655 4.126327431959568 -0.1038086158641286 19 23 32
2.656409955881801 4.125948770690649 -0.10264864669191451 18 23 29
2.665918070698479 4.125943140936828 -0.10148655027103229 16 21 27
2.6739781789048287 4.1383032220871545 -0.1002455722530946 13 18 24
2.682934306193117 4.143263765738157 -0.09904818503347655 13 16 21
2.69190636688309 4.1482329727137115 -0.09784867094830982 20 23 28
2.700804263417075 4.154016166156365 -0.09664137884957094 32 35 40
2.709898413000173 4.15819785498227 -0.09544323706119401 45 49 52
2.7295094354287697 4.153637282546331 -0.09314047690091302 81 82 86
2.7383905399605584 4.160042107329575 -0.09192237427284376 99 100 104
2.746178242412525 4.177238990991353 -0.09061460811775526 112 111 116
2.7544087598453837 4.190658672343291 -0.08933087460316215 119 119 121
2.8409798825842962 4.675469209745181 -0.06871703722036163 126 124 125
3.194915997837987 3.8677996422728183 -0.042166751572747525 122 123 127
3.4123417906865985 3.8729891085499517 -0.015482589961099042 114 125 143
3.6591097178110585 4.377564441715843 0.025121692218278816 7 112 178
3.7463377529030932 4.348970421319392 0.035192225063104154 2 114 178
3.7563006323878434 4.350129191043999 0.03643400337857212 1 115 178
3.7658527699266973 4.345897533889948 0.037514033975952085 0 112 180
3.7753758954744336 4.341483221433554 0.03858673874080985 8 117 184
3.7946673890501934 4.336201751034772 0.040835524528581295 11 109 172
3.8040277389708805 4.3303188194152815 0.04185794327355548 21 115 177
3.8135986974441716 4.327137094817756 0.04296200010873507 31 125 187
3.823117878556443 4.323488299571779 0.04405006316179018 35 130 196
3.8327168564398377 4.320879160591128 0.04516939311858294 24 123 188
3.83403753432932 4.227033439833919 0.04338892609844551 12 115 181
3.8432437918059157 4.222063101612767 0.04441139333899568 5 111 173
3.8519528896425212 4.211990151016937 0.04526750528821811 9 115 175
3.8612660171137754 4.2085856985376155 0.04633543767573479 11 117 175
3.870866923409345 4.208254050175829 0.04750213022497656 5 111 169
3.8829535606310754 4.232990097441936 0.049491375286112145 12 116 177
3.8952865868659314 4.259327933582993 0.051543882356701445 20 124 187
3.902510288590961 4.235008497636499 0.05192363393195704 15 118 184
3.913376551830634 4.246394598644237 0.05348746487464985 11 112 180
3.926252188038427 4.276357201025891 0.05568130253635434 10 111 179
3.9372233702073056 4.287698790324318 0.05725703706085259 7 108 176
3.9506104043863726 4.320748444756013 0.05957726352495989 6 108 174
3.962556106721243 4.339820342445127 0.06143207641253131 7 109 175
3.974223265869069 4.3558476656284855 0.0631898421853393 6 108 174
3.988935164394291 4.397954095255581 0.06585941876614711 5 106 174
4.005571970845179 4.455362876184193 0.0690809273760629 7 108 176
4.022255824577044 4.511503597935039 0.07228194749422284 5 106 174
4.039807238536047 4.573280228274551 0.07570563358012482 3 104 172
4.093206167658329 4.214265390593968 0.07480388822043357 3 102 169
4.1015286387029795 4.204763894284321 0.07562456610427416 4 103 170
4.1224839644524245 4.216788386774397 0.0784348312877902 7 106 173
4.130781552312185 4.207426329161659 0.07925535293477826 9 108 175
4.192249785514775 4.10870905000568 0.0847261450786501 3 102 170
4.252512823252326 4.245192898063342 0.09491651068133891 1 102 170
4.259942546136032 4.173966519424928 0.09435082513749231 15 105 168
4.2653801440050385 4.149597622243504 0.09451123099379657 44 124 190
4.270755707243403 4.125355117345318 0.09466666948886615 33 114 180
4.275965191427241 4.100633629555832 0.09479189617899059 9 100 170
4.291287876720289 4.027611977574993 0.09515384873316349 3 100 168
5.237437200239628 5.015015134945522 0.2312370636801845 4 93 161
-0.8424765193982343 6.159930109360507 -0.5014251423257292 105 49 60
-0.8261974541756945 6.154033934011209 -0.4995469380351228 109 47 58
-0.8213906865568514 6.169072125647684 -0.4986743190690053 109 47 58
-0.8057620246735766 6.164359657029686 -0.496853184199834 112 55 67
-0.7970992341461897 6.172431639255112 -0.49564124195445086 121 76 86
-0.7901305184690647 6.183681039745808 -0.49457615885919104 130 104 112
-0.7833247331577093 6.195303551895511 -0.4935239204207143 132 123 129
-0.7692576840628762 6.193513799140032 -0.4918382801522261 131 129 136
-0.7659433601641333 6.21174739715237 -0.49108753188821846 131 131 140
-0.7568485841156974 6.219292939378833 -0.4898327617578425 116 121 131
-0.747047188472603 6.225561796016184 -0.4885158126420592 69 76 85
-0.7389416776550639 6.235061592442907 -0.48734492947028707 25 30 36
-0.7333105948512103 6.249293363851315 -0.48638683083601264 10 13 15
-0.7516932762261428 6.3090917925589185 -0.4875005074062759 6 8 7
-0.761000906489958 6.3520400510121275 -0.48782422660709385 5 7 6
-0.7553437222906262 6.3667455557834565 -0.48685395808032805 11 12 13
-0.7854803114089806 6.449999313491952 -0.4889598612941293 30 30 33
-0.7653004485499627 6.437260409331541 -0.48673451995968586 56 55 62
-0.7356966412887863 6.40629480674123 -0.48370266336344775 69 71 83
-0.7063252151802185 6.375571570443205 -0.48069461930118995 60 69 84
-0.6720871354948484 6.335211531182278 -0.47727433092846316 39 57 75
-0.6417149944043048 6.302097731862968 -0.47418927017499124 24 48 70
-0.627779816556173 6.30082889274469 -0.4725098764094724 20 48 74
-0.6146055195689298 6.30104060622494 -0.4708954304165667 19 49 77
-0.602592446332542 6.303534246847853 -0.46937968090065224 18 49 78
-0.5904966717242162 6.305881482850057 -0.4678565969092985 19 51 82
-0.5814635461709594 6.314300926131112 -0.4665927988602378 20 54 84
-0.5639290258844386 6.305908119278836 -0.4646084487589388 20 55 85
-0.5244707797989802 6.253804484468527 -0.46077263507778393 22 55 86
-0.5212370930599931 6.2737177056772575 -0.4599999080046276 24 58 90
-0.5336214496774531 6.325080468702769 -0.46054023755829504 28 62 96
-0.5268882756473291 6.338337709450343 -0.4594658901648362 32 67 98
-0.5325469576287076 6.376703842865571 -0.4594304105524993 33 66 96
-0.519400432233954 6.377240443325777 -0.45781320139635906 31 65 93
-0.5056564806977804 6.376565889248996 -0.4561459190314681 28 63 92
-0.48723459171452593 6.366342695450106 -0.4540877900520272 26 59 85
-0.4776648650728719 6.374170149913859 -0.4527696182812886 14 39 62
-0.4732973804792371 6.392740954741089 -0.45188373959865114 1 19 35
-0.4697097558552347 6.4130512784508 -0.45106022020249353 1 11 19
-0.47807545878754837 6.458239921038103 -0.45122633297901765 4 9 13
-0.5087920066423701 6.550165442504932 -0.45323876418706643 6 9 14
-0.5117821137998888 6.584966989993417 -0.4529446404841434 8 10 15
-0.5230506736112913 6.637333920104497 -0.45332954123913655 12 13 17
-0.5479202083721777 6.71862947404994 -0.4548287131178495 28 28 32
-0.5461177940898923 6.744323481160095 -0.45412137529994534 50 50 54
-0.5330120681876385 6.746304238222178 -0.45248178064124817 57 57 62
-0.5232946498534958 6.755489596907898 -0.45111981695053066 41 42 46
-0.49807598834712774 6.731725205267627 -0.4484875096244526 29 28 34
-0.4872281463679422 6.738507122178418 -0.4470329176926377 38 35 42
-0.4722523402229281 6.736481451530515 -0.4452406621133003 50 47 54
-0.44212823541318225 6.701816273443172 -0.4422153266142051 53 55 62
-0.41793584628858654 6.6797149309010395 -0.43967694958475356 50 53 60
-0.4165168298297126 6.706860367833278 -0.4389889678098475 53 53 61
-0.37499584276433146 6.64687166704754 -0.4350504587989301 57 56 63
-0.34729283006678846 6.6166380507807405 -0.43223708212370565 85 76 87
-0.32780321341944835 6.60419852181087 -0.43009044243475064 130 120 131
-0.3149159952563328 6.606207106879215 -0.4284770308212807 153 146 158
-0.3043054092948899 6.613264348572817 -0.4270462226272667 159 156 165
-0.2945576530354064 6.622290195218065 -0.4256835738377579 151 150 158
-0.28120724415034976 6.623358093074425 -0.424031371529447 121 111 117
-0.2744665850939104 6.639217232669217 -0.4229067922127768 100 73 76
-0.2712597898803895 6.663133042308117 -0.42206148645334585 118 84 84
-0.25227220975711007 6.651664637536366 -0.41995780908174674 133 106 106
-0.24889762819468497 6.675434850692413 -0.4190947526960356 136 110 113
-0.23687877492001574 6.679754219593974 -0.4175436913792226 125 92 97
-0.22452473771004883 6.683342695230705 -0.4159655105062941 110 73 81
-0.21217646945050458 6.686972250757076 -0.41438725619590855 146 114 124
-0.20239605991591983 6.696532553742701 -0.413010485652272 170 147 158
-0.18887875306352878 6.697544703160454 -0.4113389383147927 171 160 172
-0.17899865538180332 6.706991644858245 -0.4099521305127761 145 143 154
-0.16632912186952561 6.710025030341004 -0.40834590450062713 87 92 100
-0.1497575519684479 6.703968926587931 -0.40643497559853714 60 67 74
-0.1309683770529048 6.69266320507583 -0.4043524678525077 73 77 88
-0.11906955468006994 6.697488717628019 -0.40280648562205457 93 93 107
-0.10279998611603886 6.692020255877039 -0.4009213352326721 114 113 125
-0.09558290865110201 6.707994992558734 -0.3997363272221941 133 131 143
-0.09083591845167327 6.7299878400298985 -0.39873919543949454 139 138 152
-0.07966190645644043 6.736779625569044 -0.3972445452578661 137 140 156
-0.09405765429659443 6.805076846131588 -0.39770976900816457 120 130 146
0.8583104581870706 4.641479371006987 -0.3223010713440608 52 48 55
0.7437219026285731 5.087320814209971 -0.3278578633671697 121 117 118
0.6436226937779059 5.36872430371192 -0.33476026216896754 121 115 116
1.0876554797335896 4.2955221209230885 -0.3008231609164201 121 116 117
1.1027139303185312 4.2820947122666535 -0.2992369138274681 128 125 126
1.1167720654456605 4.271122389200161 -0.2977264116170578 137 135 135
1.1314434602822407 4.2584667747786265 -0.2961728496767014 115 116 113
1.141561268938235 4.25752149781268 -0.2949539603022549 57 61 56
1.1468660507861559 4.269120979146709 -0.2940856418632812 60 66 61
1.1599130067442098 4.260540134358207 -0.2926534181439565 122 127 124
1.1667349612170563 4.268264683895007 -0.29167308599906616 139 142 142
1.177021075945082 4.266900434519601 -0.29044156409313354 125 131 132
1.1866959315270205 4.267146838376075 -0.28925423416579565 124 136 137
1.1963700730949158 4.267397062929288 -0.28806691910161064 138 150 153
1.2060447666513878 4.267647767558171 -0.2868795274625887 112 123 127
1.2156264398966 4.2681509379910745 -0.28569872138523594 50 63 65
1.2265920195914453 4.26491439254188 -0.28441962921921865 13 26 28
1.2360201640363442 4.265826078196733 -0.28324984749950893 10 19 21
1.245450962754818 4.266738730019433 -0.2820797230070209 11 18 20
1.255887554994397 4.264899998761842 -0.2808388000808659 14 18 22
1.2657373863405483 4.264661023341091 -0.27963928100532665 16 20 25
1.2766233600425538 4.2615493875193415 -0.2783675523546666 20 27 32
1.288054627568587 4.25688992968012 -0.2770585044454301 25 36 41
1.2987084221858611 4.254359515763534 -0.27580414088579974 22 36 42
1.3091368398704926 4.252437592358096 -0.2745657940634643 13 29 35
1.3199609636517566 4.249379245052765 -0.27330061593830524 8 23 30
1.3307732679310538 4.246324197411667 -0.27203682009286184 8 20 29
1.3425117773928188 4.240597750640263 -0.27071043870198924 10 20 28
1.3549405259512592 4.232836552229095 -0.26933824923330896 12 21 28
1.3635761642013788 4.235921193343279 -0.26822415723145415 13 21 28
1.3714885421003087 4.24112935357079 -0.26715822732551187 14 21 27
1.3796085563463762 4.245785350587312 -0.2660773816612172 13 19 25
1.3922483725310482 4.23727557162626 -0.2646935799292148 13 17 24
1.4094812901906364 4.215184976970643 -0.263005728706807 14 16 23
1.4121272495767236 4.235943293319833 -0.26228882762571354 16 15 23
1.4223505248319042 4.2344239496285505 -0.2610679269416211 16 15 23
1.4350393195763687 4.225533447773455 -0.2596853543477031 15 15 22
1.4778862310549707 4.1261184699101445 -0.25633205774892337 14 15 20
1.4876645622104596 4.125345843255826 -0.25515139383513896 15 16 20
1.497440111035016 4.124573205803623 -0.2539710702396456 16 17 22
1.5072127208102803 4.123801034878795 -0.25279109707245395 17 18 23
1.516260585810983 4.125239361197571 -0.25165781885572197 17 18 23
1.5373417244858472 4.089653955682455 -0.24975534257571708 15 19 24
1.5474428574866455 4.117080178449814 -0.24800073214280047 18 23 28
1.5523483576765353 4.131467807872165 -0.2471283749501729 21 28 33
1.5555314065676507 4.151427192107979 -0.2463609628907711 25 32 38
1.5543467813244207 4.185412745019352 -0.24586160264669565 38 44 51
1.5688641472169857 4.169852609079926 -0.24438192221174965 69 73 82
1.587522458374827 4.140884348398745 -0.24265019088258172 103 107 116
1.6001091201763862 4.13111070706315 -0.2412968422897783 129 133 143
1.6126242558614265 4.121459139111205 -0.23994992328269088 140 149 159
1.6323443994016156 4.088282015752885 -0.2381681686807123 142 156 165
1.645340243795324 4.076709109098176 -0.23679890504966805 142 159 167
1.6574073543607841 4.068057550964072 -0.23548779847264223 141 157 166
1.7202804759903245 4.210844254764973 -0.22509574450964093 113 121 128
1.7333680990283686 4.198772741751565 -0.22372471249989737 86 93 101
1.7459389406376613 4.188386806247477 -0.22238490333105884 54 61 68
1.7656260321266946 4.152471951714586 -0.22065908057422787 28 33 39
1.7722652579003684 4.162974019352022 -0.2196484396089082 12 17 20
1.784248378825636 4.154294415123266 -0.21834813156225133 7 12 15
1.7943369633831703 4.152395069540423 -0.21715089817875274 16 20 23
1.8025957068332437 4.157167264847224 -0.21605089173479836 28 32 35
1.8129608036870493 4.154242869219395 -0.2148392863585989 29 32 37
1.8236758026154256 4.149984007476193 -0.21361020252248794 20 23 28
1.83495054523403 4.143582352626259 -0.21235331027821797 12 15 20
1.847991821275949 4.130466375118669 -0.21100774075449052 16 19 24
1.8600707188918943 4.120815503847479 -0.20971413451792126 15 20 24
1.8785185425978517 4.08681761034197 -0.208103466028577 13 18 22
1.8913027621662404 4.074051438395021 -0.20678268893632643 12 19 22
1.8980867405683732 4.08423624204361 -0.20576036682184742 14 22 25
1.9166840860037708 4.0487324825231115 -0.20415996322397048 11 20 23
1.928269429490057 4.040133539125235 -0.20290675084210133 10 18 23
1.9502340726118932 4.179471866066238 -0.19758073250994496 14 19 23
1.954865933440845 4.199859366149499 -0.19662810230242825 14 17 22
1.9843827029350007 4.157330781389584 -0.1938260524970274 14 17 22
1.9936252105133294 4.158696739271819 -0.1926703527540937 17 17 25
2.00275937896875 4.160538776370575 -0.19151887273593377 17 17 25
2.011911215875761 4.162332132824714 -0.19036615562016812 15 18 25
2.018977964119669 4.173072436691127 -0.1892987384981213 14 17 24
2.0307081423218083 4.163870903342692 -0.18803924306224587 14 17 24
2.038681349960369 4.17084574174 -0.1869323912988301 15 18 25
2.04864613418979 4.169211646711329 -0.18574526371787053 15 20 26
2.056635758622427 4.176259194707312 -0.18463502700339157 15 19 28
2.065433699071079 4.179823355031219 -0.18349200618364184 15 17 29
2.088315476725768 4.120401314800251 -0.181821223522897 13 15 28
2.092807676387705 4.143008751767042 -0.18084358841086448 16 18 31
2.1051563935190356 4.130252838025103 -0.17957585293389328 16 19 31
2.1145537966478716 4.130817902612508 -0.1784163989793069 23 27 39
2.124525547119872 4.128738878560442 -0.17723685312138796 38 44 56
2.1345261369445234 4.126491733849709 -0.17605696852060512 43 50 60
2.1446306134521436 4.123720221362831 -0.17487432373542505 28 35 45
2.154575242568899 4.12165925352788 -0.17369775096510115 16 23 33
2.168653938165469 4.099845567470299 -0.17239022495449255 22 29 39
2.1782000933977264 4.099468246614436 -0.17123044963909134 38 42 53
2.187587258757987 4.099855002286822 -0.1700756268602991 27 31 40
2.197509726142701 4.097630017265442 -0.16890487196896578 18 22 33
2.207436335219286 4.095346262500922 -0.1677347247293307 18 22 31
2.2201397137700147 4.079212257605696 -0.16648766431547696 15 19 28
2.2303034286664665 4.075539592495473 -0.16531485883824198 15 19 28
2.240298016598878 4.072658206780348 -0.16414772945220382 14 23 28
2.249337737322302 4.074599765433782 -0.16300590842254056 18 29 33
2.2452162444301385 4.144351542187696 -0.1621876317666506 30 41 47
2.2569126123655665 4.133163586133542 -0.16096992039851604 56 67 74
2.2678787192425665 4.125601744846615 -0.15977274637575398 93 103 113
2.280700730086704 4.10808362709257 -0.15853741905912458 125 139 147
2.312213544695558 4.091375497402418 -0.15500196517722137 156 172 188
2.3226190719122695 4.0861366268952874 -0.15382928662573372 156 175 191
2.332285703742005 4.0848923243502915 -0.15267121714357992 155 177 194
2.3417112448596344 4.084972395667964 -0.15151751625275087 161 186 206
2.3514436291345557 4.083319715185189 -0.15035914963957253 163 190 211
2.360563360963182 4.085129196781351 -0.14921005142640392 156 187 208
2.3710942479233825 4.078843182618615 -0.14804189661838313 152 184 205
2.3756546609514904 4.107174615523606 -0.14694742921948342 144 175 196
2.384459882340794 4.111126408146344 -0.1457961711077964 142 170 191
2.3976300268312145 4.089238939893291 -0.14460110535531032 143 171 192
2.4044798108463623 4.104817000176159 -0.14346851418280315 140 171 191
2.4281519504698554 4.1342028448967065 -0.14001783352574923 138 173 195
2.4395542845701117 4.1224445289730465 -0.13884687573480667 138 174 196
2.446744954380047 4.137069956990241 -0.13769067089646847 141 177 199
2.4585450855131303 4.122539259021048 -0.13652363450759983 139 175 199
2.4700053092012606 4.1098826528403185 -0.1353626266488498 139 177 200
2.4940505624771654 4.076265888242059 -0.13306050136736855 140 176 200
2.504779023532363 4.067533143551573 -0.13191457085192662 141 177 199
2.516071034643137 4.054783165465653 -0.13077589518000335 144 179 201
2.526437998668222 4.048065419150095 -0.12963596154344698 143 178 200
2.536864781772009 4.040772473089825 -0.12849961805012544 144 177 196
2.5761224407306766 4.027586182109014 -0.12395067655342465 115 137 151
2.5901761890717245 4.205977295098533 -0.11885147534808066 0 11 24
2.6005044774048747 4.2006697803508475 -0.11768953961682761 1 13 25
2.6108815967769816 4.194833860695055 -0.11653165025329831 10 20 32
2.6212797159904215 4.188669682244694 -0.11537741574559532 19 29 41
2.6312709231655464 4.185621962562466 -0.11421385235487849 23 31 42
2.64096674632724 4.184908279454725 -0.11304215703386958 20 26 38
2.650708492374539 4.183791398721256 -0.11187249036908803 17 23 35
2.6600263557808326 4.1862157937479685 -0.11068751724435962 18 25 35
2.743220051538402 4.21808322304683 -0.09991385315230979 32 33 38
2.7530267738827425 4.216665496393702 -0.09874194604830222 48 49 53
2.7621858686818817 4.221694490591893 -0.09752701275116675 71 72 74
2.7708756784170006 4.231688826083083 -0.09627533096666033 96 96 98
3.412793593167695 3.835737891346166 -0.025311879814962513 124 127 136
3.7478784109091747 4.354475373124326 0.025481329680813524 6 113 181
3.7576453038399418 4.352926538127937 0.026645882960244817 5 114 183
3.767266594712712 4.349560035023165 0.027758185294288484 4 113 182
3.7767740030525236 4.344896934389519 0.028831990578376723 4 111 179
3.786433272087643 4.3423196468287015 0.02996389434428221 7 106 171
3.796078060390523 4.339675392384439 0.03109275867301986 24 119 183
3.8054438313202796 4.333817864270746 0.03212661068913878 36 130 192
3.814936722185945 4.32967995617768 0.03320859596161431 41 135 197
3.834185293385763 4.3248352883437855 0.035469724754949535 9 111 177
3.8546166281566525 4.2286836319785825 0.03614478293030927 9 114 179
3.8638681883170105 4.224361738792399 0.03719378051495255 10 114 177
3.872040109118299 4.209141162259247 0.03790422642029698 9 113 176
3.884776167593089 4.240361888048157 0.04005285338171629 9 113 176
3.895716079444469 4.252762270184942 0.041625193580706106 7 115 179
3.9046387809381313 4.245134190808608 0.04257132514239728 9 117 181
3.9151735810248933 4.253177115130589 0.04401155207068113 21 124 190
3.9274762796612173 4.277598511390344 0.045978328940762384 14 117 183
3.9394540549988775 4.29823628119829 0.04783367134412777 8 111 177
3.952859199145534 4.33124229546177 0.050097926438146034 9 112 178
4.049623226235798 4.167581499993245 0.05882435114382713 2 105 172
4.060637138249894 4.1786057209283225 0.06037965310741389 2 103 171
4.069247937426532 4.171374071742466 0.06129517158554888 3 105 171
4.08303446545986 4.202548213327647 0.06357132554225009 2 104 170
4.093825107124158 4.211096350348032 0.06505240259219382 2 104 170
4.10231242504028 4.2028447898596735 0.0659334950369289 4 106 172
4.10892697186565 4.181471467019148 0.06633694623713376 7 109 175
4.115371526119364 4.159419296867426 0.06670675043646132 5 107 173
4.137926601303835 4.183216153826194 0.0699149456628943 3 104 172
4.143404906562338 4.155360989081937 0.0700566438609125 2 103 171
4.255447209393598 4.2567329702873975 0.08567418136027535 2 103 173
4.261291370853518 4.175927542687458 0.08485697136189896 10 104 168
4.268384237075408 4.161327915451372 0.08544728266301878 28 112 178
4.274161973334869 4.139348670948497 0.08573695692147314 41 121 190
4.279740073304515 4.116652229413357 0.08598863362619243 18 106 177
4.285363279122386 4.09465948099311 0.08625916204442996 4 97 167
4.295771514683663 4.0472429924626825 0.08663272803459156 5 102 170
-0.8461299728868138 6.170608591916128 -0.5148663057267953 102 20 34
-0.8297881750258618 6.1646247529962315 -0.5129715861702133 107 19 33
-0.8239825282062597 6.177873722121695 -0.51203376070851 107 19 33
-0.8057651494721124 6.168433049450562 -0.5099692710829622 106 24 38
-0.7962562890755116 6.174961279593245 -0.5086944454620227 115 48 61
-0.7899240665187193 6.187396335306246 -0.5077062602920236 130 88 97
-0.7838701097240959 6.20042590712475 -0.506741856865804 135 117 123
-0.7761138070172028 6.2103751199673605 -0.5056223792940083 133 126 134
-0.7663051553708597 6.216561782947662 -0.5043167856005228 130 129 139
-0.7572061205391251 6.224115180434798 -0.5030744102427118 114 119 129
-0.7475224860702434 6.230620188532412 -0.5017786187692113 67 73 84
-0.7395466833067075 6.240381918691592 -0.5006355357088251 22 27 34
-0.7346473655055875 6.256016924645108 -0.49976742729235957 8 9 11
-0.7504029714301546 6.31088875684776 -0.5007488061540145 5 6 5
-0.7626760911432067 6.359499791657292 -0.5014122495903809 5 7 5
-0.7544154884148014 6.369268841173984 -0.5002342244951354 12 13 13
-0.7812203492226413 6.4461979421925575 -0.5021865956610595 31 31 34
-0.766422595564027 6.443767824964623 -0.5004194486455318 56 55 62
-0.734582190036624 6.408494538994468 -0.49713432833267046 68 70 81
-0.7030269270063506 6.3735370646890965 -0.49387862874181326 58 68 81
-0.6716439706154699 6.338679781041008 -0.4906422682361483 36 54 72
-0.6407569653870399 6.304553356535519 -0.4874539535719668 21 45 67
-0.6100344162216335 6.270518071032129 -0.48428417411922475 19 46 71
-0.5942065118311908 6.265426109792302 -0.48243692162621554 19 49 76
-0.5674023147358439 6.238727834656084 -0.47961983238968986 18 48 78
-0.5425122903291341 6.2156224753356195 -0.47697488810921757 20 52 81
-0.5239031354974325 6.204787066296218 -0.4748865174053545 19 54 84
-0.49811396036471084 6.179621642679872 -0.4721671214990176 20 54 84
-0.5504704579334785 6.309969659649284 -0.4763234237915685 21 55 86
-0.5410423713836872 6.317700240514817 -0.4750377722778545 23 58 91
-0.5445809562209235 6.351495425004323 -0.47488851972585916 27 62 96
-0.5219903744105298 6.332926983047226 -0.4724465661935182 29 65 97
-0.5123431803389654 6.340374478418489 -0.47113900312369617 30 65 95
-0.4992314172417605 6.340850789296383 -0.46952792533808063 30 64 92
-0.5009502658938391 6.3714977154667505 -0.469210416988229 28 63 91
-0.4868670477368537 6.370103055195774 -0.4675127930457024 26 57 84
-0.4725132792471739 6.368143963282208 -0.4657918126003935 15 40 62
-0.465115915018673 6.380471299173413 -0.46467527131670455 2 20 36
-0.4662793106922389 6.410547251270512 -0.4642996905282745 0 10 19
-0.4700967123975576 6.4463322505172505 -0.46415026492663536 1 7 13
-0.504578747681246 6.546088869180015 -0.4666481397464064 3 7 13
-0.5162569405047024 6.599009050828182 -0.467164666545412 5 8 13
-0.531391256614658 6.659543368404778 -0.4679726062157085 13 14 18
-0.5575021299087203 6.743570212252973 -0.46971794097874814 30 31 35
-0.5421813594614426 6.7408687051070775 -0.46789152896886593 52 53 57
-0.5222599691421292 6.728413644812672 -0.4656706257777136 60 61 65
-0.5115749866047035 6.735479894525552 -0.46424275960784295 44 45 49
-0.49936410623709404 6.7393455988797895 -0.46268345877985406 32 33 37
-0.4870013780454896 6.742914572532851 -0.4611107036336359 39 37 43
-0.4735571482228298 6.74418757638512 -0.45944526642740163 51 48 55
-0.44358950863528557 6.709862557307617 -0.45637276081656336 52 55 62
-0.4219295965959607 6.693250807934386 -0.4540108917270993 53 57 63
-0.4159137065214554 6.710478562559486 -0.45297886382339014 54 56 64
-0.3753300088940534 6.652504744071615 -0.4490157236368126 58 58 65
-0.3497661420273567 6.626948392808606 -0.4463306014605462 86 79 91
-0.3284458829420859 6.6105160117171105 -0.44400716592622025 132 121 135
-0.3157759708195887 6.6130240472097315 -0.442415124025856 154 147 159
-0.30396680062915715 6.617455108210558 -0.44089519770957686 159 156 167
-0.2955287321552257 6.629406467829977 -0.4396579061593029 151 150 158
-0.28270180935383304 6.6316646372886865 -0.4380509719500151 118 109 117
-0.2743832397526097 6.644029486722307 -0.43682116996293724 90 65 70
-0.27151746854914427 6.668740157058406 -0.43604540587637297 109 80 82
-0.2610513146807333 6.676500578883836 -0.43463233969926945 125 103 105
-0.24887177498029778 6.680441686625873 -0.43307557199988583 125 105 107
-0.23530085311486273 6.681250559897397 -0.4314026377419307 116 85 91
-0.22423797681375615 6.687788645037211 -0.4299376682346479 107 72 81
-0.2122354767625233 6.692225236391951 -0.42839401265534055 146 114 126
-0.2026536665079523 6.702264228919704 -0.4270498260585209 169 147 158
-0.18903752100165389 6.703066585608525 -0.4253714755262398 170 159 172
-0.1790213179504268 6.712221040026815 -0.4239894142452558 144 142 153
-0.16639270127947475 6.715367531857085 -0.42239142861552786 86 91 100
-0.1496920365528478 6.7090222787696785 -0.42045906084906487 60 67 77
-0.12886658200499893 6.692946482230281 -0.4181899746843627 74 77 91
-0.10624442879576038 6.672506767595858 -0.41577637840765086 94 94 110
-0.10612706659277635 6.7051378545006495 -0.4152002379639124 114 113 127
-0.0962864448039672 6.714939804238528 -0.41382849340904876 132 131 144
-0.09234385944911695 6.738888887246059 -0.41293420359235444 139 140 154
-0.07998835257144657 6.742887082654788 -0.41135494153411156 133 138 152
-0.09427339003063048 6.810982933964664 -0.41192887602450107 110 122 135
0.7501305252527273 5.0755899396140265 -0.33858019415661195 120 116 117
0.6449369005318846 5.370021324627037 -0.3463707495991105 121 116 116
1.0901709439900633 4.29301775621908 -0.31048433481587234 123 118 118
1.1035551181585592 4.2838589925213135 -0.30900583781630353 132 130 131
1.1198240008498217 4.267189514726965 -0.30730400128382207 137 137 136
1.1353208588802561 4.252368359731042 -0.3056647210097991 97 98 96
1.1372149244594163 4.272759816880454 -0.3050821070434792 52 54 50
1.1473485367466172 4.271828313115977 -0.30385933774070106 81 82 79
1.1576293698697926 4.270502069373901 -0.30262536713348026 135 136 135
1.1686545238468014 4.267203113644614 -0.30133436852980683 133 136 136
1.1794856377132799 4.26438714738395 -0.3000587754118493 118 125 126
1.1889110204381401 4.265281269689881 -0.29889115434855346 127 138 139
1.198580501325403 4.265531508626991 -0.2977047783693008 135 146 149
1.2082507122464305 4.265781750397274 -0.2965183130966286 96 107 111
1.2360325350933223 4.217226600909573 -0.29395801073252154 35 46 49
1.2285797507146112 4.263611624621291 -0.29407050541316276 9 20 22
1.2380043405090653 4.264523430088136 -0.2929026768412444 9 18 20
1.2474319341053692 4.265435247212369 -0.2917344808620199 10 18 20
1.257987477457195 4.263258262115802 -0.29048157446831036 11 18 20
1.267560245742708 4.263771507270094 -0.28930249329403185 13 18 21
1.2789601793687115 4.259224497187654 -0.2879871660301736 15 21 26
1.2896804163297697 4.256526646223736 -0.2867230937798807 27 34 41
1.300891172092421 4.252429662035532 -0.28542314512275074 41 49 57
1.3120829648233874 4.248345988434367 -0.28412528548289584 45 55 63
1.3232585661870508 4.244267988073734 -0.28282930752028923 40 50 59
1.33317371187882 4.243729035765028 -0.28162648680096863 30 40 49
1.3506302957207847 4.221664128571285 -0.27987234746417333 20 29 37
1.3575860797018395 4.229494100200678 -0.27888721705390385 14 23 30
1.3673613608991029 4.22927582542085 -0.27769597344272273 11 20 26
1.3736783056995785 4.23907127029593 -0.27675510080705884 11 17 23
1.3859236389039333 4.231708259138594 -0.27538490743741956 13 17 23
1.3714882806816853 4.30232309900303 -0.27593385005608384 15 17 24
1.4141982904086654 4.205631840953757 -0.27237735294605275 17 17 25
1.411063203541148 4.243437153352796 -0.27210973348205414 17 16 24
1.4292004645371983 4.218443752310247 -0.2703228016401118 16 15 23
1.4374714376675926 4.222649325149365 -0.26923929240911787 15 15 23
1.4514193278611531 4.209861812266739 -0.2677543570330123 15 16 24
1.4892576383185199 4.124875233629961 -0.2645918982504759 14 17 23
1.4986869017576943 4.125145094589344 -0.26343455037829183 13 16 23
1.5083121126798213 4.124820119976053 -0.26226348944818284 14 16 23
1.5155191788455844 4.13190107470073 -0.2612605359266952 14 18 22
1.5230185632134503 4.138156212740048 -0.2602360649761913 14 19 23
1.5538189707568761 4.161323303735351 -0.25607194261275484 15 20 24
1.558921375249696 4.175491618080937 -0.25520425870230756 16 20 25
1.5627329324050645 4.193921608265326 -0.2544210062095206 14 16 23
1.5644933103157275 4.219116033277764 -0.2537720448823249 13 13 21
1.6022290696328187 4.128861903719851 -0.25071281150853264 20 20 28
1.7229433074226743 4.2064806198920115 -0.23461950132813894 148 160 169
1.7362368374696746 4.193639898835347 -0.23321547575896978 150 160 169
1.748950654943889 4.182700349618464 -0.23184958694281782 143 153 162
1.7604221587574609 4.176064251153691 -0.2305614772163808 139 148 157
1.7663093625935022 4.189419654221042 -0.22961184921086367 117 127 135
1.7768858047458622 4.1859793792163575 -0.228378137431207 88 98 104
1.7975303258424804 4.145850552583872 -0.22654527897423962 56 64 71
1.8076597644529548 4.143728796592968 -0.22534351187413912 27 35 42
1.81841748828226 4.139263901312269 -0.22410527928145815 14 20 26
1.82955623294527 4.133328224899908 -0.22284578963717802 14 19 25
1.8410033132733556 4.126164790550225 -0.22156974449571282 16 21 27
1.8535962751971928 4.114602885932795 -0.22022934472604933 15 20 26
1.8656289079974626 4.105009149281165 -0.21892355869639268 15 20 26
1.8809423081807704 4.082801126838485 -0.21743388167712002 12 19 25
1.8921241252522576 4.076130443684291 -0.21618178079445804 12 20 23
1.9290553682662115 4.042342960374913 -0.21224873911757056 8 19 23
1.940446806522821 4.034391077470034 -0.21099307039560258 8 19 23
1.9522069748081858 4.02486941840186 -0.2097193514878564 11 17 23
1.9639260482042826 4.015380582293621 -0.2084500912219376 15 20 24
1.9494378089937918 4.188323010980948 -0.20724377506972896 12 17 23
2.017316735285162 4.1451476058002 -0.19968909047613376 12 15 24
2.032795562669586 4.160737150371121 -0.1975284484730959 16 19 28
2.040986498947975 4.166743062846349 -0.1964237279752843 17 20 29
2.050605253548779 4.166585365429922 -0.19525057638439194 14 17 26
2.0594570102768075 4.169809454971157 -0.1941129656491751 11 14 24
2.0677912917373633 4.175383327925737 -0.19299815980278526 14 16 29
2.0885234243657047 4.125488213775799 -0.1913227324010817 14 16 29
2.094554292996046 4.14120504818251 -0.19031488617343076 17 19 32
2.105449780108037 4.135027990479383 -0.18908928984508008 14 18 30
2.1162445814611126 4.129214782932371 -0.1878697378492969 10 16 28
2.127669365192462 4.120395925759923 -0.18662491899955755 17 24 34
2.136873293506026 4.1217853593103 -0.18547584260778424 22 29 39
2.147042361927259 4.118662333631682 -0.18428646923454536 17 24 34
2.156989415904728 4.116539391821889 -0.18310701857543976 18 25 35
2.1747282563128616 4.077173659026528 -0.18161623387184125 26 33 43
2.184708013737151 4.074513564899277 -0.18044203319025423 40 47 57
2.193840802574573 4.0759204086042296 -0.17930135366396233 30 37 47
2.204152527757597 4.0715785421374795 -0.17811552506672185 21 25 36
2.2077339429495257 4.1003918510131525 -0.17718164235671155 17 21 32
2.219099249944183 4.090937492463582 -0.17595503548818092 17 19 31
2.2300516571359124 4.083393079243182 -0.17474602191643224 20 25 33
2.240159780697654 4.079994007330692 -0.17356885143756046 16 23 29
2.2494314263285298 4.080809617952486 -0.17242137601258628 15 24 29
2.248548893447586 4.133994447236101 -0.1716136064383815 14 23 28
2.2599880635012384 4.1240303424714195 -0.17038674605945953 10 19 24
2.271753326096124 4.1121741197338215 -0.16915259741065353 4 13 18
2.2834461791507428 4.100484918236713 -0.16792442510937608 5 13 20
2.2947505340686347 4.09065700011205 -0.16671170085632003 27 37 44
2.303705768802533 4.09331983367493 -0.16557110308204026 55 66 75
2.313288600903567 4.0926142014705205 -0.1644117764404353 92 102 114
2.3223241302265407 4.094903067606467 -0.1632678012826736 115 129 142
2.3322977052948586 4.092029280608772 -0.1620980354214181 136 153 169
2.3422607731073137 4.0891583208723254 -0.16092950536806028 146 165 183
2.3519270273384967 4.087909997106216 -0.1597693238493006 151 173 194
2.3624903254148046 4.081511767256915 -0.15858814453818992 158 185 206
2.3725565286809798 4.077853931174301 -0.1574205537157708 161 189 211
2.381097445053147 4.083010350421052 -0.15628767440680927 164 192 213
2.393366086712028 4.066328216219208 -0.1550750743598571 166 194 215
2.3992871376560223 4.0870493518355335 -0.1539944964745947 163 192 210
2.405615887327719 4.105748190425185 -0.1528988954132848 154 185 203
2.4133973573622116 4.116017765252113 -0.1517708256908004 150 181 199
2.4381042618413287 4.0226762974061 -0.15035748755690878 146 179 198
2.4309515231967875 4.124865913062896 -0.14947254249002798 140 175 194
2.44207516792091 4.114727067446263 -0.14828726265103398 137 172 192
2.4530409451109194 4.105366759657855 -0.14710787798919675 137 174 193
2.458930510773484 4.128309547004266 -0.14599290001837165 142 178 200
2.4708380621638297 4.112791869155855 -0.1448043944073599 139 177 198
2.4817511913098165 4.103436137111202 -0.14363136704740334 140 178 201
2.4935343609156484 4.088104399062852 -0.14245486553797232 141 179 202
2.5051985778533177 4.07321578934757 -0.1412852765480429 139 177 200
2.5166025353101147 4.059743458683698 -0.14012312019804804 136 173 199
2.526982203392748 4.052976451232126 -0.1389707382152438 138 175 201
2.5075011369778766 4.253244339620497 -0.1379043327269943 143 181 204
2.5480857561544674 4.036532712988277 -0.13667398997003607 145 180 199
2.624837815349112 4.248016690382934 -0.12365024476910356 9 21 37
2.635060054509697 4.243847036955745 -0.1224723906882638 11 20 35
2.6448429877679835 4.243215794310795 -0.12128732149627805 15 24 39
2.6542409730360474 4.245817727291051 -0.12009364716849533 16 26 38
2.663424188693442 4.2503365886032025 -0.11889322503746777 16 24 37
3.3941451466285804 3.710366003286292 -0.03886098099461209 129 128 126
3.4110532428325486 3.6724348898377195 -0.03744705338101265 128 128 130
3.4203729289744933 3.7042235920107114 -0.03576045678400065 128 127 132
3.7715566193063736 4.390414365525665 0.01898460031768019 5 112 182
3.7790141898841862 4.358954633387126 0.019354641438112094 9 114 180
3.786304858654671 4.32676577171263 0.019691726205064233 20 119 184
3.800919221284749 4.266720348871298 0.02044452003470024 38 132 194
3.8263304342199205 4.3346428220635715 0.024720359225000117 8 110 174
3.8359521553049096 4.332119482301467 0.025853145369942286 6 111 177
3.862662253757876 4.200479308733186 0.026851998704028286 10 111 179
3.8717532254938325 4.195111682921545 0.027870933522823434 10 112 178
3.8879487983513816 4.261263227974545 0.030989696586985516 8 111 177
3.8968960165910427 4.25363216179895 0.031952089402075376 6 114 178
3.9067441348404417 4.255000673056238 0.033179556052711084 6 116 179
3.9175029513530326 4.265020333079437 0.03466729562523872 11 116 181
3.9281748517529094 4.27390200047104 0.036124817684846 16 119 185
3.9409806632731463 4.302230559090264 0.0381780120530205 17 120 186
3.949841199866447 4.293772683383695 0.039115573503117056 12 115 181
3.959881334838078 4.296145753352743 0.04038380866474036 7 111 174
4.04762525638975 4.144215414148627 0.048494555159220916 2 105 172
4.06105834405761 4.173841326588518 0.05064676822745048 2 104 170
4.068954852189803 4.161356807429027 0.05139715509757349 2 104 170
4.085029917595713 4.209502338326806 0.05419118584133591 3 105 171
4.0937254198176705 4.202704894511679 0.05513715912045916 3 105 171
4.107653043616074 4.1650016954393765 0.05619065597744037 6 108 174
4.113787337548363 4.141009024454054 0.05652748681413597 5 107 173
4.121715431997952 4.130029870148282 0.05730765214546633 2 104 170
4.142336381748351 4.141120775815219 0.060019453788261914 3 104 172
4.171899528518929 4.086223179920995 0.06268832340420019 3 104 172
4.22121654620211 4.099946935474148 0.06895346977506994 1 102 172
4.252056936759064 4.229857321147594 0.0749602262979239 2 103 173
4.264604208528565 4.189565140304265 0.07580040565897082 6 104 169
4.270951716620171 4.170464736649993 0.07624752908613275 20 108 175
4.277137966740743 4.150806829673797 0.07666534090682785 34 118 185
4.283558748509748 4.1328916883437925 0.07714182791514339 24 110 181
4.288785419191269 4.108505441730815 0.07736092828165407 9 100 171
4.294420509531224 4.086903733622583 0.07767789685851013 9 102 172
-0.849403265356816 6.180605895006056 -0.5283046644286887 105 13 26
-0.8339502844359132 6.176268013671491 -0.5264826228271449 109 13 25
-0.8265044418816866 6.1865555379869495 -0.5254130947118374 109 16 27
-0.8098314592566667 6.179968725006063 -0.5234767149353589 106 17 30
-0.795676229949482 6.177976523699514 -0.5217770191484205 114 39 52
-0.7892809133216088 6.190307585151722 -0.5208042894806205 130 82 91
-0.7830202095346356 6.202966564740439 -0.5198429408231517 136 115 121
-0.7752114997609952 6.212828094309502 -0.5187356448412612 133 126 132
-0.766666963288805 6.221380151560279 -0.5175586608314654 130 130 139
-0.7575639169124582 6.228941883471139 -0.5163287263057598 114 119 129
-0.7479976854869352 6.235682638287397 -0.515054873714807 66 72 82
-0.739894114028279 6.245221652420179 -0.5139165220267257 22 26 32
-0.7500174735085796 6.289263676605229 -0.5144724027040368 9 9 11
-0.7489853186122413 6.312444971914241 -0.5139873868497982 5 6 5
-0.7570524562057291 6.353084357556728 -0.514344556673708 5 7 4
-0.7524670816273 6.36984688405806 -0.5135245036204383 11 12 11
-0.7603104492110653 6.436385177670853 -0.5134534190885787 55 55 61
-0.7335982854137897 6.410946973922799 -0.5105815158102867 68 70 80
-0.696853154669092 6.365938801942498 -0.5067859718371276 59 68 81
-0.6631949082277846 6.326618312829798 -0.5032797704030464 38 55 73
-0.6287577872653665 6.2855176102464405 -0.4997059049261468 23 45 66
-0.595744913465268 6.246921775299222 -0.49626738573696844 20 45 70
-0.5802097454940945 6.24231696653414 -0.49443942829399234 21 48 76
-0.5757276103933852 6.2594151821986745 -0.4936268004409859 20 48 77
-0.4888019393387192 6.113962214988379 -0.4852513010572709 20 51 79
-0.4795956255246809 6.1213857046395574 -0.48401088156860994 18 52 81
-0.46968399455341503 6.127458488739669 -0.48270514222872507 19 53 81
-0.5726486718750388 6.358579843995881 -0.4917153859541884 23 54 83
-0.5458491229083471 6.3317306889700795 -0.48885464005859547 25 57 87
-0.5297429368254277 6.326159029298836 -0.48697183955267176 25 61 91
-0.5111323375876761 6.315504109027956 -0.48486154990053126 27 62 92
-0.49662486838464237 6.313067704714209 -0.4831256673316161 29 61 90
-0.4876859532873841 6.321908140144274 -0.4818960050496146 30 62 90
-0.47362375981801286 6.320382661357471 -0.4802004587192203 31 62 89
-0.4656669041634014 6.331316141813236 -0.4790584582330971 30 57 82
-0.45804628591180696 6.343015634820698 -0.4779457067658286 15 37 58
-0.45540156352775085 6.365032849919004 -0.47728156722449955 4 20 36
-0.4602865856384451 6.402749655484026 -0.4772949501943177 3 12 20
-0.46742938944848084 6.4454125138466285 -0.4775077945069061 5 10 16
-0.5065615950650496 6.5548880791601 -0.4805972563540789 7 12 18
-0.5184602050466316 6.6083265576676435 -0.48122471779000736 8 11 16
-0.5296739427138414 6.660715919385882 -0.48178469044900446 13 14 19
-0.5406019466836011 6.7128836049980745 -0.4823131624104003 31 30 35
-0.5340777155039008 6.7286186140489646 -0.4812719816144412 53 54 58
-0.5154940989479003 6.718938871051488 -0.47914989561928567 61 62 66
-0.5100089773772513 6.737018173491342 -0.47819946207683584 42 46 49
-0.49773728318028354 6.740757527614773 -0.47664131543264965 32 33 37
-0.4865703980032543 6.7468887280964704 -0.47518121197140695 40 37 44
-0.4645026463300104 6.729646860320887 -0.47275023301995484 51 50 56
-0.43241323691227185 6.69066736839295 -0.4694305498161779 53 56 62
-0.4242772547720335 6.703238965985015 -0.46824129345182536 56 61 67
-0.4153104717695302 6.714099395060781 -0.46697695607142314 56 59 67
-0.38428757311039724 6.676946808263129 -0.46375937884207374 60 59 69
-0.35354738387975543 6.640132560683603 -0.46057112671524164 88 80 93
-0.32850515156938603 6.615557980656115 -0.4578900109668367 132 124 137
-0.31376503881143225 6.6135164166347575 -0.45611957492706245 154 148 160
-0.3044323559223726 6.623429756180115 -0.4548251651190032 160 156 167
-0.29650036121584206 6.636531230263461 -0.4536526449092919 151 149 159
-0.28250673806140575 6.636210723548221 -0.45194682942331 116 107 116
-0.2742996799008912 6.648845703459325 -0.4507479026141963 89 65 74
-0.2717028409774586 6.674190165399171 -0.4500381134886371 108 81 87
-0.2610108695808869 6.6814621325808545 -0.44861841185049356 122 102 108
-0.24916117683209774 6.686167481687669 -0.44709690363189314 121 104 109
-0.23662485927133825 6.689347553717223 -0.445515063025567 115 86 95
-0.22408532084077876 6.692544849105225 -0.4439325620490184 108 73 84
-0.21305772051918276 6.699232949627777 -0.44248086628572536 147 115 129
-0.20242289706909333 6.706877596962582 -0.4410623823772751 172 147 162
-0.18898175141701692 6.708098186474917 -0.4394002543611336 171 159 173
-0.17904437484351116 6.7174564321741554 -0.4380405107952278 143 141 152
-0.1667885813424651 6.721489265344711 -0.43647976521799037 87 90 99
-0.14915306547103138 6.7129733127958815 -0.43445557365607057 62 66 75
-0.12890729041298157 6.698259151166831 -0.4322082114929358 75 78 90
-0.10651767773002435 6.678370928739546 -0.4297788475179931 95 95 110
-0.10397766210611925 6.705307174579792 -0.42905136553157397 115 114 128
-0.09829891204419487 6.72500313686315 -0.428052235326752 131 132 144
-0.09168748148723314 6.742634547251562 -0.426971039046614 138 140 154
-0.07892652887194657 6.74567397955787 -0.4253639129091467 131 135 150
-0.09372352958038845 6.8150528072531475 -0.4260989684486584 106 116 129
0.6478422323644607 5.367289608387845 -0.3578499662244529 122 116 116
1.0834415738072358 4.289080487743713 -0.3212861424165523 122 116 116
1.0962994120919733 4.281279367422643 -0.3198349760362309 124 119 120
1.108640257902747 4.2747355018745585 -0.31842755261197647 135 133 133
1.123763765909999 4.260961922881943 -0.31679184861478477 129 132 130
1.1391887084995527 4.246284987482385 -0.3151332763734997 76 81 77
1.1388441178113489 4.272480489343602 -0.31476991532624743 53 55 52
1.167366522877832 4.223513461723252 -0.3120409130458396 103 102 100
1.1599435137026046 4.26841360042579 -0.31225338200540115 147 147 146
1.170572554373926 4.266142858421111 -0.3109890885830972 151 153 154
1.1812012343448977 4.263852035681515 -0.3097251500940516 147 151 153
1.1911238892017235 4.263417723757895 -0.3085187884835393 146 153 155
1.2007888929960728 4.263667499711977 -0.3073333365341989 130 138 142
1.2104544473377807 4.263917755882072 -0.3061478098448106 78 87 92
1.2384049996631932 4.214860064280926 -0.3034901222790736 24 33 37
1.2491703351773993 4.211904763429904 -0.30221976277181445 8 18 20
1.239987258165613 4.263221068354951 -0.30254808919147913 10 18 20
1.2500591088351272 4.262361366690563 -0.3013300725381658 9 17 19
1.2600854816426847 4.261618139907417 -0.3001158127840348 9 16 19
1.2705357748098232 4.259697136410732 -0.2988679582475716 11 16 21
1.2808191080387203 4.25822057689069 -0.29763363554302663 12 17 24
1.2914685807544128 4.255708962159245 -0.2963705727679553 19 22 32
1.3029212107937553 4.2509233721684945 -0.29504452037819695 27 30 41
1.3137394258755533 4.247876485290498 -0.29376911382084775 31 37 47
1.3230777750314853 4.24898458031133 -0.29261031051644976 33 41 50
1.3335812051071099 4.246792233929419 -0.29136015998347864 31 40 49
1.3516645485000744 4.22293167038584 -0.2895187439018608 25 34 42
1.3584511312807321 4.2312550763886225 -0.28856021616796945 18 26 34
1.3686091393247217 4.229937230939336 -0.2873387581849092 14 21 28
1.3753128885399095 4.238617918871476 -0.2863848267050256 12 16 22
1.3816644458874718 4.248411165007926 -0.2854567304492359 13 15 21
1.375097292792461 4.296124297857037 -0.28552102431462595 15 16 21
1.3887956446947296 4.284689211339495 -0.2840233531019753 16 15 21
1.395547821860108 4.293680360749606 -0.2830586953767838 15 14 20
1.5146333636929068 4.109909836962318 -0.271344652293223 16 21 28
1.5408577031619333 4.087580602727828 -0.2684842627565631 12 16 25
1.5452233350198814 4.1033454808713445 -0.2677065170562452 9 14 22
1.5528150679649018 4.138953612913001 -0.2662272073783128 12 19 27
1.5571263668988515 4.155422969242723 -0.2654451992508113 12 19 26
1.561371239442635 4.172281702496299 -0.2646652847253477 13 20 25
1.5647093829501995 4.19221192359 -0.26394867691784785 16 20 24
1.5684302525198341 4.211135838607176 -0.26320085624712697 15 20 23
1.5721764093018264 4.2301874989625485 -0.2624479667015878 15 19 22
1.5764060434212306 4.2478856805160214 -0.26165692104308536 16 20 23
1.7402105684859956 4.184593085641339 -0.24261088557563656 143 159 168
1.752221393318395 4.176081598722 -0.2412742659908618 143 160 170
1.7637481075792845 4.169196093408938 -0.2399716617754303 139 159 169
1.7776749822369138 4.1535892166976245 -0.23851062922636654 141 161 171
1.7886384199440037 4.148516314805407 -0.23724882996059934 140 159 170
1.9533629273878987 4.025615569034743 -0.21901301679188545 15 20 26
1.9650797417322443 4.016125746789147 -0.21772748514069218 14 19 25
