ply
format ascii 1.0
element vertex 834
property float x
property float y
property float z
property float nx
property float ny
property float nz
property uchar diffuse_red
property uchar diffuse_green
property uchar diffuse_blue
property uchar class
property uchar detection
end_header
1.4687 4.1728 -0.8721 0.637 -0.386 -0.668 136 150 157 0 0
1.7995 3.4516 -0.7657 -0.343 -0.635 0.692 50 72 88 0 0
1.8333 3.4225 -0.7589 -0.722 -0.678 0.138 58 82 101 0 0
1.8790 3.3799 -0.7494 -0.590 -0.715 -0.375 65 93 116 0 0
1.8923 3.3630 -0.7463 -0.327 -0.747 0.578 76 106 129 0 0
1.9654 3.5718 -0.7563 0.803 -0.310 0.508 33 36 53 0 0
1.9966 3.6798 -0.7624 0.502 -0.766 -0.402 71 112 152 0 0
2.1429 4.0018 -0.7738 -0.228 -0.921 0.315 3 53 103 0 0
2.1611 4.0027 -0.7716 -0.394 -0.782 0.482 17 33 55 0 0
2.2423 4.0578 -0.7667 -0.759 -0.644 0.095 21 34 48 0 0
2.4805 3.9628 -0.7288 0.048 -0.952 -0.302 173 210 228 0 0
2.4892 3.9653 -0.7280 -0.163 -0.978 -0.133 172 209 225 0 0
2.5073 3.9668 -0.7259 0.218 -0.973 0.076 176 212 228 0 0
3.6605 3.8535 -0.5741 -0.915 -0.344 0.212 126 124 127 0 0
3.7029 3.8210 -0.5659 0.081 -0.987 0.142 172 175 189 0 0
4.1600 4.2720 -0.5510 -0.225 -0.156 -0.962 15 140 206 0 0
4.1701 4.2755 -0.5501 0.012 -0.266 -0.964 13 140 207 0 0
4.1796 4.2741 -0.5488 -0.294 -0.385 -0.875 14 141 208 0 0
4.2087 4.3376 -0.5510 0.250 -0.438 -0.864 13 140 207 0 0
4.1838 4.0560 -0.5284 0.943 -0.245 0.226 10 139 207 0 0
4.4889 3.4702 -0.4375 0.373 -0.560 -0.740 3 135 209 0 0
4.4997 3.4805 -0.4371 0.157 -0.634 -0.758 3 135 210 0 0
4.5077 3.4796 -0.4361 -0.294 -0.731 -0.616 4 136 210 0 0
4.5153 3.4768 -0.4349 -0.191 -0.800 -0.569 3 135 209 0 0
0.2196 5.5734 -1.1650 0.649 -0.059 -0.758 23 25 22 0 0
0.9242 4.2264 -0.9534 -0.030 -0.996 0.088 46 38 36 0 0
0.9423 4.2291 -0.9514 -0.078 -0.997 0.016 112 106 103 0 0
1.3597 4.1624 -0.8940 -0.473 -0.832 0.291 42 52 62 0 0
1.3900 4.1573 -0.8898 -0.428 -0.868 -0.252 41 50 58 0 0
1.4135 4.1439 -0.8857 -0.349 -0.891 -0.290 37 44 50 0 0
1.4252 4.1375 -0.8837 -0.410 -0.863 -0.297 47 54 59 0 0
1.4371 4.1303 -0.8815 -0.570 -0.802 -0.177 67 74 80 0 0
1.4497 4.1208 -0.8791 -0.570 -0.802 -0.177 90 98 105 0 0
1.6028 3.9664 -0.8460 0.671 -0.709 -0.217 117 137 144 0 0
1.6168 4.0089 -0.8482 0.342 -0.461 -0.819 67 88 96 0 0
1.6246 4.0138 -0.8477 0.342 -0.461 -0.819 56 77 88 0 0
1.6306 4.0241 -0.8479 0.519 -0.570 -0.638 53 73 86 0 0
1.8848 3.3919 -0.7580 -0.688 -0.707 -0.162 63 90 112 0 0
1.9730 3.5795 -0.7646 0.932 -0.315 0.181 33 34 49 0 0
1.9777 3.5935 -0.7653 0.918 -0.321 0.233 34 39 54 0 0
1.9816 3.6107 -0.7665 0.910 -0.273 0.312 34 43 61 0 0
2.1626 4.0015 -0.7806 -0.327 -0.663 0.673 16 33 53 0 0
2.1837 3.9890 -0.7768 -0.760 -0.632 0.153 15 34 46 0 0
2.2027 3.9861 -0.7742 -0.546 -0.762 0.349 19 32 48 0 0
2.2446 4.1001 -0.7797 -0.926 -0.342 0.157 23 36 52 0 0
2.4871 3.9869 -0.7394 -0.488 -0.837 0.248 172 209 225 0 0
2.5162 3.9767 -0.7349 0.131 -0.991 -0.004 179 215 231 0 0
3.4387 3.8783 -0.6126 -0.159 -0.873 0.461 173 218 239 0 0
3.6322 3.8110 -0.5826 -0.534 -0.452 0.715 127 125 126 0 0
3.7038 3.8194 -0.5746 0.080 -0.966 0.244 162 170 188 0 0
4.1779 4.3207 -0.5630 -0.090 -0.289 -0.953 15 140 206 0 0
4.1865 4.3128 -0.5612 -0.301 -0.288 -0.909 13 140 207 0 0
4.1989 4.3307 -0.5613 0.026 -0.367 -0.930 14 141 208 0 0
4.2119 4.3520 -0.5617 0.374 -0.390 -0.842 13 140 207 0 0
4.2248 4.1893 -0.5450 0.766 -0.523 0.373 11 140 208 0 0
4.5030 3.4909 -0.4460 0.170 -0.644 -0.746 4 136 210 0 0
4.5117 3.4924 -0.4451 0.136 -0.680 -0.720 4 136 210 0 0
4.5170 3.4802 -0.4433 -0.367 -0.751 -0.549 3 135 209 0 0
4.5294 3.4971 -0.4433 0.139 -0.592 -0.794 3 135 210 0 0
0.1132 5.3992 -1.1734 0.419 -0.088 -0.904 15 21 26 0 0
0.1138 5.4980 -1.1827 0.467 -0.087 -0.880 18 21 24 0 0
0.0899 5.5749 -1.1929 0.452 -0.130 -0.882 19 21 24 0 0
0.0937 5.5927 -1.1941 0.403 -0.163 -0.901 19 21 24 0 0
0.1298 5.5400 -1.1847 0.033 -0.835 0.549 20 22 24 0 0
0.1472 5.5538 -1.1839 -0.076 -0.357 0.931 27 24 25 0 0
0.1848 5.7108 -1.1941 -0.162 -0.361 0.918 24 18 18 0 0
0.9261 4.2256 -0.9627 0.019 -0.999 0.039 59 47 47 0 0
0.9349 4.2274 -0.9618 0.357 -0.934 -0.033 96 86 85 0 0
0.9431 4.2307 -0.9611 0.400 -0.911 -0.099 117 110 108 0 0
1.3511 4.1639 -0.9047 -0.439 -0.897 0.056 20 31 41 0 0
1.3629 4.1576 -0.9027 -0.473 -0.832 0.291 21 33 44 0 0
1.3744 4.1517 -0.9007 -0.473 -0.832 0.291 28 42 54 0 0
1.3859 4.1458 -0.8987 -0.473 -0.832 0.291 36 50 62 0 0
1.3905 4.1598 -0.8995 -0.428 -0.868 -0.252 42 55 64 0 0
1.4022 4.1535 -0.8974 -0.446 -0.832 -0.330 43 55 63 0 0
1.4139 4.1469 -0.8954 -0.349 -0.891 -0.290 43 53 61 0 0
1.4255 4.1407 -0.8934 -0.410 -0.863 -0.297 42 51 60 0 0
1.4380 4.1318 -0.8910 -0.570 -0.802 -0.177 41 50 59 0 0
1.4507 4.1222 -0.8885 -0.570 -0.802 -0.177 41 50 59 0 0
1.6373 4.0366 -0.8575 0.538 -0.563 -0.627 86 106 115 0 0
1.6434 4.0471 -0.8578 0.473 -0.561 -0.679 71 92 103 0 0
1.9051 3.3553 -0.7602 0.181 -0.847 0.500 62 89 107 0 0
1.9144 3.3513 -0.7587 0.590 -0.649 0.480 63 90 109 0 0
1.9363 3.3596 -0.7568 0.060 -0.879 0.473 34 60 78 0 0
1.9748 3.5772 -0.7727 0.867 -0.456 0.200 35 35 47 0 0
1.9787 3.5945 -0.7738 0.854 -0.476 0.211 33 36 49 0 0
1.9838 3.6074 -0.7744 0.901 -0.363 0.239 30 37 52 0 0
1.9855 3.6330 -0.7767 0.445 -0.360 0.820 30 39 56 0 0
2.0434 3.7453 -0.7802 -0.226 -0.885 0.407 4 78 140 0 0
2.0528 3.7429 -0.7788 -0.592 -0.657 0.468 2 87 153 0 0
2.0626 3.7746 -0.7806 0.528 -0.484 0.697 10 117 181 0 0
2.1396 4.0288 -0.7952 -0.375 -0.927 0.021 2 41 83 0 0
2.1971 4.0190 -0.7872 -0.371 -0.927 0.060 18 33 48 0 0
2.2053 4.0243 -0.7867 0.120 -0.935 -0.333 19 32 48 0 0
2.2092 4.0504 -0.7887 -0.724 -0.656 -0.215 19 32 48 0 0
2.2211 4.0375 -0.7860 -0.680 -0.704 -0.206 18 34 47 0 0
2.2463 4.0505 -0.7841 -0.759 -0.644 0.095 22 36 49 0 0
2.4434 3.9808 -0.7534 0.007 -0.998 0.064 172 207 226 0 0
2.4882 3.9876 -0.7485 -0.338 -0.941 0.020 174 210 226 0 0
2.5176 3.9757 -0.7438 0.258 -0.958 0.128 180 216 232 0 0
3.4307 3.8777 -0.6225 -0.704 -0.668 0.242 173 218 237 0 0
3.6341 3.8243 -0.5925 -0.646 -0.388 0.657 126 124 125 0 0
3.6781 3.8188 -0.5866 -0.112 -0.939 0.326 168 164 165 0 0
3.6867 3.8145 -0.5851 0.194 -0.972 0.134 182 177 180 0 0
3.7047 3.8187 -0.5833 0.081 -0.987 0.142 152 166 191 0 0
3.7360 3.7658 -0.5745 -0.906 -0.294 0.305 19 138 206 0 0
3.8904 4.0690 -0.5842 0.660 -0.213 -0.721 15 142 209 0 0
4.1893 4.3244 -0.5717 -0.275 -0.191 -0.942 16 141 208 0 0
4.2031 4.3511 -0.5725 -0.082 -0.248 -0.965 17 142 209 0 0
4.5036 3.4900 -0.4542 -0.489 -0.834 -0.256 5 137 211 0 0
4.5109 3.4857 -0.4529 -0.361 -0.890 -0.278 5 137 211 0 0
-0.0168 5.4799 -1.2088 -0.597 -0.424 0.681 15 22 32 0 0
0.0637 5.5336 -1.2041 0.387 -0.504 -0.772 18 19 24 0 0
0.0727 5.5395 -1.2035 0.400 -0.460 -0.793 18 19 24 0 0
0.0760 5.5579 -1.2049 0.322 -0.310 -0.895 20 20 24 0 0
0.0842 5.5658 -1.2047 0.322 -0.310 -0.895 21 20 25 0 0
0.1196 5.5406 -1.1979 0.731 -0.326 -0.599 21 20 24 0 0
0.1374 5.5276 -1.1944 -0.121 -0.569 0.814 22 20 23 0 0
0.1005 5.6603 -1.2118 0.228 -0.153 -0.962 25 21 22 0 0
0.1839 5.5294 -1.1889 0.185 -0.211 0.960 25 18 20 0 0
0.1767 5.6787 -1.2042 0.640 -0.230 0.733 22 14 15 0 0
0.1705 5.7202 -1.2089 0.817 -0.224 0.531 24 15 16 0 0
0.1983 5.6845 -1.2021 -0.162 -0.361 0.918 23 14 15 0 0
0.1904 5.7300 -1.2074 0.242 -0.472 0.848 23 14 15 0 0
0.2528 5.6983 -1.1967 0.578 -0.258 0.774 24 14 15 0 0
0.9075 4.2276 -0.9748 -0.197 -0.980 0.009 29 16 16 0 0
0.9187 4.2240 -0.9730 0.017 -0.999 -0.027 35 22 22 0 0
0.9282 4.2241 -0.9719 0.017 -0.999 -0.027 69 57 57 0 0
0.9363 4.2276 -0.9712 0.445 -0.891 -0.092 105 95 94 0 0
1.2235 4.1538 -0.9289 -0.027 -0.945 -0.326 9 20 25 0 0
1.2342 4.1506 -0.9273 -0.203 -0.957 -0.208 10 20 26 0 0
1.3535 4.1613 -0.9137 -0.429 -0.903 0.014 11 23 32 0 0
1.3660 4.1528 -0.9113 -0.473 -0.832 0.291 9 23 32 0 0
1.3775 4.1469 -0.9093 -0.473 -0.832 0.291 10 26 36 0 0
1.3890 4.1410 -0.9074 -0.473 -0.832 0.291 11 28 39 0 0
1.4133 4.1530 -0.9055 -0.351 -0.853 -0.386 28 40 52 0 0
1.4247 4.1473 -0.9036 -0.412 -0.780 -0.471 34 45 56 0 0
1.4390 4.1332 -0.9005 -0.570 -0.802 -0.177 39 49 61 0 0
1.4516 4.1236 -0.8980 -0.570 -0.802 -0.177 46 55 66 0 0
1.5030 4.1684 -0.8960 0.870 -0.445 0.212 54 62 73 0 0
1.6665 4.0673 -0.8662 0.212 -0.381 -0.900 88 111 122 0 0
1.9110 3.3395 -0.7661 0.685 -0.598 0.417 63 89 103 0 0
1.9388 3.3551 -0.7642 0.029 -0.973 0.229 28 50 65 0 0
2.1035 3.9894 -0.8051 0.386 -0.861 0.330 1 124 179 0 0
2.1211 4.0346 -0.8073 -0.304 -0.953 0.005 7 92 144 0 0
2.1310 4.0318 -0.8058 -0.307 -0.951 0.028 0 55 101 0 0
2.1411 4.0280 -0.8042 -0.375 -0.927 0.021 3 39 75 0 0
2.1509 4.0251 -0.8027 -0.304 -0.953 0.005 15 34 58 0 0
2.1957 4.0321 -0.7979 -0.036 -0.955 -0.296 17 33 48 0 0
2.2045 4.0343 -0.7970 -0.059 -0.987 -0.148 19 32 48 0 0
2.2220 4.0393 -0.7954 -0.680 -0.704 -0.206 18 34 48 0 0
2.2337 4.0274 -0.7928 -0.618 -0.783 -0.075 18 34 47 0 0
2.4138 4.0009 -0.7681 -0.098 -0.993 0.064 171 204 223 0 0
2.4453 3.9771 -0.7620 0.136 -0.989 0.053 171 208 226 0 0
2.5267 3.9840 -0.7526 -0.017 -0.919 0.393 180 216 230 0 0
3.4320 3.8852 -0.6321 -0.771 -0.632 -0.077 174 219 238 0 0
3.5892 3.7962 -0.6042 -0.744 -0.618 0.255 127 125 126 0 0
3.5977 3.7886 -0.6024 -0.498 -0.743 0.447 129 125 124 0 0
3.6388 3.8859 -0.6068 -0.877 -0.331 0.349 126 124 125 0 0
4.2112 4.3972 -0.5858 -0.091 -0.180 -0.979 18 143 210 0 0
-0.1229 5.2134 -1.2074 -0.319 -0.406 -0.856 13 23 25 0 0
-0.0273 5.6545 -1.2389 -0.221 -0.231 0.947 17 17 24 0 0
0.0524 5.5365 -1.2176 0.525 -0.446 -0.725 19 18 23 0 0
0.0584 5.5489 -1.2181 0.523 -0.528 -0.669 18 17 22 0 0
0.0681 5.5535 -1.2173 0.502 -0.414 -0.759 19 17 22 0 0
0.0698 5.5754 -1.2193 0.554 -0.285 -0.782 20 18 23 0 0
0.0773 5.5849 -1.2193 0.504 -0.268 -0.821 21 18 22 0 0
0.2673 5.6138 -1.1988 -0.240 -0.955 0.174 22 14 13 0 0
0.2793 5.6138 -1.1973 0.194 -0.840 0.507 23 14 13 0 0
0.8961 4.2355 -0.9866 -0.374 -0.927 -0.031 25 15 16 0 0
0.9091 4.2274 -0.9842 -0.203 -0.979 -0.024 28 14 14 0 0
0.9199 4.2247 -0.9826 0.019 -0.999 0.039 41 27 27 0 0
0.9291 4.2256 -0.9815 0.048 -0.998 0.035 80 67 67 0 0
0.9372 4.2291 -0.9809 0.441 -0.896 -0.048 112 101 101 0 0
1.2648 4.1743 -0.9353 0.109 -0.991 -0.080 12 21 30 0 0
1.2718 4.1811 -0.9351 -0.132 -0.990 0.040 12 21 30 0 0
1.3907 4.1405 -0.9166 -0.357 -0.903 0.240 7 21 31 0 0
1.4138 4.1557 -0.9152 -0.366 -0.871 -0.327 12 22 34 0 0
1.4252 4.1499 -0.9132 -0.454 -0.825 -0.337 14 23 36 0 0
1.4526 4.1250 -0.9074 -0.570 -0.802 -0.177 26 33 46 0 0
1.6486 4.0693 -0.8779 0.313 -0.702 -0.640 153 171 178 0 0
1.6563 4.0748 -0.8775 0.515 -0.665 -0.540 150 170 177 0 0
1.6793 4.0913 -0.8763 0.492 -0.711 -0.503 122 146 157 0 0
1.9870 3.3039 -0.7614 -0.753 -0.647 0.120 28 29 43 0 0
2.0160 3.7253 -0.7991 0.896 -0.443 -0.030 31 54 79 0 0
2.0180 3.7518 -0.8015 0.729 -0.461 -0.506 41 69 99 0 0
2.1040 4.0342 -0.8186 -0.045 -0.999 0.010 1 122 173 0 0
2.1228 4.0326 -0.8161 -0.165 -0.986 0.007 7 87 135 0 0
2.1324 4.0311 -0.8148 -0.307 -0.951 0.028 1 47 88 0 0
2.1425 4.0272 -0.8132 -0.375 -0.927 0.021 6 37 67 0 0
2.1523 4.0246 -0.8117 -0.304 -0.953 0.005 16 34 55 0 0
2.1696 3.9871 -0.8060 -0.045 -0.355 0.934 18 31 47 0 0
2.1966 4.0343 -0.8073 -0.187 -0.951 -0.247 19 35 51 0 0
2.2059 4.0340 -0.8061 -0.194 -0.963 -0.188 19 35 50 0 0
2.2157 4.0314 -0.8046 -0.257 -0.914 -0.314 19 35 50 0 0
2.2229 4.0412 -0.8047 -0.680 -0.704 -0.206 19 35 50 0 0
2.3180 3.9789 -0.7869 0.234 -0.955 0.182 167 201 220 0 0
2.3218 4.0079 -0.7893 -0.255 -0.963 0.091 166 198 219 0 0
2.3309 4.0083 -0.7882 -0.103 -0.935 0.340 171 202 223 0 0
2.3780 4.0026 -0.7819 -0.148 -0.942 0.300 173 206 225 0 0
2.4148 4.0027 -0.7774 0.148 -0.987 -0.055 172 207 226 0 0
2.4283 3.9765 -0.7732 0.315 -0.907 -0.279 171 208 226 0 0
2.4370 3.9792 -0.7724 0.513 -0.852 -0.103 171 208 226 0 0
2.4463 3.9785 -0.7712 0.195 -0.976 0.097 169 206 224 0 0
2.5204 3.9728 -0.7615 0.407 -0.894 0.186 180 216 232 0 0
3.1917 4.2075 -0.7021 0.747 -0.413 -0.520 181 222 242 0 0
3.2188 4.2937 -0.7073 -0.380 -0.238 -0.894 181 222 242 0 0
3.2290 4.2603 -0.7027 -0.380 -0.238 -0.894 181 222 242 0 0
3.2389 4.2449 -0.7000 -0.361 -0.269 -0.893 180 221 241 0 0
3.2485 4.2392 -0.6983 -0.063 -0.413 -0.909 179 220 240 0 0
3.2582 4.2340 -0.6966 -0.063 -0.413 -0.909 179 220 240 0 0
3.3744 4.3718 -0.6958 0.438 -0.338 -0.833 176 219 238 0 0
3.4420 3.8823 -0.6396 -0.514 -0.825 0.234 173 218 239 0 0
3.7373 3.7568 -0.5910 -0.656 -0.294 0.695 19 141 208 0 0
4.6236 5.1849 -0.6223 0.639 -0.397 -0.659 4 138 211 0 0
4.6743 3.7554 -0.4759 0.743 -0.634 -0.214 4 138 211 0 0
-0.1283 5.2494 -1.2230 -0.302 -0.450 -0.841 17 24 34 0 0
-0.1019 5.2203 -1.2168 -0.318 -0.473 -0.822 17 25 36 0 0
-0.0182 5.2336 -1.2079 0.958 -0.264 0.108 13 15 20 0 0
-0.0517 5.4394 -1.2325 0.931 -0.093 -0.353 20 20 27 0 0
-0.0625 5.4850 -1.2384 0.955 -0.280 0.096 20 20 28 0 0
-0.0575 5.4990 -1.2392 0.885 -0.430 0.177 20 19 28 0 0
-0.0439 5.4951 -1.2371 0.219 -0.967 0.130 19 18 28 0 0
-0.0305 5.4918 -1.2351 -0.335 -0.941 0.044 18 17 26 0 0
0.0825 5.6035 -1.2324 0.255 -0.223 -0.941 19 14 18 0 0
0.2205 5.6430 -1.2194 -0.675 -0.684 -0.277 22 14 12 0 0
0.2624 5.6020 -1.2102 -0.422 -0.690 0.588 22 14 12 0 0
0.2962 5.5791 -1.2038 -0.674 -0.537 0.507 23 15 13 0 0
0.8978 4.2351 -0.9959 -0.374 -0.927 -0.031 25 15 16 0 0
0.9215 4.2245 -0.9920 0.017 -0.999 -0.027 53 39 39 0 0
0.9308 4.2253 -0.9909 0.048 -0.998 0.035 93 81 81 0 0
0.9387 4.2293 -0.9903 0.458 -0.889 0.014 116 107 106 0 0
0.9624 4.2646 -0.9909 0.571 -0.605 0.554 121 117 114 0 0
1.3507 4.1506 -0.9319 -0.322 -0.810 0.491 10 21 26 0 0
1.3571 4.1593 -0.9320 -0.429 -0.903 0.014 10 22 28 0 0
1.3707 4.1475 -0.9292 -0.431 -0.891 0.139 10 22 28 0 0
1.3820 4.1424 -0.9273 -0.431 -0.891 0.139 10 21 29 0 0
1.3933 4.1370 -0.9253 -0.369 -0.916 0.159 11 20 30 0 0
1.4502 4.1086 -0.9155 0.495 -0.745 -0.448 13 21 34 0 0
1.6488 4.0733 -0.8876 0.652 -0.734 -0.191 151 165 173 0 0
1.6562 4.0798 -0.8874 0.652 -0.734 -0.191 155 172 179 0 0
1.6715 4.0910 -0.8866 0.597 -0.770 -0.224 154 176 184 0 0
1.9773 3.3139 -0.7716 -0.758 -0.652 -0.031 35 43 53 0 0
1.9893 3.2998 -0.7687 -0.753 -0.647 0.120 26 31 42 0 0
2.1147 4.0333 -0.8265 -0.149 -0.989 0.016 5 107 157 0 0
2.1339 4.0304 -0.8238 -0.307 -0.951 0.028 1 42 78 0 0
2.1438 4.0275 -0.8223 -0.295 -0.954 0.047 9 35 61 0 0
2.1748 3.9689 -0.8127 -0.125 -0.369 0.921 19 33 47 0 0
2.2166 4.0331 -0.8140 -0.152 -0.964 -0.219 20 36 52 0 0
2.3328 4.0049 -0.7969 -0.103 -0.935 0.340 157 188 209 0 0
2.3519 4.0011 -0.7942 -0.221 -0.918 0.329 168 201 220 0 0
2.3805 3.9953 -0.7901 -0.040 -0.997 0.072 173 206 225 0 0
2.3895 3.9964 -0.7891 0.322 -0.946 -0.046 171 206 225 0 0
2.3991 3.9938 -0.7876 -0.111 -0.988 0.103 171 206 225 0 0
2.4075 3.9988 -0.7871 0.009 -0.999 -0.039 171 208 226 0 0
2.4390 3.9747 -0.7808 -0.215 -0.886 -0.410 169 208 225 0 0
2.5254 4.0100 -0.7738 0.521 -0.854 0.005 180 216 230 0 0
3.2687 4.2617 -0.7077 0.282 -0.454 -0.845 179 220 240 0 0
3.3759 4.4053 -0.7088 0.464 -0.341 -0.818 178 221 240 0 0
3.5227 3.8524 -0.6357 0.225 -0.971 0.084 197 229 242 0 0
3.5319 3.8573 -0.6350 -0.193 -0.967 0.169 192 224 239 0 0
3.6636 3.8212 -0.6153 -0.446 -0.886 0.126 132 130 131 0 0
4.6288 5.3207 -0.6464 -0.120 -0.943 0.311 7 139 213 0 0
4.6573 5.2919 -0.6400 0.665 -0.309 -0.680 5 139 212 0 0
4.6793 5.3450 -0.6426 0.665 -0.309 -0.680 5 139 212 0 0
-0.1244 5.2455 -1.2334 0.385 -0.278 -0.880 22 26 38 0 0
-0.1101 5.2397 -1.2311 0.216 -0.335 -0.917 22 26 39 0 0
-0.0445 5.1780 -1.2168 -0.365 -0.559 -0.745 17 21 31 0 0
-0.0375 5.1862 -1.2168 -0.591 -0.631 -0.502 18 21 27 0 0
-0.0293 5.1922 -1.2164 -0.554 -0.634 -0.540 18 20 24 0 0
-0.0662 5.5207 -1.2542 0.971 -0.166 0.172 21 19 23 0 0
-0.0831 5.5795 -1.2622 0.907 -0.134 -0.399 20 18 23 0 0
-0.0271 5.4888 -1.2462 -0.180 -0.983 -0.048 20 16 22 0 0
0.1093 5.6538 -1.2462 0.357 -0.258 0.898 17 13 14 0 0
0.1518 5.6664 -1.2422 0.442 -0.791 0.424 19 13 13 0 0
0.1619 5.6708 -1.2414 0.602 -0.548 0.580 19 13 13 0 0
0.1735 5.6991 -1.2429 0.309 -0.693 0.651 22 14 12 0 0
0.1795 5.7129 -1.2436 -0.213 -0.710 0.671 21 13 11 0 0
0.2236 5.6402 -1.2308 -0.655 -0.661 -0.366 21 13 11 0 0
0.2763 5.5745 -1.2176 -0.623 -0.696 0.358 23 13 12 0 0
0.2808 5.5915 -1.2188 -0.719 -0.552 0.423 23 13 12 0 0
0.3019 5.5704 -1.2141 -0.503 -0.688 0.523 24 14 13 0 0
0.8994 4.2348 -1.0053 -0.374 -0.927 -0.031 24 14 14 0 0
0.9228 4.2250 -1.0014 -0.203 -0.979 -0.024 66 53 54 0 0
0.9324 4.2251 -1.0003 0.048 -0.998 0.035 102 91 91 0 0
0.9400 4.2298 -0.9998 0.458 -0.889 0.014 119 111 109 0 0
1.3545 4.1441 -0.9403 -0.322 -0.810 0.491 11 19 26 0 0
1.3731 4.1450 -0.9381 -0.431 -0.891 0.139 13 19 29 0 0
1.3942 4.1387 -0.9349 -0.003 -0.996 -0.090 12 18 29 0 0
1.5734 4.1393 -0.9129 0.476 -0.815 0.330 16 22 32 0 0
1.6567 4.0826 -0.8970 -0.114 -0.876 0.468 126 140 149 0 0
1.6656 4.0839 -0.8960 0.357 -0.902 0.244 146 162 172 0 0
1.6740 4.0874 -0.8953 0.357 -0.902 0.244 154 172 182 0 0
1.6807 4.0962 -0.8954 0.594 -0.794 0.130 157 177 187 0 0
1.9491 3.3320 -0.7849 -0.521 -0.724 -0.453 151 168 178 0 0
1.9701 3.3148 -0.7806 -0.611 -0.769 0.189 138 154 161 0 0
2.1163 4.0321 -0.8354 -0.124 -0.983 0.134 4 100 149 0 0
2.1353 4.0301 -0.8329 -0.149 -0.989 0.016 2 39 72 0 0
2.1448 4.0287 -0.8316 -0.149 -0.989 0.016 11 34 57 0 0
2.2303 4.0634 -0.8246 -0.773 -0.616 0.152 19 36 52 0 0
2.3344 4.0032 -0.8057 -0.261 -0.965 0.028 151 181 205 0 0
2.3538 3.9976 -0.8028 -0.221 -0.918 0.329 151 186 205 0 0
2.4168 4.0054 -0.7959 0.253 -0.948 -0.195 171 210 227 0 0
2.4717 3.9497 -0.7835 -0.756 -0.595 0.274 170 207 225 0 0
2.5109 3.9921 -0.7830 0.092 -0.995 0.045 182 215 232 0 0
3.2295 4.3785 -0.7340 -0.350 -0.237 -0.906 181 222 242 0 0
3.2398 4.3457 -0.7294 -0.350 -0.237 -0.906 181 222 242 0 0
3.2500 4.3084 -0.7243 -0.391 -0.344 -0.854 181 222 242 0 0
3.4353 3.8892 -0.6591 -0.659 -0.726 -0.198 176 221 242 0 0
3.4441 3.8802 -0.6571 -0.634 -0.762 -0.130 174 219 240 0 0
3.5240 3.8571 -0.6450 0.119 -0.983 0.137 198 230 243 0 0
3.5501 3.8412 -0.6401 -0.866 -0.481 0.138 156 188 209 0 0
3.6566 3.8348 -0.6264 -0.770 -0.637 0.048 121 121 121 0 0
3.7278 3.7217 -0.6062 -0.983 -0.183 0.017 20 146 205 0 0
3.7411 3.7787 -0.6104 -0.611 -0.766 0.199 21 145 209 0 0
4.2790 5.0317 -0.6714 0.567 -0.290 -0.771 14 142 213 0 0
-0.1340 5.2897 -1.2505 -0.428 -0.871 -0.240 23 24 35 0 0
-0.1159 5.2768 -1.2470 -0.479 -0.838 -0.261 21 23 33 0 0
-0.1005 5.2689 -1.2443 0.581 -0.646 -0.495 18 20 30 0 0
-0.0885 5.2677 -1.2427 0.052 -0.999 0.008 19 20 28 0 0
-0.0391 5.1932 -1.2289 -0.701 -0.627 -0.339 19 20 24 0 0
-0.0330 5.2480 -1.2338 0.267 -0.963 0.038 19 19 20 0 0
0.1476 5.6535 -1.2535 0.574 -0.406 0.711 18 12 14 0 0
0.1741 5.6750 -1.2524 0.844 -0.376 0.382 20 14 12 0 0
0.1895 5.6948 -1.2526 0.641 -0.527 0.558 21 12 12 0 0
0.2609 5.6142 -1.2355 -0.817 -0.574 -0.049 24 14 13 0 0
0.9444 4.2231 -1.0082 -0.122 -0.991 0.060 119 113 110 0 0
1.4930 4.0179 -0.9197 0.651 -0.333 0.682 14 22 33 0 0
1.6394 4.0825 -0.9084 0.459 -0.742 0.488 36 43 55 0 0
1.6779 4.0787 -0.9033 -0.134 -0.763 0.632 138 157 166 0 0
1.6861 4.0828 -0.9027 0.004 -0.816 0.578 140 160 170 0 0
1.9621 3.3188 -0.7901 -0.611 -0.769 0.189 162 179 187 0 0
1.9043 4.1059 -0.8783 0.774 -0.616 -0.147 39 39 46 0 0
1.9636 3.9825 -0.8583 0.159 -0.217 -0.963 37 41 54 0 0
2.1711 3.9552 -0.8300 -0.678 -0.642 -0.358 19 36 51 0 0
2.1803 3.9552 -0.8289 -0.105 -0.732 0.673 18 34 47 0 0
2.3145 3.9689 -0.8139 -0.082 -0.986 0.147 169 202 221 0 0
2.3460 3.9969 -0.8129 -0.203 -0.933 0.299 165 197 218 0 0
2.3557 3.9941 -0.8114 -0.221 -0.918 0.329 159 194 213 0 0
2.3652 3.9924 -0.8101 -0.215 -0.860 0.462 152 187 206 0 0
2.3744 3.9920 -0.8089 -0.224 -0.946 0.233 150 185 204 0 0
2.3922 3.9955 -0.8071 0.174 -0.935 0.308 167 204 222 0 0
3.2407 4.3622 -0.7408 -0.590 -0.344 -0.730 182 223 243 0 0
3.4364 3.8905 -0.6681 -0.734 -0.679 -0.004 176 221 242 0 0
3.4452 3.8810 -0.6660 -0.734 -0.679 -0.004 173 218 239 0 0
3.4625 3.8572 -0.6615 -0.913 -0.408 -0.016 175 218 237 0 0
3.5250 3.8572 -0.6538 0.073 -0.986 0.151 198 230 243 0 0
3.5511 3.8401 -0.6488 -0.912 -0.384 0.144 148 179 200 0 0
3.6570 3.8242 -0.6342 -0.578 -0.783 0.230 126 126 126 0 0
4.1945 5.3856 -0.7292 0.868 -0.206 0.451 15 144 209 0 0
4.3034 5.1136 -0.6878 0.678 -0.338 -0.653 14 142 213 0 0
4.5164 4.1929 -0.5668 -0.428 -0.695 0.578 5 139 212 0 0
4.8749 3.9877 -0.5016 0.558 -0.547 -0.624 3 136 211 0 0
5.6118 6.4119 -0.6611 0.857 -0.382 -0.347 4 137 212 0 0
-0.1306 5.2869 -1.2612 -0.541 -0.734 0.411 20 20 26 0 0
-0.1196 5.2876 -1.2599 -0.590 -0.783 0.197 18 18 24 0 0
-0.0220 5.4863 -1.2688 -0.022 -0.584 0.811 19 12 13 0 0
0.1890 5.7002 -1.2653 0.954 -0.298 0.009 20 13 14 0 0
0.2249 5.6460 -1.2552 0.156 -0.548 -0.822 21 14 13 0 0
0.8887 4.2224 -1.0246 0.305 -0.493 0.815 23 13 14 0 0
0.9365 4.2226 -1.0187 -0.203 -0.979 -0.024 114 107 106 0 0
0.9450 4.2251 -1.0179 0.053 -0.998 -0.017 117 114 112 0 0
1.0177 4.2116 -1.0076 -0.509 -0.860 -0.042 124 117 116 0 0
1.5212 4.1054 -0.9347 0.687 -0.723 0.077 13 21 33 0 0
1.5284 4.1122 -0.9345 0.687 -0.723 0.077 13 22 34 0 0
1.5363 4.1168 -0.9340 0.578 -0.808 0.116 14 23 35 0 0
1.5442 4.1213 -0.9335 0.302 -0.906 0.297 15 24 36 0 0
1.5527 4.1244 -0.9328 0.302 -0.906 0.297 14 23 35 0 0
1.5611 4.1274 -0.9321 0.302 -0.906 0.297 12 22 35 0 0
1.5865 4.1366 -0.9299 0.302 -0.906 0.297 14 25 36 0 0
1.6268 4.0675 -0.9177 0.532 -0.829 0.171 14 25 34 0 0
1.6340 4.0744 -0.9176 0.480 -0.844 0.239 20 27 38 0 0
1.6423 4.0778 -0.9169 -0.250 -0.899 0.360 55 61 71 0 0
1.6638 4.0683 -0.9133 -0.320 -0.902 0.289 144 158 167 0 0
1.6742 4.0648 -0.9116 -0.390 -0.868 0.306 148 168 176 0 0
1.6962 4.1809 -0.9211 0.532 -0.498 -0.685 139 163 174 0 0
1.9709 3.3202 -0.7972 -0.558 -0.767 -0.317 153 173 183 0 0
1.8838 4.0818 -0.8877 0.732 -0.614 -0.297 23 34 34 0 0
1.8905 4.0920 -0.8879 0.836 -0.548 0.036 25 34 34 0 0
1.9189 4.1277 -0.8882 0.857 -0.500 -0.127 43 41 53 0 0
2.1397 4.0215 -0.8500 -0.319 -0.909 0.267 7 39 67 0 0
2.1602 4.0124 -0.8465 -0.379 -0.911 0.165 21 38 55 0 0
2.3160 3.9677 -0.8227 -0.088 -0.993 0.074 170 202 220 0 0
2.3478 3.9937 -0.8215 -0.203 -0.933 0.299 173 205 226 0 0
2.3576 3.9905 -0.8200 -0.221 -0.918 0.329 170 203 223 0 0
2.3938 3.9934 -0.8158 0.187 -0.925 0.330 170 207 225 0 0
2.4105 4.0033 -0.8148 0.314 -0.875 0.370 172 209 227 0 0
2.4229 4.0395 -0.8171 0.520 -0.802 0.293 173 212 229 0 0
2.4287 4.0607 -0.8186 -0.750 -0.648 -0.132 174 211 229 0 0
3.4635 3.8541 -0.6700 -0.913 -0.405 0.040 177 220 239 0 0
3.5162 3.8306 -0.6610 0.232 -0.973 0.009 198 230 241 0 0
3.5260 3.8560 -0.6625 0.073 -0.986 0.151 193 227 239 0 0
4.5158 4.1858 -0.5756 -0.428 -0.695 0.578 6 140 211 0 0
4.5323 4.2185 -0.5770 -0.601 -0.531 0.597 7 140 212 0 0
4.8358 3.9432 -0.5109 0.750 -0.566 -0.342 2 140 213 0 0
4.8681 3.9927 -0.5121 0.525 -0.581 -0.622 2 138 212 0 0
4.8804 4.0037 -0.5118 0.526 -0.569 -0.633 2 138 212 0 0
4.8922 4.0127 -0.5113 0.579 -0.547 -0.605 3 138 212 0 0
-0.2211 5.3107 -1.2863 0.864 -0.293 0.410 21 21 25 0 0
-0.1311 5.2915 -1.2732 -0.521 -0.689 0.504 17 16 18 0 0
-0.1143 5.2811 -1.2700 -0.590 -0.783 0.197 15 15 16 0 0
-0.0147 5.1088 -1.2394 -0.618 -0.365 0.696 16 14 16 0 0
0.0417 5.0851 -1.2300 0.377 -0.416 -0.828 14 12 11 0 0
-0.0128 5.4712 -1.2778 -0.008 -0.525 0.851 20 11 14 0 0
-0.0013 5.4718 -1.2765 -0.036 -0.471 0.881 19 11 13 0 0
0.0198 5.4767 -1.2744 -0.169 -0.501 0.849 16 10 11 0 0
0.1311 5.5666 -1.2703 0.708 -0.600 0.372 17 13 14 0 0
0.1391 5.5751 -1.2702 0.590 -0.693 0.416 17 12 13 0 0
0.9380 4.2226 -1.0281 -0.121 -0.992 0.035 117 111 111 0 0
0.9464 4.2254 -1.0274 0.053 -0.998 -0.017 116 115 113 0 0
0.9963 4.2440 -1.0232 -0.710 -0.685 0.165 123 117 114 0 0
1.0110 4.2317 -1.0201 -0.697 -0.704 0.136 124 117 117 0 0
1.7957 3.9694 -0.8959 0.021 -0.419 -0.908 136 158 170 0 0
1.8420 4.0009 -0.8935 0.899 -0.310 -0.310 165 183 194 0 0
1.8484 4.0111 -0.8939 0.847 -0.343 -0.407 161 179 188 0 0
2.3174 3.9666 -0.8316 -0.133 -0.987 0.086 174 205 223 0 0
2.3293 4.0017 -0.8338 -0.255 -0.963 0.091 173 208 227 0 0
2.4299 4.0612 -0.8278 -0.750 -0.648 -0.132 174 211 229 0 0
3.4644 3.8504 -0.6784 -0.900 -0.419 0.121 179 222 241 0 0
3.5444 3.8425 -0.6677 -0.864 -0.479 0.158 163 199 221 0 0
3.6671 3.8114 -0.6494 0.010 -0.988 0.155 153 154 156 0 0
4.2703 5.4156 -0.7462 0.979 -0.200 0.027 17 144 213 0 0
4.7629 6.8472 -0.8383 0.932 -0.335 0.136 11 142 214 0 0
4.7870 6.9045 -0.8414 0.899 -0.381 0.217 12 143 213 0 0
4.5146 4.2200 -0.5889 0.164 -0.676 -0.719 6 143 213 0 0
4.5346 4.2243 -0.5869 0.073 -0.672 -0.737 8 140 212 0 0
4.5478 4.2413 -0.5871 -0.156 -0.883 -0.443 9 139 214 0 0
4.8431 3.9981 -0.5249 -0.834 -0.502 0.229 2 140 213 0 0
-0.1567 5.3673 -1.2959 -0.308 -0.861 0.405 16 13 14 0 0
-0.1220 5.3220 -1.2868 -0.719 -0.676 -0.160 17 13 14 0 0
-0.0581 5.2415 -1.2702 -0.774 -0.627 -0.090 16 10 10 0 0
-0.0383 5.2249 -1.2660 -0.643 -0.726 -0.243 15 10 9 0 0
0.0335 5.1270 -1.2466 0.512 -0.462 -0.724 15 11 10 0 0
0.0367 5.1428 -1.2479 0.885 -0.346 -0.311 15 11 10 0 0
0.0329 5.1729 -1.2516 0.978 -0.208 -0.028 15 11 10 0 0
0.0286 5.2040 -1.2555 0.977 -0.200 0.079 16 12 11 0 0
0.0220 5.2399 -1.2602 0.971 -0.196 0.138 17 12 12 0 0
-0.0526 5.4370 -1.2907 0.875 -0.150 0.460 17 11 12 0 0
0.0176 5.4609 -1.2847 -0.176 -0.599 0.781 17 11 13 0 0
0.0263 5.4671 -1.2843 -0.218 -0.621 0.753 17 11 13 0 0
0.0387 5.4655 -1.2826 -0.200 -0.604 0.772 16 10 12 0 0
0.1341 5.5903 -1.2844 0.880 -0.470 -0.060 18 13 14 0 0
0.1417 5.7336 -1.2990 -0.066 -0.218 0.974 17 12 10 0 0
0.2458 5.6621 -1.2784 0.984 -0.167 -0.057 22 15 14 0 0
0.9387 4.2245 -1.0378 -0.003 -1.000 0.026 116 114 112 0 0
1.0005 4.2377 -1.0317 -0.710 -0.685 0.165 122 118 115 0 0
1.1996 4.1442 -0.9971 -0.149 -0.987 -0.063 28 39 54 0 0
1.3667 4.1260 -0.9746 0.113 -0.946 0.305 14 20 29 0 0
1.3754 4.1278 -0.9737 -0.018 -0.989 0.149 14 20 29 0 0
1.5370 4.1234 -0.9534 -0.534 -0.696 0.480 11 23 35 0 0
1.5491 4.1150 -0.9510 -0.571 -0.677 0.464 11 23 35 0 0
1.5612 4.1064 -0.9486 -0.571 -0.677 0.464 11 23 35 0 0
1.6829 4.0451 -0.9271 -0.664 -0.730 0.160 169 192 197 0 0
1.7060 3.9986 -0.9192 -0.803 -0.579 0.145 164 193 197 0 0
1.7103 4.0154 -0.9205 -0.314 -0.415 0.854 162 190 196 0 0
1.7967 3.9708 -0.9051 0.299 -0.570 -0.766 140 166 177 0 0
1.9279 4.1400 -0.9073 0.567 -0.704 -0.427 52 62 68 0 0
1.9337 4.1548 -0.9082 -0.652 -0.660 -0.373 38 50 58 0 0
2.3621 3.9792 -0.8366 -0.220 -0.898 0.382 173 208 227 0 0
2.3672 4.0025 -0.8385 -0.082 -0.986 0.146 173 208 227 0 0
2.3765 4.0019 -0.8373 -0.082 -0.986 0.146 173 208 227 0 0
2.3858 4.0013 -0.8361 -0.082 -0.986 0.146 173 210 228 0 0
2.3943 4.0050 -0.8354 0.056 -0.998 0.023 175 212 230 0 0
2.4034 4.0059 -0.8344 0.107 -0.993 0.047 175 212 230 0 0
2.4112 4.0140 -0.8343 0.197 -0.975 -0.099 174 211 229 0 0
2.4213 4.0646 -0.8386 0.705 -0.695 0.140 174 211 229 0 0
2.4300 4.0682 -0.8379 -0.489 -0.790 0.369 174 211 229 0 0
3.4569 3.8641 -0.6897 -0.904 -0.398 0.155 172 217 238 0 0
3.4654 3.8461 -0.6868 -0.904 -0.398 0.155 181 224 243 0 0
3.5453 3.8388 -0.6762 -0.869 -0.431 0.242 157 193 215 0 0
3.6591 3.8099 -0.6591 -0.173 -0.971 0.165 133 134 134 0 0
3.6680 3.8101 -0.6580 0.010 -0.988 0.155 160 160 162 0 0
4.5191 4.2367 -0.5997 0.073 -0.672 -0.737 7 144 214 0 0
4.5286 4.2364 -0.5985 0.073 -0.672 -0.737 9 141 213 0 0
4.5381 4.2361 -0.5973 0.073 -0.672 -0.737 9 141 213 0 0
4.5474 4.2350 -0.5960 -0.018 -0.637 -0.771 10 141 213 0 0
4.8373 4.0399 -0.5394 -0.695 -0.237 -0.678 5 139 212 0 0
4.8349 3.9985 -0.5352 -0.811 -0.521 0.265 4 140 212 0 0
4.8426 3.9934 -0.5337 -0.679 -0.564 0.471 3 139 213 0 0
-0.1981 5.2528 -1.3000 0.692 -0.440 0.571 17 15 18 0 0
-0.1552 5.3457 -1.3049 -0.684 -0.672 0.285 17 13 12 0 0
-0.1360 5.3307 -1.3009 -0.608 -0.791 0.063 17 13 14 0 0
-0.0879 5.2815 -1.2896 -0.726 -0.617 -0.302 18 12 12 0 0
-0.0594 5.2478 -1.2824 -0.732 -0.633 -0.254 17 11 11 0 0
0.0490 5.4480 -1.2911 0.180 -0.497 -0.849 17 11 12 0 0
0.0770 5.4383 -1.2866 0.068 -0.650 -0.757 17 11 13 0 0
0.1304 5.5766 -1.2952 0.797 -0.549 -0.252 19 14 15 0 0
0.9315 4.2225 -1.0481 -0.055 -0.998 0.032 113 105 106 0 0
0.9398 4.2256 -1.0474 0.230 -0.973 0.026 115 114 112 0 0
0.9885 4.2238 -1.0412 -0.353 -0.766 0.537 123 117 114 0 0
0.9902 4.2428 -1.0431 -0.514 -0.625 0.588 121 116 113 0 0
1.0064 4.2268 -1.0393 -0.656 -0.718 0.232 121 117 114 0 0
1.5750 4.1267 -0.9586 0.076 -0.991 -0.107 14 23 37 0 0
1.5842 4.1273 -0.9575 0.076 -0.991 -0.107 14 26 37 0 0
1.6920 4.0194 -0.9324 -0.799 -0.594 0.094 172 193 197 0 0
1.7046 4.0390 -0.9330 0.041 -0.565 0.824 167 194 199 0 0
1.7955 3.9799 -0.9154 -0.357 -0.598 -0.718 157 183 193 0 0
1.8592 4.0495 -0.9152 0.839 -0.489 -0.240 148 164 177 0 0
2.0778 3.6515 -0.8446 0.032 -0.825 -0.564 88 105 114 0 0
2.1178 4.0134 -0.8795 0.393 -0.920 0.003 25 73 106 0 0
2.1260 4.0177 -0.8789 0.442 -0.887 0.132 17 56 85 0 0
2.3747 3.9672 -0.8429 0.225 -0.920 0.320 174 209 228 0 0
2.3854 3.9577 -0.8405 -0.313 -0.902 0.297 174 209 228 0 0
2.3863 4.0057 -0.8457 -0.686 -0.727 0.008 173 210 228 0 0
2.3957 4.0045 -0.8444 -0.044 -0.999 0.017 173 210 228 0 0
2.4047 4.0056 -0.8434 0.107 -0.993 0.047 174 211 229 0 0
3.4578 3.8554 -0.6976 -0.933 -0.343 0.110 175 218 237 0 0
3.5959 3.7660 -0.6709 -0.826 -0.356 0.438 126 126 124 0 0
3.7177 3.7528 -0.6545 -0.965 -0.224 0.135 28 145 206 0 0
4.5300 3.9419 -0.5755 0.820 -0.318 -0.476 5 142 214 0 0
4.8342 3.9930 -0.5438 -0.723 -0.539 0.433 3 140 212 0 0
4.8412 3.9851 -0.5421 -0.723 -0.539 0.433 4 140 213 0 0
4.8505 3.9858 -0.5410 0.121 -0.569 0.814 4 140 214 0 0
4.7650 3.5074 -0.4989 0.788 -0.441 0.430 7 140 215 0 0
-0.1987 5.4114 -1.3291 0.488 -0.736 0.469 17 12 12 0 0
-0.1835 5.4045 -1.3264 0.004 -0.985 -0.170 18 14 13 0 0
0.1648 4.8522 -1.2220 0.167 -0.138 -0.976 19 13 13 0 0
0.2310 4.7836 -1.2063 0.042 -0.288 -0.957 16 11 10 0 0
-0.0072 5.5949 -1.3261 0.989 -0.102 0.109 19 12 12 0 0
0.0921 5.6123 -1.3158 0.646 -0.762 0.045 19 12 13 0 0
0.1235 5.5697 -1.3072 0.712 -0.319 -0.626 18 13 12 0 0
0.1193 5.6577 -1.3175 0.651 -0.739 0.172 21 14 12 0 0
0.1183 5.7132 -1.3238 0.953 -0.181 -0.244 23 14 13 0 0
0.8751 4.2458 -1.0672 -0.491 -0.615 0.617 25 14 13 0 0
0.8991 4.4193 -1.0836 0.711 -0.545 -0.445 123 115 113 0 0
0.9923 4.2182 -1.0497 -0.478 -0.811 0.337 122 117 114 0 0
0.9960 4.2327 -1.0509 -0.656 -0.718 0.232 123 118 115 0 0
1.2191 4.1502 -1.0143 0.132 -0.989 -0.064 18 25 39 0 0
1.2282 4.1514 -1.0133 0.132 -0.989 -0.064 20 29 41 0 0
1.3802 4.1492 -0.9944 0.445 -0.726 0.525 12 20 30 0 0
1.3879 4.1545 -0.9940 0.458 -0.694 0.555 11 20 30 0 0
1.3977 4.1535 -0.9927 0.563 -0.730 0.389 12 20 31 0 0
1.4118 4.1676 -0.9926 0.626 -0.480 0.615 11 21 31 0 0
1.5641 4.1358 -0.9703 -0.065 -0.940 -0.334 15 24 37 0 0
1.6122 4.1326 -0.9641 -0.887 -0.456 0.078 26 34 40 0 0
1.6948 4.0144 -0.9407 -0.830 -0.547 0.112 174 194 198 0 0
1.7088 4.0296 -0.9407 -0.087 -0.867 0.491 171 196 200 0 0
1.7933 3.9922 -0.9261 -0.599 -0.601 -0.529 166 190 199 0 0
1.8041 3.9866 -0.9242 -0.273 -0.618 -0.737 169 192 203 0 0
3.4319 3.8502 -0.7092 0.295 -0.927 0.233 178 221 240 0 0
3.6609 3.8055 -0.6761 0.078 -0.986 0.145 150 144 146 0 0
3.6698 3.8063 -0.6751 0.078 -0.986 0.145 177 168 171 0 0
4.7733 6.8021 -0.8740 0.248 -0.715 0.654 13 144 214 0 0
4.4947 4.2481 -0.6231 -0.457 -0.848 0.270 6 143 213 0 0
4.5546 4.2590 -0.6170 -0.089 -0.641 0.762 12 143 215 0 0
4.8375 3.9691 -0.5499 -0.204 -0.545 0.813 5 141 215 0 0
4.8480 3.9737 -0.5491 0.085 -0.544 0.835 5 140 214 0 0
-0.1741 5.2360 -1.3178 0.966 -0.254 -0.051 17 11 11 0 0
-0.1829 5.2743 -1.3232 0.881 -0.135 -0.454 17 11 11 0 0
-0.2174 5.3621 -1.3374 0.607 -0.126 -0.785 16 10 10 0 0
-0.2272 5.4029 -1.3432 0.639 -0.093 -0.764 17 11 11 0 0
-0.2264 5.4238 -1.3455 0.628 -0.101 -0.772 18 12 12 0 0
0.0851 5.6057 -1.3279 0.646 -0.762 0.045 20 13 11 0 0
0.0937 5.6130 -1.3276 0.646 -0.762 0.045 20 12 11 0 0
0.1270 5.5923 -1.3212 0.609 -0.637 -0.473 22 13 13 0 0
0.1310 5.6098 -1.3227 0.749 -0.625 -0.219 22 14 12 0 0
0.9022 4.2310 -1.0718 -0.524 -0.829 0.195 36 22 20 0 0
0.9150 4.2234 -1.0693 -0.524 -0.829 0.195 71 61 59 0 0
0.9959 4.2132 -1.0583 -0.460 -0.806 0.372 122 117 115 0 0
1.4190 4.1785 -1.0024 0.319 -0.388 0.865 12 22 31 0 0
1.4278 4.1804 -1.0015 0.301 -0.484 0.822 12 22 31 0 0
1.7446 4.0383 -0.9465 0.241 -0.959 0.148 177 198 204 0 0
1.7986 4.0108 -0.9368 -0.496 -0.802 -0.332 167 187 196 0 0
2.0471 4.0511 -0.9109 -0.187 -0.972 0.141 127 162 178 0 0
2.1241 4.0384 -0.9000 -0.093 -0.989 0.117 157 184 205 0 0
2.2709 3.9970 -0.8772 0.089 -0.992 -0.091 76 98 111 0 0
2.3033 3.9718 -0.8704 0.520 -0.852 -0.060 171 200 212 0 0
2.4269 3.9431 -0.8520 0.859 -0.478 0.183 176 213 229 0 0
3.6618 3.8045 -0.6847 0.196 -0.977 0.086 154 148 150 0 0
3.6978 3.8135 -0.6813 0.333 -0.943 0.024 130 159 192 0 0
4.5541 4.2524 -0.6259 0.022 -0.836 0.549 13 144 216 0 0
-0.1769 5.2665 -1.3329 0.844 -0.107 -0.526 18 11 11 0 0
0.1176 5.1752 -1.2863 0.826 -0.147 0.543 21 13 11 0 0
0.0870 5.6058 -1.3396 0.722 -0.691 0.033 22 13 11 0 0
0.0951 5.6142 -1.3395 0.722 -0.691 0.033 22 13 11 0 0
0.1052 5.6183 -1.3388 0.765 -0.644 -0.035 23 14 12 0 0
0.1360 5.5769 -1.3302 0.434 -0.610 0.663 24 15 13 0 0
0.1224 5.6330 -1.3383 0.569 -0.823 0.007 24 15 13 0 0
0.1242 5.6553 -1.3407 0.502 -0.852 0.149 24 15 12 0 0
0.1336 5.6612 -1.3402 0.558 -0.805 0.202 24 15 12 0 0
0.8931 4.2334 -1.0828 -0.509 -0.820 0.262 31 16 12 0 0
0.9065 4.2245 -1.0801 -0.421 -0.878 0.227 47 32 29 0 0
0.9183 4.2193 -1.0781 -0.421 -0.878 0.227 85 74 72 0 0
0.9547 4.2238 -1.0741 -0.158 -0.987 0.004 122 116 116 0 0
0.9624 4.2284 -1.0737 -0.084 -0.996 -0.034 120 114 113 0 0
1.0621 4.1716 -1.0549 -0.262 -0.965 0.009 52 48 46 0 0
1.3941 4.1449 -1.0111 0.458 -0.694 0.555 28 43 58 0 0
1.5397 4.2520 -1.0055 0.088 -0.996 0.008 15 23 35 0 0
1.7340 4.0474 -0.9581 0.549 -0.812 -0.196 177 196 201 0 0
1.7983 4.0167 -0.9467 -0.564 -0.822 -0.076 157 177 185 0 0
1.8101 4.0075 -0.9442 -0.453 -0.850 -0.269 156 176 184 0 0
2.1259 4.0360 -0.9087 -0.072 -0.985 0.157 167 193 208 0 0
2.3043 3.9731 -0.8796 0.520 -0.852 -0.060 151 178 189 0 0
2.4601 3.9141 -0.8537 0.215 -0.975 0.050 176 212 228 0 0
2.4687 3.9163 -0.8529 0.225 -0.967 -0.118 177 213 229 0 0
2.4774 3.9185 -0.8521 0.115 -0.962 -0.247 177 213 229 0 0
3.6628 3.8031 -0.6933 0.086 -0.985 0.147 154 156 155 0 0
4.4811 4.2190 -0.6406 -0.172 -0.860 -0.481 11 145 216 0 0
4.5536 4.2457 -0.6348 0.048 -0.793 0.607 12 144 216 0 0
-0.2402 5.4354 -1.3718 0.935 -0.179 0.305 21 12 13 0 0
0.1754 4.9274 -1.2615 0.570 -0.034 -0.821 20 12 10 0 0
-0.0547 5.6065 -1.3690 0.881 -0.152 0.449 23 14 11 0 0
-0.0550 5.6322 -1.3720 0.809 -0.139 0.571 22 12 10 0 0
0.0291 5.6573 -1.3646 0.893 -0.046 -0.447 25 14 12 0 0
0.0254 5.6911 -1.3690 0.943 -0.088 -0.320 24 14 12 0 0
0.0258 5.7164 -1.3719 0.938 -0.087 -0.335 24 13 11 0 0
0.0987 5.6104 -1.3506 0.699 -0.714 -0.024 24 14 12 0 0
0.1068 5.6190 -1.3506 0.684 -0.725 -0.072 25 15 13 0 0
0.1148 5.6276 -1.3506 0.569 -0.823 0.007 26 15 13 0 0
0.1239 5.6339 -1.3502 0.569 -0.823 0.007 26 15 13 0 0
0.1332 5.6398 -1.3498 0.275 -0.839 0.470 26 15 13 0 0
0.1399 5.6515 -1.3503 0.349 -0.687 0.637 26 16 13 0 0
0.2036 5.5896 -1.3353 0.732 -0.500 0.463 28 17 13 0 0
0.8976 4.2264 -1.0910 -0.459 -0.873 0.163 37 22 17 0 0
0.9098 4.2204 -1.0888 -0.459 -0.873 0.163 59 44 41 0 0
0.9219 4.2144 -1.0866 -0.459 -0.873 0.163 96 85 83 0 0
0.9563 4.2236 -1.0834 -0.138 -0.989 -0.051 122 116 116 0 0
0.9638 4.2286 -1.0831 -0.084 -0.996 -0.034 120 115 114 0 0
0.9765 4.2212 -1.0807 -0.639 -0.731 -0.240 119 116 115 0 0
0.9903 4.2110 -1.0778 -0.534 -0.732 -0.423 120 118 115 0 0
1.0115 4.1830 -1.0719 0.160 -0.847 0.508 121 119 115 0 0
1.0638 4.1710 -1.0641 -0.262 -0.965 0.009 46 38 36 0 0
1.3972 4.1401 -1.0196 0.458 -0.694 0.555 38 54 68 0 0
1.4048 4.1454 -1.0193 0.458 -0.694 0.555 22 38 52 0 0
2.3057 4.0210 -0.8941 0.951 -0.306 -0.042 174 199 211 0 0
2.4401 3.9330 -0.8674 0.517 -0.546 -0.659 178 212 227 0 0
2.4452 3.9571 -0.8696 0.792 -0.540 -0.284 177 213 227 0 0
2.4487 3.9917 -0.8732 0.602 -0.712 0.361 178 212 229 0 0
2.4574 3.9946 -0.8724 0.771 -0.619 0.147 177 213 229 0 0
2.4651 4.0041 -0.8726 0.771 -0.619 0.147 179 212 229 0 0
2.4727 4.0144 -0.8729 0.825 -0.541 0.164 177 213 229 0 0
3.4615 3.8371 -0.7308 -0.795 -0.584 0.166 186 224 243 0 0
3.6638 3.8037 -0.7020 0.258 -0.966 0.029 160 163 162 0 0
3.6997 3.8106 -0.6984 -0.015 -0.931 -0.364 104 149 192 0 0
3.7352 3.8129 -0.6944 0.428 -0.864 -0.264 22 147 213 0 0
3.7500 3.3830 -0.6424 0.729 -0.297 -0.617 19 148 216 0 0
4.7241 6.6531 -0.9044 0.819 -0.204 0.537 17 147 217 0 0
1.8340 3.9973 -0.9585 0.003 -0.818 -0.576 173 192 198 63 0
2.4393 3.9450 -0.8780 0.517 -0.546 -0.659 178 211 224 128 216
3.6559 3.8013 -0.7116 0.258 -0.966 0.029 143 141 142 32 0
3.6649 3.8037 -0.7108 0.258 -0.966 0.029 167 168 168 255 104
3.7009 3.8141 -0.7076 -0.015 -0.931 -0.364 88 143 188 13 117
3.7975 3.5296 -0.6620 0.449 -0.345 -0.824 25 148 218 255 97
4.9084 4.9296 -0.6914 0.847 -0.249 0.470 6 144 216 127 127
-0.3079 5.8584 -1.4541 0.514 -0.093 -0.853 21 11 10 199 158
0.2790 4.9211 -1.2695 -0.791 -0.387 0.473 25 15 13 192 0
0.2890 4.9453 -1.2712 0.327 -0.280 0.903 25 15 12 16 56
0.3074 4.9293 -1.2670 0.439 -0.453 0.776 26 15 11 15 87
0.9143 4.2171 -1.1070 -0.561 -0.815 0.145 86 71 68 127 127
1.0577 4.1701 -1.0837 -0.378 -0.926 -0.003 48 47 45 106 97
1.0687 4.1664 -1.0819 -0.358 -0.908 0.219 32 28 27 171 158
1.6028 4.1248 -1.0113 -0.829 -0.514 0.221 15 27 36 83 97
1.6202 4.0990 -1.0061 -0.829 -0.514 0.221 37 46 54 199 158
1.6636 4.1734 -1.0097 -0.369 -0.761 0.534 176 196 202 80 97
1.6711 4.1799 -1.0096 0.150 -0.870 0.470 174 196 201 188 158
1.7827 4.0211 -0.9768 -0.694 -0.710 0.119 176 195 197 196 97
1.9021 4.0943 -0.9709 0.846 -0.403 -0.349 154 173 180 155 94
2.1291 4.0391 -0.9364 0.713 -0.695 -0.091 174 199 206 176 168
2.1482 4.0364 -0.9338 0.306 -0.948 0.084 190 214 220 136 97
2.1916 3.9619 -0.9195 -0.505 -0.774 0.381 194 214 222 127 127
2.2625 3.9725 -0.9121 -0.010 -0.918 0.397 188 216 223 221 127
2.2719 3.9711 -0.9107 0.253 -0.770 0.586 189 216 225 190 0
2.2807 3.9728 -0.9099 0.069 -0.853 0.517 191 218 227 71 0
2.3135 3.9926 -0.9082 0.755 -0.396 0.523 197 221 231 199 158
2.4461 3.9668 -0.8888 0.698 -0.566 -0.440 173 205 216 72 98
2.4537 3.9763 -0.8890 0.698 -0.566 -0.440 179 209 223 138 97
3.5255 3.8270 -0.7395 -0.612 -0.783 0.109 176 210 230 210 144
3.5341 3.8217 -0.7378 -0.516 -0.851 0.103 145 177 200 57 105
3.5683 3.7934 -0.7302 -0.729 -0.684 -0.011 123 123 131 195 127
3.6659 3.8045 -0.7196 0.222 -0.974 -0.036 171 169 170 88 128
3.6747 3.8029 -0.7183 0.473 -0.872 -0.129 180 181 183 210 106
3.6839 3.8085 -0.7178 0.561 -0.798 -0.222 173 178 184 232 97
3.7499 3.4532 -0.6671 0.072 -0.726 -0.684 16 148 212 129 127
3.7581 3.4530 -0.6660 0.072 -0.726 -0.684 14 149 215 251 0
3.7812 3.5245 -0.6718 0.704 -0.310 -0.639 22 146 218 64 112
1.2402 4.0928 -1.0613 0.160 -0.397 0.904 12 19 30 169 97
1.6042 4.1250 -1.0206 -0.839 -0.504 0.206 18 28 38 135 97
1.6254 4.0868 -1.0133 -0.808 -0.554 0.200 55 63 72 71 158
1.6764 4.1667 -1.0168 -0.616 -0.543 -0.571 174 197 201 158 158
1.8420 4.0114 -0.9776 0.022 -0.809 -0.587 180 198 203 118 88
1.8491 4.0193 -0.9777 0.021 -0.877 -0.481 179 199 203 86 133
1.8576 4.0220 -0.9769 0.427 -0.869 -0.249 182 202 206 159 97
1.9025 4.0981 -0.9807 0.881 -0.470 0.063 168 187 194 244 133
2.0743 4.0418 -0.9527 0.103 -0.991 0.091 152 179 190 14 97
2.0828 4.0453 -0.9521 -0.011 -0.973 0.230 150 176 187 216 158
2.0941 4.0360 -0.9496 -0.138 -0.990 0.038 151 175 187 71 117
2.1034 4.0360 -0.9484 -0.054 -0.988 -0.143 150 174 186 221 127
2.1123 4.0377 -0.9476 -0.118 -0.955 -0.273 147 171 183 73 0
2.1324 4.0301 -0.9442 0.453 -0.891 0.023 159 184 191 248 56
2.1410 4.0332 -0.9435 0.113 -0.988 0.109 163 188 193 244 135
2.1496 4.0360 -0.9428 0.306 -0.948 0.084 168 191 197 69 97
2.2216 3.9552 -0.9241 0.870 -0.291 -0.398 195 219 227 216 176
2.2291 3.9631 -0.9241 0.814 -0.569 -0.120 195 221 228 249 135
2.2360 3.9745 -0.9247 0.858 -0.470 -0.206 196 222 229 169 97
-0.0643 5.3136 -1.3931 0.102 -0.249 0.963 26 13 11 176 128
1.5195 3.5170 -0.9736 -0.393 -0.603 -0.694 13 20 29 243 207
1.9019 4.0747 -0.9965 0.788 -0.413 0.456 190 203 207 200 120
3.4575 3.8189 -0.7735 -0.362 -0.903 0.231 192 229 247 32 80
2.4254 3.7480 -0.9001 0.540 -0.266 -0.799 201 226 231 32 97
3.4497 3.8221 -0.7837 -0.679 -0.730 0.076 183 221 240 101 0
3.4854 3.8305 -0.7804 0.121 -0.854 0.506 202 236 248 105 158
0.3114 4.9393 -1.3216 0.301 -0.769 0.564 31 17 14 60 25
1.1526 4.1648 -1.1187 0.192 -0.303 0.934 11 19 24 101 158
1.8448 4.0208 -1.0152 0.054 -0.914 0.402 183 202 206 108 168
3.5046 3.8405 -0.7882 -0.592 -0.805 -0.040 199 233 245 49 127
3.5132 3.8334 -0.7862 -0.643 -0.766 -0.017 192 228 242 107 0
3.5303 3.8169 -0.7820 -0.472 -0.880 0.041 137 178 198 240 248
3.6889 3.8076 -0.7613 0.101 -0.992 -0.077 147 154 167 115 98
3.6979 3.8095 -0.7604 -0.098 -0.995 -0.031 111 120 147 108 158
3.7528 3.8333 -0.7567 0.715 -0.468 0.519 56 75 137 120 44
0.3274 4.9322 -1.3295 -0.031 -0.973 0.227 30 17 14 85 98
1.1530 4.1432 -1.1253 -0.642 -0.505 0.577 15 17 25 248 98
1.1578 4.1551 -1.1263 -0.347 -0.446 0.825 13 18 27 1 158
1.5734 3.3578 -0.9713 -0.320 -0.695 -0.644 12 21 30 243 120
1.4447 4.1172 -1.0861 0.027 -0.844 0.536 14 28 40 16 104
1.4536 4.1186 -1.0852 0.179 -0.867 0.465 19 32 45 228 68
1.4623 4.1208 -1.0844 0.220 -0.886 0.408 23 35 48 158 98
1.4708 4.1233 -1.0837 0.220 -0.886 0.408 21 33 46 2 158
1.8471 4.0174 -1.0237 -0.041 -0.990 0.132 179 199 203 160 192
1.8543 4.0246 -1.0237 0.225 -0.949 -0.223 176 198 201 236 70
2.0711 4.0041 -0.9944 0.694 -0.403 0.597 190 210 214 94 40
2.0781 4.0135 -0.9948 0.592 -0.433 0.680 189 209 213 108 72
2.2371 3.9554 -0.9677 0.072 -0.973 0.219 197 221 225 109 73
2.2460 3.9562 -0.9667 0.072 -0.973 0.219 196 220 224 111 98
2.2550 3.9565 -0.9656 0.261 -0.965 0.034 195 219 224 100 158
2.2643 3.9559 -0.9644 0.142 -0.975 0.169 196 219 225 117 117
2.2743 3.9512 -0.9626 0.106 -0.994 0.002 194 217 223 108 127
2.2940 3.9906 -0.9653 0.923 -0.338 -0.185 185 208 214 45 144
2.3227 3.9840 -0.9609 0.101 -0.984 -0.146 169 193 197 45 158
2.3317 3.9848 -0.9599 0.101 -0.984 -0.146 175 197 202 53 117
2.3409 3.9848 -0.9588 -0.235 -0.968 -0.092 183 204 209 92 127
2.3505 3.9823 -0.9573 -0.235 -0.968 -0.092 186 208 213 46 0
2.3601 3.9799 -0.9558 -0.235 -0.968 -0.092 186 210 214 48 0
2.3844 3.8940 -0.9416 0.167 -0.781 -0.602 191 215 219 92 8
2.4096 3.9044 -0.9399 0.586 -0.538 -0.606 202 227 231 45 158
2.4288 3.9510 -0.9436 0.801 -0.590 0.107 203 228 232 45 0
2.4353 3.9670 -0.9448 0.742 -0.354 0.569 202 229 232 103 0
2.4422 3.9803 -0.9457 0.738 -0.359 0.571 205 231 235 101 128
2.5062 3.9207 -0.9301 0.256 -0.672 -0.695 203 231 235 36 0
2.7414 3.9176 -0.9008 -0.451 -0.611 -0.651 192 226 238 64 96
3.4874 3.8259 -0.7972 -0.046 -0.985 0.165 204 236 249 18 158
3.5059 3.8467 -0.7977 -0.787 -0.613 -0.067 198 231 246 24 127
3.5653 3.7867 -0.7826 -0.607 -0.699 0.378 125 126 130 16 117
3.6901 3.8095 -0.7702 0.051 -0.995 0.084 137 144 161 98 98
3.6989 3.8100 -0.7692 0.051 -0.995 0.084 115 124 154 199 158
3.7078 3.8106 -0.7682 0.051 -0.995 0.084 97 102 148 117 117
3.7814 3.4664 -0.7143 -0.248 -0.666 -0.703 48 74 146 158 240
0.3203 4.9280 -1.3405 0.257 -0.966 0.015 24 14 12 107 101
0.3298 4.9308 -1.3397 0.070 -0.974 0.215 26 16 14 240 98
0.3398 4.9324 -1.3387 0.176 -0.749 0.639 29 17 16 180 158
1.5710 3.3679 -0.9811 -0.320 -0.695 -0.644 13 21 29 248 144
1.4568 4.1134 -1.0935 0.159 -0.830 0.534 10 22 34 96 106
1.4654 4.1156 -1.0927 0.159 -0.830 0.534 11 24 35 244 98
1.4828 4.1199 -1.0911 0.159 -0.830 0.534 11 24 35 206 117
1.5928 4.1281 -1.0787 -0.868 -0.487 0.094 16 26 31 248 112
1.6130 4.0935 -1.0717 -0.868 -0.487 0.094 40 48 52 217 107
1.6284 4.0739 -1.0672 -0.815 -0.566 0.121 104 111 115 241 98
1.6757 4.0099 -1.0529 -0.802 -0.577 0.154 172 190 191 127 127
1.7217 4.1050 -1.0598 -0.889 -0.453 0.064 176 195 199 66 127
1.7982 3.9995 -1.0365 -0.669 -0.644 0.371 178 193 197 46 98
1.8466 4.0240 -1.0338 -0.009 -0.956 -0.293 176 195 199 200 216
1.8642 4.0272 -1.0320 0.452 -0.861 -0.234 163 185 188 182 98
1.8877 4.0429 -1.0312 0.811 -0.542 0.221 180 201 206 127 127
2.0159 4.0100 -1.0111 -0.216 -0.975 0.043 171 189 195 80 98
2.0376 3.9960 -1.0066 -0.462 -0.877 -0.134 167 186 192 117 117
2.1439 4.0132 -0.9958 -0.226 -0.910 -0.347 182 205 210 123 184
2.2307 3.9484 -0.9766 0.201 -0.977 -0.076 188 208 212 240 48
2.2384 3.9550 -0.9765 0.507 -0.740 -0.442 193 213 217 7 111
2.2624 3.9718 -0.9758 0.361 -0.701 -0.615 199 220 225 117 117
2.3324 3.9880 -0.9694 -0.009 -0.962 -0.274 193 217 221 117 117
2.3843 3.9014 -0.9515 0.157 -0.805 -0.572 168 189 192 128 168
2.3936 3.8997 -0.9502 0.375 -0.687 -0.622 172 194 197 111 112
2.4016 3.9057 -0.9500 0.593 -0.668 -0.450 180 202 207 142 98
2.4094 3.9126 -0.9499 0.593 -0.668 -0.450 186 210 214 240 158
2.4167 3.9225 -0.9504 0.684 -0.675 -0.276 192 216 220 60 117
2.4231 3.9383 -0.9517 0.768 -0.639 0.032 197 221 225 254 127
2.4429 3.9837 -0.9552 0.616 -0.421 0.666 203 227 233 104 32
2.4791 3.8166 -0.9287 0.031 -0.518 -0.855 204 229 234 112 113
2.4828 3.8483 -0.9324 -0.193 -0.821 -0.538 204 229 234 139 98
2.4923 3.8450 -0.9309 -0.193 -0.821 -0.538 204 230 234 188 158
2.4973 3.9273 -0.9411 0.105 -0.880 -0.463 206 232 237 127 127
2.6488 3.8744 -0.9155 0.921 -0.290 -0.259 195 224 230 9 127
2.6545 3.9001 -0.9182 0.944 -0.208 -0.254 190 218 226 253 0
2.7617 3.9076 -0.9060 -0.360 -0.655 -0.665 193 226 239 14 98
3.4883 3.8221 -0.8055 -0.438 -0.862 0.255 201 233 246 125 158
3.6912 3.8114 -0.7792 0.169 -0.947 0.275 113 114 144 71 98
1.0777 4.1269 -1.1512 -0.781 -0.606 0.151 10 19 18 2 142
1.5678 3.3799 -0.9911 -0.332 -0.859 -0.390 12 20 28 149 184
1.6169 4.0853 -1.0794 -0.856 -0.503 0.118 52 61 64 82 145
1.6963 3.9768 -1.0551 -0.773 -0.634 -0.027 172 191 193 110 0
1.7986 4.0029 -1.0461 -0.391 -0.800 0.456 179 196 200 32 98
1.9061 4.0130 -1.0342 -0.651 -0.600 0.465 173 193 198 32 0
1.9196 3.9965 -1.0303 -0.734 -0.355 0.578 179 197 200 117 0
2.0180 4.0069 -1.0196 0.035 -0.968 0.250 180 201 206 100 98
2.0559 4.0019 -1.0143 0.729 -0.470 -0.498 164 181 188 116 0
2.1417 3.9872 -1.0018 0.374 -0.447 0.812 192 215 220 115 0
2.2316 3.9499 -0.9858 0.210 -0.968 -0.134 171 190 194 32 224
2.2386 3.9606 -0.9864 0.640 -0.652 -0.407 172 191 195 111 148
2.2983 3.9340 -0.9755 -0.125 -0.992 -0.003 198 220 224 10 0
2.3523 3.9863 -0.9758 -0.219 -0.969 -0.114 200 221 226 116 0
2.3618 3.9839 -0.9743 -0.219 -0.969 -0.114 194 215 220 115 0
2.3844 3.9079 -0.9614 0.260 -0.825 -0.501 189 208 212 32 208
2.3934 3.9083 -0.9604 0.218 -0.728 -0.650 180 200 204 111 149
2.4017 3.9121 -0.9598 0.427 -0.647 -0.632 173 194 199 102 98
2.4492 3.9529 -0.9595 0.647 -0.577 -0.499 197 220 226 46 72
2.4774 3.8343 -0.9401 -0.044 -0.546 -0.836 200 224 229 32 150
2.4832 3.8534 -0.9420 -0.074 -0.773 -0.630 202 227 232 84 98
2.5211 3.9578 -0.9513 0.494 -0.634 -0.595 207 235 239 115 192
2.5825 3.7220 -0.9122 0.916 -0.371 -0.153 206 234 238 97 158
2.7716 3.9105 -0.9142 -0.360 -0.655 -0.665 193 222 236 110 158
2.7816 3.9008 -0.9117 -0.274 -0.643 -0.715 194 223 237 97 117
2.8010 3.8866 -0.9074 -0.347 -0.640 -0.686 192 224 239 32 0
2.8066 3.9214 -0.9113 0.590 -0.737 0.330 191 224 239 114 0
2.8151 3.9267 -0.9110 0.760 -0.644 0.090 193 226 241 101 160
0.4252 4.7582 -1.3262 -0.217 -0.793 0.569 22 13 12 117 158
0.4375 4.7543 -1.3241 -0.276 -0.853 0.442 26 14 14 105 117
0.9587 4.1449 -1.1776 -0.751 -0.636 0.178 120 116 113 100 127
1.0825 4.1189 -1.1589 -0.769 -0.628 0.123 10 17 17 101 180
1.5530 3.4015 -1.0040 0.369 -0.509 -0.778 11 19 27 111 0
1.5585 3.4088 -1.0043 0.486 -0.552 -0.678 11 18 26 114 208
1.5745 3.3872 -0.9994 -0.264 -0.673 -0.691 11 19 28 107 181
1.7500 4.0486 -1.0674 -0.876 -0.482 -0.023 169 188 192 116 0
1.7699 4.0117 -1.0599 -0.836 -0.547 -0.048 165 184 188 105 0
1.7932 3.9942 -1.0547 -0.622 -0.779 -0.073 173 191 195 110 184
1.8061 3.9812 -1.0514 -0.442 -0.884 0.156 178 196 200 46 98
1.8468 3.9995 -1.0488 0.546 -0.646 0.534 180 199 203 97 0
1.8520 4.0141 -1.0502 -0.211 -0.890 0.405 181 200 204 225 24
1.9388 3.9628 -1.0326 -0.583 -0.303 0.753 161 177 180 192 144
1.9500 3.9545 -1.0301 -0.624 -0.343 0.702 163 178 182 33 185
2.0303 3.9992 -1.0263 0.428 -0.885 0.184 187 207 213 200 158
2.1780 3.9518 -1.0017 -0.493 -0.824 0.279 198 216 222 0 98
2.3843 3.9156 -0.9715 0.209 -0.906 -0.369 205 224 228 0 96
2.3932 3.9164 -0.9705 0.330 -0.822 -0.465 202 221 225 0 188
2.4491 3.9610 -0.9696 0.503 -0.507 -0.700 181 204 210 0 216
