ply
format ascii 1.0
element vertex 829
property float x
property float y
property float z
property float nx
property float ny
property float nz
property uchar diffuse_red
property uchar diffuse_green
property uchar diffuse_blue
property uchar class
property uchar detection
end_header
-2.5155 4.6217 0.3947 -0.720 -0.552 -0.420 130 126 127 0 0
-2.4517 4.6756 0.4006 -0.668 -0.585 -0.460 163 159 156 0 0
-2.4379 4.6547 0.3986 -0.763 -0.515 -0.391 163 159 158 0 0
-2.3998 4.5533 0.3887 -0.274 -0.631 -0.725 164 160 159 0 0
-2.3939 4.5509 0.3885 -0.274 -0.631 -0.725 163 159 158 0 0
-2.3880 4.5480 0.3883 -0.526 -0.499 -0.689 163 159 158 0 0
-2.3627 4.5148 0.3851 0.379 -0.784 -0.491 159 158 156 0 0
-2.3097 4.4794 0.3819 0.966 -0.219 -0.139 171 171 183 0 0
-2.2584 5.5531 0.4908 0.705 -0.696 0.136 155 155 167 0 0
-2.2236 5.6437 0.5002 0.549 -0.609 0.572 158 157 171 0 0
-2.2161 5.6463 0.5005 0.692 -0.582 0.428 159 158 172 0 0
-1.5848 5.2035 0.4608 -0.198 -0.883 0.426 179 181 196 0 0
-1.5643 5.1984 0.4605 0.347 -0.937 0.043 197 196 214 0 0
-1.5320 5.2263 0.4636 0.728 -0.636 -0.254 182 181 199 0 0
-1.5238 5.2343 0.4644 0.570 -0.701 -0.428 194 193 209 0 0
-1.5158 5.2400 0.4651 0.556 -0.726 -0.405 188 190 203 0 0
-1.4951 5.2829 0.4696 0.546 -0.763 -0.346 151 151 161 0 0
-1.4896 5.2717 0.4685 -0.731 -0.609 -0.307 152 152 160 0 0
-1.4477 5.5001 0.4919 -0.843 -0.402 0.357 155 154 160 0 0
-1.4385 5.5107 0.4930 -0.522 -0.454 0.722 156 155 161 0 0
-1.4321 5.5022 0.4922 -0.522 -0.454 0.722 161 156 163 0 0
-1.4285 5.4766 0.4897 -0.821 -0.432 0.373 162 157 164 0 0
-1.4227 5.4651 0.4885 -0.737 -0.550 0.392 160 157 164 0 0
-1.4182 5.4460 0.4867 -0.759 -0.649 -0.056 160 159 165 0 0
-1.3989 5.4259 0.4848 -0.337 -0.919 -0.206 162 160 165 0 0
-1.3923 5.4202 0.4843 0.148 -0.891 -0.430 163 161 166 0 0
-1.3841 5.4243 0.4847 0.445 -0.804 -0.394 163 161 166 0 0
-1.2894 5.4068 0.4837 0.109 -0.949 -0.296 242 244 243 0 0
-1.2689 5.3966 0.4828 0.446 -0.824 -0.350 254 245 250 0 0
-1.2603 5.4018 0.4834 0.562 -0.793 -0.235 254 243 249 0 0
-1.2524 5.4034 0.4837 0.764 -0.604 -0.227 247 236 240 0 0
-1.2333 5.4235 0.4859 0.498 -0.839 -0.219 234 184 193 0 0
-1.2245 5.4294 0.4865 0.474 -0.830 -0.294 254 203 212 0 0
-1.2159 5.4339 0.4870 0.466 -0.829 -0.311 254 206 213 0 0
-1.2071 5.4399 0.4877 0.550 -0.807 -0.216 254 201 209 0 0
-1.1978 5.4476 0.4886 0.738 -0.667 -0.102 254 192 205 0 0
-0.9798 5.7761 0.5235 0.672 -0.705 -0.228 81 71 79 0 0
-0.9663 5.7974 0.5257 0.794 -0.585 -0.165 74 67 75 0 0
-0.9548 5.8106 0.5272 0.719 -0.660 -0.217 82 77 83 0 0
-0.9415 5.7970 0.5259 -0.012 -0.965 -0.261 113 112 115 0 0
-0.9218 5.8089 0.5272 0.202 -0.954 -0.223 138 136 137 0 0
-0.9163 5.7977 0.5262 -0.194 -0.964 -0.182 148 144 145 0 0
-0.9075 5.7675 0.5232 -0.695 -0.701 -0.159 159 151 154 0 0
-0.8862 5.7542 0.5220 0.414 -0.863 -0.290 166 160 162 0 0
-0.8768 5.7586 0.5225 0.414 -0.863 -0.290 174 169 170 0 0
-0.8673 5.7629 0.5230 0.414 -0.863 -0.290 205 200 204 0 0
-0.8672 5.7328 0.5200 0.591 -0.756 -0.282 233 231 234 0 0
-0.8193 5.7864 0.5258 0.048 -0.893 -0.447 245 240 244 0 0
-0.8096 5.7915 0.5264 -0.173 -0.898 -0.404 244 238 242 0 0
-0.8008 5.7930 0.5266 0.267 -0.830 -0.489 245 239 243 0 0
-0.7825 5.7984 0.5273 0.217 -0.879 -0.424 198 193 197 0 0
-0.7736 5.8001 0.5275 0.195 -0.971 -0.142 181 179 180 0 0
-0.7647 5.8021 0.5278 0.323 -0.918 -0.231 206 204 205 0 0
-0.7553 5.8055 0.5282 0.262 -0.930 -0.257 228 226 227 0 0
-0.7447 5.8130 0.5291 0.075 -0.917 -0.392 227 225 226 0 0
-0.7341 5.8202 0.5299 0.360 -0.831 -0.424 238 236 237 0 0
-0.7013 5.8172 0.5298 0.217 -0.942 -0.256 228 227 225 0 0
-0.6924 5.8188 0.5301 0.322 -0.885 -0.336 141 140 144 0 0
-0.6837 5.8195 0.5302 -0.570 -0.773 -0.278 44 44 63 0 0
-0.6767 5.8147 0.5298 -0.531 -0.797 -0.289 50 55 83 0 0
-0.6699 5.8096 0.5293 -0.570 -0.773 -0.278 47 61 87 0 0
-0.6631 5.8044 0.5288 -0.623 -0.697 -0.355 48 66 90 0 0
-0.6117 5.8597 0.5348 -0.628 -0.551 -0.550 48 68 92 0 0
-0.5624 5.8797 0.5373 0.385 -0.875 -0.295 115 123 142 0 0
-0.5360 5.8816 0.5377 0.159 -0.930 -0.333 231 228 235 0 0
-0.5218 5.8981 0.5394 0.449 -0.845 -0.291 218 214 221 0 0
-0.5106 5.9057 0.5403 0.552 -0.798 -0.243 185 180 187 0 0
-0.5003 5.9106 0.5409 0.549 -0.795 -0.257 191 186 192 0 0
-0.4891 5.9181 0.5417 0.549 -0.795 -0.257 217 212 218 0 0
-0.4429 5.9510 0.5454 0.615 -0.766 -0.184 197 196 202 0 0
-0.2752 6.2200 0.5739 0.512 -0.823 -0.244 231 233 245 0 0
-0.1774 6.3073 0.5835 0.717 -0.696 -0.039 234 231 240 0 0
-0.1341 6.3465 0.5878 0.509 -0.815 -0.279 177 179 191 0 0
-0.1223 6.3524 0.5885 0.427 -0.854 -0.297 159 166 179 0 0
-0.0491 6.3922 0.5931 0.610 -0.781 -0.133 176 182 204 0 0
0.0537 6.4544 0.6002 -0.412 -0.800 -0.435 206 202 207 0 0
0.1458 6.5100 0.6065 0.275 -0.945 -0.179 209 208 214 0 0
0.2008 6.5691 0.6129 0.472 -0.868 -0.153 187 183 189 0 0
0.2120 6.5718 0.6133 0.442 -0.880 -0.175 171 166 171 0 0
0.2817 6.6160 0.6183 0.213 -0.977 -0.008 118 112 116 0 0
0.2937 6.6200 0.6188 0.309 -0.947 0.083 112 106 110 0 0
0.3048 6.6221 0.6191 0.266 -0.915 0.302 112 106 112 0 0
0.3176 6.6282 0.6198 0.358 -0.897 0.259 112 105 112 0 0
0.3679 6.6948 0.6270 0.289 -0.915 -0.280 116 109 116 0 0
0.4301 6.8103 0.6391 0.492 -0.842 -0.221 121 115 122 0 0
0.4412 6.8115 0.6393 0.680 -0.720 -0.139 126 121 128 0 0
0.4272 6.7343 0.6314 -0.892 -0.440 -0.103 134 128 138 0 0
0.4996 6.6889 0.6274 -0.385 -0.906 -0.178 152 150 164 0 0
0.4297 6.4567 0.6034 0.073 -0.872 -0.483 156 154 170 0 0
0.4517 6.4611 0.6040 -0.555 -0.832 0.014 157 155 170 0 0
0.5124 6.4831 0.6067 -0.299 -0.935 -0.191 163 161 177 0 0
0.5210 6.4803 0.6065 -0.299 -0.935 -0.191 164 163 180 0 0
0.5868 6.4520 0.6042 0.550 -0.789 -0.273 54 46 59 0 0
0.6020 6.4622 0.6053 0.550 -0.789 -0.273 45 41 50 0 0
0.6162 6.4703 0.6063 0.549 -0.742 -0.384 43 40 47 0 0
0.6333 6.4841 0.6078 0.556 -0.769 -0.317 41 39 45 0 0
-3.7084 5.5661 0.4733 -0.456 -0.482 -0.748 56 54 55 0 0
-3.6180 5.5272 0.4702 -0.749 -0.546 -0.375 60 56 57 0 0
-3.0222 4.5274 0.3755 -0.326 -0.345 -0.880 48 47 52 0 0
-2.9593 4.4942 0.3727 -0.761 -0.540 0.360 46 46 50 0 0
-2.9422 4.5780 0.3812 -0.823 -0.568 0.027 87 78 82 0 0
-2.9092 4.5330 0.3770 0.071 -0.863 0.500 142 133 136 0 0
-2.8778 4.4241 0.3664 0.498 -0.817 0.290 140 131 134 0 0
-2.8730 4.4265 0.3667 0.434 -0.844 0.314 138 131 133 0 0
-2.8520 4.5718 0.3813 -0.110 -0.980 0.168 89 87 89 0 0
-2.8307 4.5762 0.3819 -0.005 -0.897 0.442 126 119 123 0 0
-2.8204 4.5799 0.3823 -0.058 -0.975 0.214 129 121 124 0 0
-2.8147 4.5796 0.3823 -0.058 -0.975 0.214 127 122 123 0 0
-2.6531 4.4517 0.3709 0.964 -0.264 -0.035 159 162 136 0 0
-2.6499 4.4653 0.3723 0.961 -0.236 -0.144 166 168 145 0 0
-2.6466 4.4783 0.3736 0.939 -0.259 -0.228 172 170 152 0 0
-2.6430 4.4894 0.3747 0.949 -0.264 -0.173 177 173 161 0 0
-2.6393 4.5006 0.3758 0.958 -0.260 -0.122 164 157 149 0 0
-2.6353 4.5103 0.3769 -0.657 -0.733 0.173 129 122 116 0 0
-2.6289 4.5045 0.3763 -0.544 -0.826 0.146 100 92 89 0 0
-2.6052 4.5305 0.3791 0.079 -0.690 -0.719 131 127 118 0 0
-2.5998 4.5319 0.3793 -0.311 -0.661 -0.683 116 112 103 0 0
-2.5689 4.6340 0.3896 -0.492 -0.615 -0.616 91 88 89 0 0
-2.5492 4.6153 0.3879 -0.782 -0.449 -0.432 61 56 61 0 0
-2.5342 4.5872 0.3853 -0.709 -0.584 -0.396 116 111 112 0 0
-2.4986 4.6248 0.3893 0.750 -0.556 -0.358 145 141 140 0 0
-2.4950 4.6436 0.3912 0.791 -0.508 -0.341 148 144 143 0 0
-2.4704 4.5775 0.3848 -0.751 -0.548 -0.368 154 150 149 0 0
-2.4612 4.5443 0.3816 -0.741 -0.588 -0.324 158 152 152 0 0
-2.4451 4.6680 0.3940 -0.743 -0.557 -0.370 164 160 157 0 0
-2.4384 4.6596 0.3932 -0.763 -0.515 -0.391 164 160 159 0 0
-2.4004 4.5599 0.3836 -0.295 -0.543 -0.786 166 162 161 0 0
-2.3886 4.5555 0.3833 -0.565 -0.490 -0.664 164 160 159 0 0
-2.3508 4.5062 0.3786 -0.708 -0.651 -0.274 159 158 156 0 0
-2.3446 4.4976 0.3778 -0.236 -0.826 -0.513 158 158 160 0 0
-2.3099 4.4816 0.3765 0.967 -0.220 -0.125 171 171 183 0 0
-2.2963 4.5360 0.3820 0.958 -0.251 -0.138 142 144 156 0 0
-2.2726 5.5345 0.4813 -0.184 -0.800 0.571 154 154 166 0 0
-2.2504 5.5362 0.4817 0.431 -0.607 0.667 156 156 168 0 0
-2.2234 5.6345 0.4917 0.463 -0.713 0.527 157 156 170 0 0
-2.2086 5.6505 0.4934 0.629 -0.759 0.172 158 157 171 0 0
-2.2011 5.6546 0.4938 0.522 -0.848 0.092 160 159 173 0 0
-1.5932 5.1936 0.4528 0.452 -0.882 -0.132 180 182 197 0 0
-1.5859 5.1956 0.4530 0.123 -0.992 0.042 175 177 192 0 0
-1.5617 5.2717 0.4608 0.532 -0.839 -0.113 190 192 207 0 0
-1.4890 5.2756 0.4617 -0.643 -0.644 -0.414 144 145 150 0 0
-1.4421 5.4872 0.4831 -0.449 -0.730 0.516 154 151 158 0 0
-1.4352 5.4824 0.4827 -0.516 -0.648 0.560 156 151 158 0 0
-1.4159 5.4606 0.4807 -0.688 -0.642 0.337 158 157 163 0 0
-1.4116 5.4404 0.4787 -0.769 -0.629 -0.113 160 157 164 0 0
-1.4048 5.4356 0.4783 -0.625 -0.776 -0.085 162 159 166 0 0
-1.3983 5.4294 0.4777 -0.521 -0.845 -0.123 163 161 166 0 0
-1.3833 5.4293 0.4778 0.315 -0.886 -0.339 163 161 166 0 0
-1.3248 5.4192 0.4773 -0.592 -0.796 -0.128 165 162 169 0 0
-1.2682 5.3999 0.4758 0.446 -0.824 -0.350 255 246 249 0 0
-1.2598 5.4043 0.4763 0.562 -0.793 -0.235 254 243 247 0 0
-1.2503 5.4143 0.4774 0.613 -0.720 -0.325 255 245 247 0 0
-1.2412 5.4216 0.4782 0.613 -0.720 -0.325 242 215 220 0 0
-1.2325 5.4272 0.4788 0.270 -0.920 -0.285 233 180 190 0 0
-1.2239 5.4323 0.4793 0.466 -0.829 -0.311 240 170 181 0 0
-1.2153 5.4369 0.4799 0.466 -0.829 -0.311 229 155 167 0 0
-1.2066 5.4421 0.4805 0.550 -0.807 -0.216 220 137 152 0 0
-1.0302 5.7375 0.5112 0.665 -0.745 -0.050 168 159 164 0 0
-0.9887 5.7739 0.5151 0.644 -0.765 -0.015 95 83 87 0 0
-0.9656 5.8005 0.5179 0.782 -0.599 -0.170 73 68 75 0 0
-0.9542 5.8130 0.5192 0.736 -0.647 -0.199 81 79 84 0 0
-0.9358 5.8197 0.5200 0.055 -0.957 -0.284 114 113 116 0 0
-0.9280 5.8172 0.5199 -0.315 -0.901 -0.299 128 128 130 0 0
-0.9217 5.8093 0.5191 -0.361 -0.892 -0.274 138 136 137 0 0
-0.9177 5.7923 0.5175 -0.286 -0.917 -0.277 148 144 145 0 0
-0.9103 5.7570 0.5140 -0.755 -0.635 -0.160 159 150 153 0 0
-0.8848 5.7597 0.5145 0.357 -0.871 -0.337 168 159 162 0 0
-0.8755 5.7633 0.5149 0.300 -0.891 -0.340 176 169 171 0 0
-0.8662 5.7673 0.5154 -0.273 -0.927 -0.256 210 205 209 0 0
-0.8086 5.7948 0.5186 -0.173 -0.898 -0.404 248 242 246 0 0
-0.7910 5.7980 0.5190 0.150 -0.913 -0.380 203 198 202 0 0
-0.7813 5.8024 0.5195 0.217 -0.879 -0.424 177 172 176 0 0
-0.7724 5.8045 0.5198 0.217 -0.879 -0.424 187 184 186 0 0
-0.7634 5.8066 0.5201 0.217 -0.879 -0.424 199 197 198 0 0
-0.7541 5.8094 0.5204 0.175 -0.882 -0.438 197 195 196 0 0
-0.7441 5.8152 0.5211 0.243 -0.853 -0.462 210 208 209 0 0
-0.7006 5.8195 0.5219 0.217 -0.942 -0.256 225 224 222 0 0
-0.6913 5.8222 0.5222 0.322 -0.885 -0.336 123 122 126 0 0
-0.6839 5.8190 0.5219 -0.583 -0.736 -0.344 49 51 70 0 0
-0.6770 5.8138 0.5215 -0.583 -0.736 -0.344 51 58 85 0 0
-0.6702 5.8086 0.5210 -0.583 -0.736 -0.344 48 61 87 0 0
-0.6201 5.8601 0.5265 -0.239 -0.878 -0.414 48 68 91 0 0
-0.6122 5.8581 0.5264 -0.239 -0.878 -0.414 51 69 93 0 0
-0.5614 5.8828 0.5292 0.337 -0.905 -0.259 125 133 153 0 0
-0.5303 5.8986 0.5310 0.463 -0.843 -0.276 228 225 233 0 0
-0.5198 5.9041 0.5317 0.405 -0.792 -0.457 213 209 216 0 0
-0.5090 5.9103 0.5324 0.492 -0.766 -0.413 184 179 186 0 0
-0.4983 5.9164 0.5330 0.504 -0.755 -0.421 198 193 199 0 0
-0.4875 5.9226 0.5337 0.469 -0.756 -0.456 221 216 222 0 0
-0.4419 5.9537 0.5372 0.587 -0.758 -0.284 198 197 203 0 0
-0.4299 5.9630 0.5382 0.600 -0.789 -0.131 225 225 230 0 0
-0.4178 5.9725 0.5392 0.620 -0.767 -0.164 226 227 232 0 0
-0.2743 6.2223 0.5652 0.413 -0.836 -0.363 228 231 240 0 0
-0.1325 6.3505 0.5790 0.509 -0.815 -0.279 172 175 186 0 0
-0.1208 6.3562 0.5796 0.427 -0.854 -0.297 160 169 181 0 0
-0.1089 6.3621 0.5803 0.406 -0.861 -0.307 171 183 195 0 0
-0.0863 6.3710 0.5814 0.430 -0.884 -0.183 196 208 224 0 0
-0.0491 6.3921 0.5838 0.626 -0.768 -0.133 179 185 206 0 0
-0.0340 6.4059 0.5853 0.673 -0.715 -0.189 180 186 210 0 0
0.1481 6.5154 0.5975 0.290 -0.877 -0.383 208 207 215 0 0
0.2563 6.6040 0.6072 0.586 -0.781 -0.215 147 141 144 0 0
0.2711 6.6148 0.6084 0.586 -0.781 -0.215 128 122 124 0 0
0.2804 6.6129 0.6082 0.497 -0.855 -0.145 116 110 113 0 0
0.2959 6.6250 0.6096 0.577 -0.781 -0.239 110 104 108 0 0
0.3109 6.6360 0.6108 0.595 -0.791 -0.146 107 100 106 0 0
0.3261 6.6472 0.6120 0.595 -0.791 -0.146 108 101 108 0 0
0.3706 6.7008 0.6177 0.243 -0.969 -0.050 116 109 116 0 0
0.4290 6.8078 0.6287 0.401 -0.912 -0.083 121 115 122 0 0
0.4468 6.8239 0.6305 0.599 -0.794 -0.102 127 121 129 0 0
0.4621 6.8342 0.6316 0.617 -0.786 -0.028 130 125 134 0 0
0.4406 6.5854 0.6068 0.706 -0.691 -0.153 150 148 162 0 0
0.5011 6.6920 0.6178 -0.379 -0.860 -0.343 152 150 164 0 0
0.5022 6.6725 0.6159 -0.757 -0.592 -0.276 153 151 165 0 0
0.4186 6.4542 0.5936 0.216 -0.808 -0.549 156 153 168 0 0
0.4322 6.4618 0.5944 0.166 -0.873 -0.458 156 155 170 0 0
0.5014 6.4810 0.5969 -0.304 -0.934 -0.189 162 158 174 0 0
0.5104 6.4790 0.5967 -0.377 -0.896 -0.234 163 161 177 0 0
0.5212 6.4805 0.5970 -0.386 -0.904 -0.182 165 163 182 0 0
0.5396 6.4975 0.5988 0.470 -0.842 -0.266 167 167 187 0 0
0.5519 6.5020 0.5993 0.486 -0.834 -0.262 172 173 193 0 0
0.5680 6.4345 0.5928 0.607 -0.749 -0.266 90 81 97 0 0
0.5845 6.4473 0.5942 0.607 -0.749 -0.266 50 43 57 0 0
0.6011 6.4603 0.5956 0.607 -0.749 -0.266 44 39 50 0 0
0.6204 6.4784 0.5975 0.539 -0.742 -0.399 42 40 49 0 0
-3.7159 5.5673 0.4661 -0.513 -0.498 -0.699 54 54 54 0 0
-3.7131 5.5787 0.4673 -0.436 -0.620 -0.653 55 53 54 0 0
-3.6993 5.5602 0.4656 -0.102 -0.565 -0.819 55 52 53 0 0
-3.6942 5.5652 0.4661 -0.553 -0.552 -0.624 50 45 47 0 0
-3.6750 5.5701 0.4667 -0.442 -0.856 -0.268 65 58 60 0 0
-3.6666 5.5661 0.4664 -0.406 -0.891 -0.203 69 60 63 0 0
-3.6582 5.5621 0.4660 -0.295 -0.904 -0.309 61 55 57 0 0
-3.6550 5.6742 0.4770 -0.252 -0.504 0.826 57 55 56 0 0
-3.2677 4.9752 0.4118 -0.437 -0.154 -0.886 49 49 51 0 0
-3.0184 4.5333 0.3705 -0.383 -0.286 -0.879 47 46 51 0 0
-3.0107 4.5248 0.3698 -0.336 -0.224 -0.915 47 46 51 0 0
-2.9935 4.5014 0.3676 -0.841 -0.536 -0.080 46 45 50 0 0
-2.9827 4.4809 0.3657 -0.826 -0.563 -0.034 46 45 50 0 0
-2.9750 4.4721 0.3649 -0.835 -0.542 -0.096 46 45 50 0 0
-2.9076 4.5260 0.3707 -0.396 -0.910 0.120 145 136 139 0 0
-2.8528 4.4535 0.3640 -0.101 -0.971 0.217 135 131 132 0 0
-2.8519 4.5708 0.3755 -0.110 -0.980 0.168 95 94 95 0 0
-2.8462 4.5702 0.3755 -0.110 -0.980 0.168 81 76 80 0 0
-2.8353 4.5715 0.3757 0.136 -0.944 0.299 113 105 113 0 0
-2.8303 4.5741 0.3760 0.041 -0.929 0.368 124 114 121 0 0
-2.6532 4.4521 0.3654 0.962 -0.264 -0.064 154 157 132 0 0
-2.6502 4.4667 0.3668 0.962 -0.225 -0.154 158 160 139 0 0
-2.6471 4.4812 0.3683 0.939 -0.259 -0.228 156 155 138 0 0
-2.6351 4.5088 0.3711 -0.657 -0.733 0.173 100 93 87 0 0
-2.6190 4.5119 0.3715 0.235 -0.856 -0.460 170 162 158 0 0
-2.6099 4.5245 0.3728 0.789 -0.612 0.056 163 156 150 0 0
-2.6058 4.5347 0.3738 0.095 -0.842 -0.530 133 129 120 0 0
-2.6001 4.5334 0.3737 -0.272 -0.759 -0.592 124 119 111 0 0
-2.5939 4.5294 0.3734 -0.610 -0.672 -0.421 112 105 97 0 0
-2.5636 4.6367 0.3841 -0.682 -0.671 -0.290 75 73 76 0 0
-2.5488 4.6119 0.3818 -0.896 -0.442 -0.039 60 55 59 0 0
-2.5410 4.5958 0.3803 -0.906 -0.407 -0.114 99 94 98 0 0
-2.5326 4.5745 0.3783 -0.877 -0.479 -0.038 113 109 110 0 0
-2.5241 4.5974 0.3806 -0.610 -0.691 -0.387 122 118 119 0 0
-2.4704 4.5766 0.3789 -0.745 -0.575 -0.338 154 148 148 0 0
-2.4514 4.5584 0.3773 -0.756 -0.538 -0.373 160 155 152 0 0
-2.4457 4.6739 0.3886 -0.763 -0.515 -0.391 164 160 157 0 0
-2.4389 4.6645 0.3877 -0.763 -0.515 -0.391 164 160 157 0 0
-2.4189 4.5756 0.3792 -0.095 -0.684 -0.723 166 162 161 0 0
-2.4132 4.5755 0.3793 -0.093 -0.660 -0.746 167 163 162 0 0
-2.3952 4.5654 0.3784 -0.399 -0.558 -0.728 165 161 160 0 0
-2.3878 4.5456 0.3765 -0.774 -0.346 -0.530 164 160 159 0 0
-2.3691 4.5246 0.3746 -0.583 -0.643 -0.497 159 158 156 0 0
-2.3100 4.4828 0.3710 0.964 -0.231 -0.132 171 171 183 0 0
-2.2964 4.5378 0.3765 0.958 -0.253 -0.136 141 143 155 0 0
-2.3424 5.5935 0.4791 -0.469 -0.597 0.651 145 145 155 0 0
-2.3341 5.5779 0.4777 -0.429 -0.709 0.560 146 146 156 0 0
-2.3264 5.5744 0.4774 -0.342 -0.718 0.607 147 147 157 0 0
-2.3188 5.5705 0.4770 -0.342 -0.718 0.607 148 148 158 0 0
-2.2280 5.5277 0.4736 0.467 -0.370 0.803 157 156 170 0 0
-2.2234 5.6307 0.4836 0.702 -0.496 0.511 157 156 170 0 0
-2.2086 5.6494 0.4856 0.737 -0.623 0.261 159 158 172 0 0
-1.5931 5.1947 0.4459 0.452 -0.882 -0.132 179 178 194 0 0
-1.5855 5.1983 0.4463 0.087 -0.986 -0.139 172 171 187 0 0
-1.5783 5.1993 0.4465 -0.073 -0.993 -0.094 181 183 198 0 0
-1.5618 5.2708 0.4536 0.117 -0.976 0.181 190 192 207 0 0
-1.4885 5.2791 0.4549 -0.595 -0.735 -0.327 137 138 143 0 0
-1.4429 5.4820 0.4751 -0.449 -0.730 0.516 143 141 146 0 0
-1.4362 5.4762 0.4746 -0.516 -0.648 0.560 143 138 145 0 0
-1.4233 5.4618 0.4732 -0.767 -0.631 -0.114 156 153 160 0 0
-1.4164 5.4571 0.4728 -0.688 -0.642 0.337 153 152 158 0 0
-1.4107 5.4459 0.4718 -0.815 -0.580 -0.008 156 153 160 0 0
-1.4047 5.4364 0.4709 -0.625 -0.776 -0.085 160 157 164 0 0
-1.3939 5.4563 0.4729 0.448 -0.892 -0.056 164 162 167 0 0
-1.3841 5.4692 0.4743 0.738 -0.673 -0.045 164 162 167 0 0
-1.3828 5.4322 0.4707 0.315 -0.886 -0.339 163 161 166 0 0
-1.3247 5.4194 0.4699 -0.608 -0.791 -0.063 166 163 170 0 0
-1.3170 5.4205 0.4700 -0.597 -0.788 -0.148 165 164 169 0 0
-1.2498 5.4167 0.4702 0.659 -0.664 -0.355 253 234 238 0 0
-1.2323 5.4283 0.4714 0.060 -0.882 -0.468 201 130 144 0 0
-1.2240 5.4316 0.4718 0.365 -0.863 -0.351 194 100 119 0 0
-1.2158 5.4348 0.4722 0.338 -0.829 -0.446 194 86 109 0 0
-1.2076 5.4376 0.4725 0.404 -0.834 -0.374 181 69 93 0 0
-0.9648 5.8036 0.5101 0.669 -0.684 -0.291 73 68 75 0 0
-0.9577 5.7986 0.5096 0.665 -0.693 -0.278 83 81 86 0 0
-0.9353 5.8217 0.5121 -0.236 -0.918 -0.319 115 115 117 0 0
-0.9274 5.8197 0.5119 -0.315 -0.901 -0.299 128 128 130 0 0
-0.9212 5.8111 0.5111 -0.333 -0.897 -0.291 138 136 137 0 0
-0.9172 5.7945 0.5096 -0.286 -0.917 -0.277 148 144 145 0 0
-0.9101 5.7575 0.5060 -0.731 -0.667 -0.144 159 150 153 0 0
-0.8810 5.7739 0.5078 -0.321 -0.906 -0.276 169 160 163 0 0
-0.8734 5.7713 0.5076 -0.321 -0.906 -0.276 178 172 174 0 0
-0.8656 5.7693 0.5075 -0.273 -0.927 -0.256 215 210 214 0 0
-0.8073 5.7995 0.5109 -0.425 -0.903 -0.058 236 230 234 0 0
-0.7988 5.8001 0.5110 -0.160 -0.984 -0.072 204 198 202 0 0
-0.7722 5.8049 0.5117 0.155 -0.970 -0.187 172 169 171 0 0
-0.7630 5.8079 0.5120 0.190 -0.946 -0.262 181 179 180 0 0
-0.7535 5.8118 0.5125 0.141 -0.895 -0.422 198 196 197 0 0
-0.6903 5.8254 0.5143 0.317 -0.886 -0.338 105 104 108 0 0
-0.6835 5.8203 0.5138 -0.505 -0.762 -0.405 53 55 75 0 0
-0.6764 5.8158 0.5135 -0.505 -0.762 -0.405 52 58 86 0 0
-0.6692 5.8117 0.5131 -0.531 -0.770 -0.355 49 63 89 0 0
-0.6166 5.8711 0.5193 -0.759 -0.649 -0.055 47 67 91 0 0
-0.6057 5.8517 0.5175 -0.335 -0.605 -0.722 56 69 93 0 0
-0.5605 5.8855 0.5211 0.337 -0.905 -0.259 136 144 163 0 0
-0.5292 5.9018 0.5230 0.463 -0.843 -0.276 223 220 228 0 0
-0.5054 5.9212 0.5250 0.573 -0.760 -0.306 185 180 187 0 0
-0.4939 5.9295 0.5259 0.573 -0.760 -0.306 204 199 206 0 0
-0.4254 5.9759 0.5310 0.543 -0.768 -0.339 226 227 232 0 0
-0.4174 5.9735 0.5308 0.652 -0.715 -0.252 225 226 232 0 0
-0.2707 6.2323 0.5572 0.453 -0.857 -0.247 235 238 247 0 0
-0.1310 6.3544 0.5701 0.509 -0.815 -0.279 169 172 183 0 0
-0.1193 6.3600 0.5708 0.427 -0.854 -0.297 162 171 183 0 0
-0.1074 6.3660 0.5715 0.406 -0.861 -0.307 173 186 197 0 0
-0.0856 6.3728 0.5723 0.205 -0.907 -0.369 194 206 222 0 0
-0.0602 6.3886 0.5740 0.515 -0.845 -0.145 185 192 211 0 0
0.0463 6.4604 0.5818 0.170 -0.833 -0.526 202 202 205 0 0
0.1500 6.5198 0.5884 0.283 -0.876 -0.390 206 206 214 0 0
0.2574 6.6066 0.5977 0.597 -0.793 -0.124 137 131 134 0 0
0.3715 6.7029 0.6080 0.476 -0.872 -0.117 118 111 118 0 0
0.4637 6.8377 0.6218 0.599 -0.794 -0.102 130 123 134 0 0
0.4376 6.7341 0.6115 -0.872 -0.303 -0.385 135 129 140 0 0
0.4440 6.5925 0.5977 0.751 -0.659 -0.044 150 148 162 0 0
0.4715 6.6293 0.6015 0.774 -0.632 0.033 152 150 164 0 0
0.4347 6.4669 0.5854 0.290 -0.931 -0.223 156 154 170 0 0
0.5020 6.5440 0.5935 -0.743 -0.621 -0.250 160 156 171 0 0
0.5025 6.4833 0.5875 -0.340 -0.916 -0.212 162 158 174 0 0
0.5110 6.4802 0.5873 -0.340 -0.916 -0.212 163 161 178 0 0
0.5220 6.4821 0.5876 -0.310 -0.912 -0.269 165 164 182 0 0
0.5304 6.4587 0.5853 -0.416 -0.893 -0.171 173 174 194 0 0
0.6012 6.4604 0.5860 0.551 -0.753 -0.360 44 40 51 0 0
0.6243 6.4860 0.5887 0.539 -0.742 -0.399 43 40 51 0 0
-3.7123 5.5014 0.4526 -0.853 -0.384 -0.354 53 49 50 0 0
-3.7071 5.5813 0.4603 -0.444 -0.497 -0.746 51 46 47 0 0
-3.6983 5.5763 0.4599 -0.553 -0.552 -0.624 41 34 36 0 0
-3.6029 5.5031 0.4535 -0.807 -0.458 -0.373 57 55 56 0 0
-3.6572 5.6803 0.4701 -0.224 -0.519 0.825 57 55 56 0 0
-3.6502 5.6810 0.4702 0.029 -0.503 0.864 56 54 55 0 0
-3.6591 5.7279 0.4747 -0.096 -0.353 0.930 56 54 55 0 0
-3.2695 4.9413 0.4022 -0.734 -0.621 0.275 50 49 51 0 0
-3.1152 4.7000 0.3802 -0.340 -0.250 -0.907 48 47 52 0 0
-3.0488 4.5838 0.3696 -0.416 -0.366 -0.832 46 47 52 0 0
-3.0136 4.5356 0.3652 -0.593 -0.365 -0.718 46 45 50 0 0
-2.9845 4.4874 0.3608 -0.835 -0.542 -0.096 45 45 49 0 0
-2.9755 4.4738 0.3596 -0.835 -0.542 -0.096 46 45 50 0 0
-2.9136 4.5279 0.3652 -0.396 -0.910 0.120 147 138 141 0 0
-2.8663 4.4428 0.3574 -0.438 -0.888 0.142 135 129 130 0 0
-2.8577 4.4286 0.3561 -0.025 -0.992 -0.124 135 130 131 0 0
-2.8438 4.4376 0.3571 -0.484 -0.796 0.363 132 129 130 0 0
-2.8299 4.5719 0.3700 0.170 -0.953 0.250 118 109 117 0 0
-2.6557 4.4349 0.3582 0.961 -0.273 -0.035 140 149 122 0 0
-2.6237 4.5060 0.3653 0.552 -0.831 -0.069 197 188 186 0 0
-2.6196 4.5154 0.3662 0.536 -0.831 0.149 206 198 194 0 0
-2.6099 4.5244 0.3671 0.813 -0.528 0.248 183 176 168 0 0
-2.6063 4.5372 0.3684 -0.159 -0.949 -0.271 144 140 130 0 0
-2.6013 4.5415 0.3688 -0.302 -0.800 -0.519 125 120 111 0 0
-2.5939 4.5292 0.3677 -0.411 -0.756 -0.509 118 111 103 0 0
-2.5864 4.5160 0.3665 -0.667 -0.711 -0.224 110 103 93 0 0
-2.5631 4.6330 0.3779 -0.559 -0.828 0.048 68 66 69 0 0
-2.5340 4.5851 0.3735 -0.773 -0.605 0.192 111 107 108 0 0
-2.5264 4.6160 0.3765 -0.291 -0.834 -0.470 120 116 117 0 0
-2.4708 4.5804 0.3735 -0.745 -0.575 -0.338 152 146 146 0 0
-2.4138 4.5814 0.3740 -0.057 -0.660 -0.749 166 162 161 0 0
-2.3886 4.5545 0.3716 -0.772 -0.378 -0.511 163 159 158 0 0
-2.3766 4.5463 0.3709 -0.465 -0.595 -0.656 163 159 158 0 0
-2.3453 4.5070 0.3674 -0.211 -0.652 -0.728 158 156 159 0 0
-2.3410 5.5679 0.4691 -0.841 -0.509 -0.180 144 144 154 0 0
-2.3108 5.5597 0.4686 -0.317 -0.690 0.650 147 147 157 0 0
-2.3032 5.5559 0.4682 -0.317 -0.690 0.650 150 148 159 0 0
-2.2653 5.7440 0.4866 -0.785 -0.616 0.062 154 154 164 0 0
-2.2086 5.6465 0.4776 0.750 -0.583 0.313 159 158 172 0 0
-1.6004 5.1922 0.4386 0.355 -0.925 -0.140 180 179 195 0 0
-1.5930 5.1950 0.4389 0.355 -0.925 -0.140 177 176 192 0 0
-1.5854 5.1996 0.4394 0.024 -0.979 -0.201 171 170 186 0 0
-1.5683 5.2764 0.4469 -0.179 -0.984 -0.013 188 190 205 0 0
-1.5618 5.2708 0.4464 -0.027 -0.991 -0.133 187 189 204 0 0
-1.4944 5.2880 0.4486 -0.034 -0.969 -0.246 134 134 142 0 0
-1.4880 5.2821 0.4481 -0.470 -0.840 -0.271 142 143 148 0 0
-1.4429 5.4823 0.4676 -0.718 -0.692 0.076 131 128 135 0 0
-1.4369 5.4717 0.4666 -0.663 -0.674 0.327 131 128 135 0 0
-1.4168 5.4547 0.4651 -0.579 -0.765 0.282 147 146 152 0 0
-1.4033 5.4448 0.4643 -0.687 -0.703 -0.183 158 155 162 0 0
-1.3938 5.4570 0.4655 0.464 -0.871 -0.162 163 161 166 0 0
-1.3854 5.4615 0.4660 0.617 -0.751 -0.236 163 161 166 0 0
-1.3826 5.4333 0.4633 0.361 -0.885 -0.293 162 160 165 0 0
-1.3397 5.3783 0.4584 -0.335 -0.900 -0.279 165 163 168 0 0
-1.2496 5.4556 0.4665 0.321 -0.876 -0.360 252 243 246 0 0
-1.2317 5.4312 0.4643 0.099 -0.844 -0.528 216 152 166 0 0
-1.2135 5.4456 0.4658 0.203 -0.549 -0.811 253 146 169 0 0
-0.9638 5.8079 0.5023 0.669 -0.684 -0.291 72 67 74 0 0
-0.9346 5.8243 0.5041 -0.236 -0.918 -0.319 117 117 119 0 0
-0.9216 5.8096 0.5028 -0.002 -0.943 -0.333 139 137 138 0 0
-0.9166 5.7967 0.5016 -0.286 -0.917 -0.277 149 145 146 0 0
-0.9076 5.7674 0.4989 -0.809 -0.566 -0.159 159 150 153 0 0
-0.8921 5.7946 0.5016 -0.706 -0.684 -0.186 163 152 156 0 0
-0.8804 5.7760 0.4999 -0.340 -0.912 -0.230 169 160 163 0 0
-0.8728 5.7735 0.4997 -0.273 -0.927 -0.256 179 173 175 0 0
-0.8651 5.7713 0.4996 -0.273 -0.927 -0.256 219 213 216 0 0
-0.8159 5.7987 0.5026 0.048 -0.981 -0.188 242 237 241 0 0
-0.8071 5.8003 0.5028 -0.339 -0.938 -0.075 231 225 229 0 0
-0.7984 5.8015 0.5030 -0.152 -0.973 -0.175 212 207 211 0 0
-0.7906 5.7993 0.5028 -0.236 -0.937 -0.259 200 195 199 0 0
-0.7730 5.8022 0.5032 0.017 -0.915 -0.402 188 186 187 0 0
-0.6893 5.8288 0.5064 0.317 -0.886 -0.338 92 90 95 0 0
-0.6800 5.8315 0.5067 0.341 -0.863 -0.374 55 57 76 0 0
-0.6704 5.8351 0.5071 0.341 -0.863 -0.374 50 59 86 0 0
-0.6499 5.8467 0.5084 0.418 -0.722 -0.552 44 61 86 0 0
-0.6137 5.8803 0.5119 -0.586 -0.807 0.078 47 68 89 0 0
-0.6068 5.8751 0.5114 -0.624 -0.718 0.309 50 68 90 0 0
-0.6038 5.8577 0.5098 -0.535 -0.630 -0.563 55 68 90 0 0
-0.6045 5.8289 0.5070 0.630 -0.685 -0.366 56 66 91 0 0
-0.5596 5.8881 0.5130 0.337 -0.905 -0.259 144 151 169 0 0
-0.5281 5.9050 0.5149 0.463 -0.843 -0.276 226 222 229 0 0
-0.5165 5.9139 0.5158 0.433 -0.778 -0.455 206 201 208 0 0
-0.5044 5.9242 0.5169 0.608 -0.750 -0.259 191 186 193 0 0
-0.4925 5.9334 0.5179 0.608 -0.750 -0.259 207 202 209 0 0
-0.4237 5.9807 0.5229 0.543 -0.768 -0.339 225 224 230 0 0
-0.2700 6.2341 0.5483 0.453 -0.866 -0.212 235 238 247 0 0
-0.1295 6.3584 0.5613 0.509 -0.815 -0.279 166 168 179 0 0
-0.1178 6.3638 0.5619 0.427 -0.854 -0.297 161 170 182 0 0
-0.1061 6.3695 0.5625 0.427 -0.854 -0.297 172 184 196 0 0
-0.0946 6.3743 0.5631 0.225 -0.892 -0.393 187 199 213 0 0
-0.0840 6.3769 0.5634 0.225 -0.892 -0.393 201 210 227 0 0
0.0484 6.4655 0.5729 0.159 -0.872 -0.463 201 200 205 0 0
0.1523 6.5253 0.5794 0.234 -0.924 -0.304 207 205 214 0 0
0.2584 6.6088 0.5882 0.597 -0.793 -0.124 123 117 120 0 0
0.3716 6.7028 0.5980 0.359 -0.871 -0.334 117 111 118 0 0
0.4455 6.7286 0.6010 -0.915 -0.272 -0.296 137 131 143 0 0
0.4596 6.6695 0.5955 -0.955 -0.181 -0.237 147 143 158 0 0
0.4447 6.5940 0.5881 0.751 -0.659 -0.044 150 148 162 0 0
0.4710 6.6282 0.5916 0.774 -0.632 0.033 152 150 164 0 0
0.5031 6.5462 0.5840 -0.716 -0.632 -0.296 161 157 172 0 0
0.5035 6.4852 0.5782 -0.234 -0.927 -0.294 163 159 175 0 0
0.5146 6.4873 0.5784 -0.310 -0.912 -0.269 163 161 178 0 0
0.5232 6.4845 0.5782 -0.310 -0.912 -0.269 165 165 183 0 0
0.5296 6.4175 0.5719 0.367 -0.883 -0.292 183 179 199 0 0
0.6047 6.4672 0.5772 0.551 -0.753 -0.360 45 40 52 0 0
0.6283 6.4936 0.5799 0.539 -0.742 -0.399 43 40 51 0 0
0.3921 5.4191 0.4751 0.657 -0.732 0.179 30 29 34 0 0
-3.7430 5.5466 0.4494 -0.811 -0.396 -0.430 51 49 50 0 0
-3.7235 5.5129 0.4464 -0.861 -0.426 -0.277 52 49 50 0 0
-3.7121 5.5949 0.4542 -0.444 -0.497 -0.746 46 39 41 0 0
-3.6673 5.5676 0.4520 -0.194 -0.442 -0.876 98 89 89 0 0
-3.6514 5.6635 0.4611 -0.224 -0.519 0.825 56 54 55 0 0
-3.6430 5.6598 0.4608 -0.200 -0.518 0.832 57 55 56 0 0
-3.6489 5.6981 0.4644 -0.096 -0.353 0.930 57 55 56 0 0
-2.9760 4.4755 0.3542 -0.835 -0.542 -0.096 45 45 47 0 0
-2.9339 4.5661 0.3630 -0.800 -0.597 -0.050 87 80 82 0 0
-2.9133 4.5267 0.3595 -0.370 -0.921 0.124 149 140 142 0 0
-2.9073 4.5242 0.3593 -0.370 -0.921 0.124 151 144 144 0 0
-2.8661 4.4418 0.3518 -0.421 -0.885 0.202 137 129 128 0 0
-2.8601 4.4388 0.3516 -0.449 -0.878 0.164 135 129 129 0 0
-2.6908 4.3623 0.3456 0.536 -0.822 -0.192 130 106 100 0 0
-2.6854 4.4504 0.3539 0.471 -0.821 -0.323 111 117 97 0 0
-2.6345 4.5041 0.3594 0.018 -0.667 0.745 202 193 185 0 0
-2.6236 4.5051 0.3595 0.583 -0.736 0.344 218 209 206 0 0
-2.6195 4.5144 0.3604 0.536 -0.831 0.149 214 206 202 0 0
-2.5998 4.5312 0.3622 0.645 -0.694 -0.320 131 127 116 0 0
-2.5862 4.4765 0.3571 -0.518 -0.845 -0.131 123 119 109 0 0
-2.5790 4.4644 0.3560 -0.691 -0.695 -0.197 106 103 91 0 0
-2.5637 4.6374 0.3724 -0.681 -0.503 0.532 54 52 55 0 0
-2.5269 4.6193 0.3710 -0.291 -0.834 -0.470 116 114 117 0 0
-2.5206 4.6153 0.3707 -0.155 -0.817 -0.556 119 117 120 0 0
-2.6402 5.7236 0.4741 -0.566 -0.716 -0.409 127 122 126 0 0
-2.4757 4.6250 0.3719 0.367 -0.920 0.135 151 145 145 0 0
-2.4303 4.5158 0.3619 -0.801 -0.588 -0.113 162 157 153 0 0
-2.4238 4.5072 0.3612 -0.801 -0.588 -0.113 163 159 156 0 0
-2.4021 4.5786 0.3681 -0.518 -0.636 -0.572 165 161 160 0 0
-2.3960 4.5733 0.3676 -0.357 -0.768 -0.532 164 160 159 0 0
-2.3831 4.5567 0.3661 -0.632 -0.542 -0.554 163 159 158 0 0
-2.3699 4.5338 0.3641 -0.638 -0.617 -0.460 161 157 156 0 0
-2.3579 4.5243 0.3633 -0.367 -0.701 -0.611 158 154 153 0 0
-2.3456 4.5111 0.3621 -0.372 -0.645 -0.667 157 155 158 0 0
-2.3412 5.5708 0.4619 -0.841 -0.509 -0.180 143 143 153 0 0
-2.3332 5.5603 0.4610 -0.751 -0.656 -0.078 146 146 156 0 0
-2.3253 5.5516 0.4602 -0.746 -0.643 -0.171 145 145 155 0 0
-2.3105 5.5517 0.4603 -0.317 -0.690 0.650 147 145 156 0 0
-2.2950 5.5369 0.4590 -0.740 -0.665 -0.101 148 148 160 0 0
-2.2798 5.5278 0.4583 -0.764 -0.611 -0.207 149 149 161 0 0
-2.2721 5.5185 0.4575 -0.745 -0.564 -0.357 151 151 161 0 0
-2.2236 5.3728 0.4441 0.856 -0.336 0.394 156 156 168 0 0
-1.6076 5.1911 0.4315 0.532 -0.834 -0.148 184 183 201 0 0
-1.6002 5.1942 0.4318 0.317 -0.934 -0.164 178 177 195 0 0
-1.5929 5.1960 0.4320 0.355 -0.925 -0.140 176 175 191 0 0
-1.5853 5.2003 0.4325 0.087 -0.986 -0.139 181 180 196 0 0
-1.5683 5.2765 0.4398 -0.179 -0.984 -0.013 191 190 204 0 0
-1.5616 5.2727 0.4395 -0.075 -0.970 -0.230 180 179 195 0 0
-1.4941 5.2898 0.4416 -0.034 -0.969 -0.246 143 144 149 0 0
-1.4881 5.2818 0.4409 -0.590 -0.774 -0.230 146 147 152 0 0
-1.4495 5.4890 0.4607 -0.847 -0.522 0.099 139 140 145 0 0
-1.4432 5.4798 0.4598 -0.666 -0.746 -0.015 134 133 139 0 0
-1.4364 5.4747 0.4594 -0.718 -0.692 0.076 137 136 144 0 0
-1.4031 5.4464 0.4570 -0.687 -0.703 -0.183 157 154 161 0 0
-1.3935 5.4585 0.4582 0.464 -0.871 -0.162 163 161 166 0 0
-1.3848 5.4654 0.4589 0.625 -0.758 -0.184 163 161 166 0 0
-1.3820 5.4368 0.4562 0.315 -0.861 -0.398 163 161 166 0 0
-1.2956 5.4140 0.4547 -0.129 -0.932 -0.339 239 235 236 0 0
-1.2489 5.4590 0.4593 -0.092 -0.836 -0.541 251 241 242 0 0
-1.2412 5.4594 0.4594 -0.455 -0.784 -0.423 245 234 235 0 0
-1.0389 5.7355 0.4868 0.507 -0.818 -0.272 195 191 192 0 0
-0.9627 5.8122 0.4946 0.669 -0.684 -0.291 75 70 77 0 0
-0.9209 5.8124 0.4949 -0.002 -0.943 -0.333 143 139 140 0 0
-0.9160 5.7989 0.4937 -0.286 -0.917 -0.277 149 145 146 0 0
-0.8799 5.7778 0.4920 -0.350 -0.914 -0.208 165 156 159 0 0
-0.8724 5.7749 0.4918 -0.350 -0.914 -0.208 184 178 180 0 0
-0.8648 5.7723 0.4916 -0.340 -0.912 -0.230 221 215 219 0 0
-0.8153 5.8007 0.4946 -0.012 -0.993 -0.117 246 242 243 0 0
-0.8070 5.8006 0.4946 -0.012 -0.993 -0.117 242 238 239 0 0
-0.7982 5.8019 0.4948 0.050 -0.985 -0.166 219 215 216 0 0
-0.7900 5.8014 0.4948 -0.236 -0.937 -0.259 192 187 191 0 0
-0.7795 5.8088 0.4956 0.052 -0.998 -0.041 189 187 190 0 0
-0.7720 5.8056 0.4954 0.017 -0.915 -0.402 203 201 204 0 0
-0.7626 5.8091 0.4958 0.258 -0.886 -0.386 199 197 200 0 0
-0.7415 5.8239 0.4973 0.246 -0.902 -0.355 216 214 217 0 0
-0.6786 5.8362 0.4989 0.449 -0.859 -0.247 57 63 80 0 0
-0.6685 5.8413 0.4995 0.449 -0.859 -0.247 47 60 85 0 0
-0.6579 5.8483 0.5002 0.418 -0.722 -0.552 48 64 90 0 0
-0.6177 5.8677 0.5023 -0.129 -0.931 0.342 51 68 86 0 0
-0.6079 5.8715 0.5028 -0.634 -0.637 0.439 50 67 85 0 0
-0.6027 5.8609 0.5018 -0.558 -0.682 -0.473 55 68 90 0 0
-0.6020 5.8366 0.4995 0.539 -0.757 -0.370 57 67 92 0 0
-0.5592 5.8895 0.5048 0.304 -0.906 -0.295 155 162 178 0 0
-0.5158 5.9159 0.5076 0.480 -0.862 -0.164 201 196 203 0 0
-0.5051 5.9221 0.5083 0.569 -0.791 -0.223 200 195 202 0 0
-0.2806 6.2306 0.5389 0.409 -0.890 -0.201 217 217 227 0 0
-0.1279 6.3624 0.5524 0.509 -0.815 -0.279 164 167 178 0 0
-0.1163 6.3676 0.5530 0.427 -0.854 -0.297 163 170 183 0 0
-0.1046 6.3733 0.5536 0.427 -0.854 -0.297 176 186 198 0 0
0.0292 6.4664 0.5634 0.588 -0.774 -0.237 187 187 196 0 0
0.1537 6.5285 0.5701 0.331 -0.889 -0.318 208 205 215 0 0
0.2587 6.6095 0.5785 0.593 -0.765 -0.252 138 129 133 0 0
0.3736 6.7073 0.5885 0.359 -0.871 -0.334 117 112 118 0 0
0.4620 6.4614 0.5660 -0.826 -0.140 0.546 162 158 172 0 0
0.5021 6.4823 0.5683 -0.274 -0.919 -0.285 164 161 176 0 0
0.5244 6.4868 0.5689 -0.310 -0.912 -0.269 168 168 186 0 0
0.5077 6.4131 0.5618 0.413 -0.810 -0.416 177 176 197 0 0
0.5197 6.4172 0.5623 0.428 -0.839 -0.336 184 182 202 0 0
0.5315 6.4211 0.5627 0.151 -0.908 -0.391 182 180 197 0 0
0.6081 6.4935 0.5701 0.743 -0.629 -0.228 47 40 52 0 0
0.6208 6.4789 0.5688 0.537 -0.718 -0.443 42 40 50 0 0
-3.7301 5.5303 0.4408 -0.869 -0.425 -0.252 52 49 50 0 0
-3.7448 5.6261 0.4496 -0.644 -0.494 -0.584 50 49 50 0 0
-3.7157 5.6046 0.4478 -0.490 -0.445 -0.749 41 34 36 0 0
-3.6575 5.6601 0.4533 0.058 -0.283 0.957 58 54 55 0 0
-3.6512 5.6627 0.4536 0.073 -0.285 0.956 57 55 56 0 0
-3.6438 5.6619 0.4536 -0.061 -0.332 0.941 57 55 56 0 0
-3.6380 5.6659 0.4540 -0.093 -0.337 0.937 56 54 55 0 0
-3.6116 5.6096 0.4490 -0.723 -0.517 0.459 55 55 56 0 0
-3.6008 5.5984 0.4480 -0.673 -0.575 0.465 54 54 55 0 0
-3.0598 4.6638 0.3655 -0.234 -0.895 -0.379 45 44 50 0 0
-3.0521 4.6561 0.3648 -0.165 -0.917 -0.364 44 43 49 0 0
-2.9679 4.4648 0.3477 -0.720 -0.545 -0.430 43 43 46 0 0
-2.9590 4.4719 0.3485 -0.321 -0.393 -0.862 43 43 45 0 0
-2.9136 4.5278 0.3540 -0.580 -0.814 -0.040 146 137 138 0 0
-2.9070 4.5231 0.3536 -0.580 -0.814 -0.040 153 146 145 0 0
-2.8344 4.5666 0.3581 0.021 -0.987 0.161 83 79 86 0 0
-2.8289 4.5667 0.3582 0.021 -0.987 0.161 103 98 105 0 0
-2.6724 4.4688 0.3502 0.731 -0.670 -0.132 124 133 112 0 0
-2.6682 4.4760 0.3509 0.562 -0.768 -0.308 130 139 117 0 0
-2.6189 4.5106 0.3544 0.696 -0.628 0.349 214 206 202 0 0
-2.5860 4.4749 0.3514 -0.234 -0.888 0.396 126 122 113 0 0
-2.5800 4.4710 0.3511 -0.704 -0.691 0.166 115 112 100 0 0
-2.5740 4.4673 0.3508 -0.768 -0.616 -0.175 112 110 98 0 0
-2.5673 4.4591 0.3501 -0.790 -0.549 -0.273 132 130 117 0 0
-2.5262 4.6138 0.3646 0.041 -0.839 -0.543 115 113 116 0 0
-2.4758 4.6263 0.3662 0.598 -0.802 0.004 150 144 144 0 0
-2.4088 4.5887 0.3632 -0.618 -0.640 -0.457 164 160 159 0 0
-2.3964 4.5777 0.3622 -0.568 -0.673 -0.473 164 160 159 0 0
-2.3409 4.5239 0.3576 -0.330 -0.730 -0.599 158 156 161 0 0
-2.3104 4.4871 0.3545 0.961 -0.253 -0.114 171 170 184 0 0
-2.3414 5.5737 0.4546 -0.841 -0.509 -0.180 141 141 151 0 0
-2.3335 5.5660 0.4540 -0.796 -0.560 -0.230 143 143 153 0 0
-2.3254 5.5528 0.4528 -0.779 -0.596 -0.195 142 142 152 0 0
-2.3176 5.5445 0.4521 -0.743 -0.658 -0.124 144 142 153 0 0
-2.3102 5.5455 0.4523 -0.414 -0.756 0.508 145 143 154 0 0
-2.3023 5.5345 0.4513 -0.781 -0.560 -0.277 146 146 158 0 0
-2.2950 5.5368 0.4516 -0.695 -0.719 0.004 146 146 158 0 0
-2.2801 5.5333 0.4513 -0.682 -0.689 -0.246 147 147 159 0 0
-2.2724 5.5259 0.4507 -0.682 -0.689 -0.246 149 149 159 0 0
-2.2237 5.3778 0.4374 0.793 -0.363 0.490 155 155 167 0 0
-2.1792 5.7070 0.4681 0.557 -0.242 0.794 160 159 173 0 0
-1.7071 5.1806 0.4228 0.780 -0.626 0.003 162 161 177 0 0
-1.6001 5.1953 0.4249 0.330 -0.934 -0.138 174 173 191 0 0
-1.5927 5.1979 0.4252 0.330 -0.934 -0.138 172 171 187 0 0
-1.5852 5.2013 0.4256 0.087 -0.986 -0.139 190 189 205 0 0
-1.5682 5.2771 0.4327 -0.170 -0.982 -0.086 189 188 202 0 0
-1.5610 5.2774 0.4328 0.294 -0.898 -0.328 170 169 183 0 0
-1.5627 5.2107 0.4266 0.613 -0.739 -0.279 176 175 191 0 0
-1.5546 5.2182 0.4274 0.707 -0.650 -0.278 193 192 208 0 0
-1.5008 5.2939 0.4347 0.229 -0.940 -0.254 151 150 158 0 0
-1.4939 5.2915 0.4346 -0.034 -0.969 -0.246 151 152 157 0 0
-1.4878 5.2836 0.4339 -0.590 -0.774 -0.230 151 152 157 0 0
-1.4366 5.4738 0.4518 -0.495 -0.837 -0.234 153 153 161 0 0
-1.4037 5.4424 0.4492 -0.562 -0.827 0.022 159 156 163 0 0
-1.3933 5.4600 0.4508 0.464 -0.871 -0.162 163 161 166 0 0
-1.3820 5.4369 0.4488 0.320 -0.930 -0.182 163 161 166 0 0
-1.3758 5.4293 0.4481 -0.522 -0.845 -0.118 163 161 166 0 0
-1.2951 5.4165 0.4475 -0.129 -0.932 -0.339 242 236 240 0 0
-1.2483 5.4621 0.4521 -0.008 -0.945 -0.328 255 243 245 0 0
-1.2330 5.4622 0.4522 -0.138 -0.890 -0.435 255 239 241 0 0
-1.2308 5.4357 0.4498 0.366 -0.886 -0.284 255 227 234 0 0
-1.2193 5.4544 0.4516 0.579 -0.753 -0.313 254 199 210 0 0
-1.1632 5.5016 0.4563 0.658 -0.710 -0.251 255 244 248 0 0
-1.1522 5.5167 0.4578 0.684 -0.725 0.076 255 249 252 0 0
-1.0285 5.7449 0.4798 0.575 -0.787 -0.224 209 204 205 0 0
-1.0186 5.7519 0.4805 0.575 -0.787 -0.224 206 197 200 0 0
-1.0087 5.7590 0.4812 0.575 -0.787 -0.224 173 164 167 0 0
-0.9616 5.8166 0.4869 0.669 -0.684 -0.291 77 72 79 0 0
-0.9331 5.8304 0.4883 -0.042 -0.949 -0.312 121 119 124 0 0
-0.9248 5.8300 0.4884 -0.042 -0.949 -0.312 133 131 134 0 0
-0.9202 5.8152 0.4870 -0.002 -0.943 -0.333 143 139 140 0 0
-0.9111 5.7857 0.4844 -0.739 -0.649 -0.183 155 149 151 0 0
-0.9067 5.7707 0.4830 -0.809 -0.566 -0.159 156 150 152 0 0
-0.8936 5.7892 0.4848 -0.487 -0.850 -0.201 163 154 157 0 0
-0.8796 5.7791 0.4840 -0.323 -0.924 -0.204 167 158 161 0 0
-0.8720 5.7765 0.4838 -0.323 -0.924 -0.204 189 180 183 0 0
-0.8644 5.7739 0.4836 -0.323 -0.924 -0.204 223 217 221 0 0
-0.8147 5.8029 0.4866 -0.439 -0.897 -0.049 246 242 243 0 0
-0.8188 5.7583 0.4825 0.492 -0.812 -0.314 223 219 220 0 0
-0.6777 5.8389 0.4909 0.449 -0.859 -0.247 56 62 78 0 0
-0.6677 5.8440 0.4915 0.449 -0.859 -0.247 45 60 85 0 0
-0.6586 5.8461 0.4917 0.348 -0.857 -0.379 46 63 89 0 0
-0.6506 5.8442 0.4916 0.057 -0.694 -0.717 47 64 90 0 0
-0.6100 5.8649 0.4938 -0.304 -0.837 -0.454 50 67 85 0 0
-0.6028 5.8605 0.4935 -0.329 -0.824 -0.461 56 69 90 0 0
-0.5986 5.8473 0.4923 0.372 -0.838 -0.399 59 71 95 0 0
-0.5678 5.8893 0.4964 0.304 -0.906 -0.295 98 106 129 0 0
-0.5270 5.9082 0.4984 0.455 -0.858 -0.237 224 217 226 0 0
-0.5152 5.9178 0.4994 0.480 -0.862 -0.164 211 206 213 0 0
-0.2558 6.2474 0.5317 0.529 -0.815 -0.235 243 240 249 0 0
-0.1148 6.3715 0.5441 0.427 -0.854 -0.297 168 175 188 0 0
0.1552 6.5321 0.5609 0.234 -0.924 -0.304 210 205 216 0 0
0.3028 6.6403 0.5719 0.755 -0.647 -0.109 109 99 107 0 0
0.3452 6.6900 0.5768 0.525 -0.730 -0.437 110 103 110 0 0
0.3827 6.7276 0.5805 0.291 -0.895 -0.337 119 114 120 0 0
0.3934 6.7283 0.5807 0.594 -0.757 -0.271 124 119 126 0 0
0.4374 6.6217 0.5711 -0.477 -0.842 -0.250 147 143 157 0 0
0.4495 6.6041 0.5696 0.687 -0.651 -0.322 152 148 163 0 0
0.4646 6.6145 0.5707 0.464 -0.856 -0.228 153 149 164 0 0
0.4443 6.4454 0.5549 -0.453 -0.871 0.192 160 157 171 0 0
0.5125 6.5446 0.5646 -0.716 -0.632 -0.296 162 158 172 0 0
0.6123 6.5017 0.5613 0.743 -0.629 -0.228 45 38 49 0 0
-3.6521 5.5838 0.4390 0.168 -0.972 0.166 90 84 84 0 0
-3.6467 5.6287 0.4431 0.079 -0.285 0.955 61 57 58 0 0
-3.6405 5.6314 0.4434 0.079 -0.285 0.955 59 55 56 0 0
-3.6331 5.6307 0.4434 -0.010 -0.314 0.950 56 54 55 0 0
-3.6264 5.6318 0.4435 -0.082 -0.319 0.944 54 52 53 0 0
-3.5720 5.5338 0.4350 -0.759 -0.428 0.490 52 52 52 0 0
-3.4861 5.3787 0.4215 -0.576 -0.306 -0.758 51 51 51 0 0
-3.4565 5.3497 0.4191 -0.138 -0.228 -0.964 51 49 52 0 0
-3.1772 4.8131 0.3724 -0.402 -0.225 -0.887 47 47 49 0 0
-3.0553 4.6471 0.3582 0.744 -0.333 -0.580 44 43 48 0 0
-3.0505 4.6501 0.3585 0.102 -0.941 -0.322 44 43 48 0 0
-2.9662 4.4785 0.3435 -0.358 -0.405 -0.841 42 41 46 0 0
-2.9624 4.6134 0.3558 -0.876 -0.479 -0.056 42 41 47 0 0
-2.8342 4.5654 0.3523 -0.100 -0.989 0.111 72 69 76 0 0
-2.8287 4.5658 0.3524 0.021 -0.987 0.161 93 89 96 0 0
-2.7987 4.5549 0.3516 -0.680 -0.389 -0.622 126 120 122 0 0
-2.7500 4.4493 0.3423 -0.852 -0.385 -0.354 131 125 127 0 0
-2.6804 4.4522 0.3431 0.104 -0.867 -0.487 109 117 94 0 0
-2.6724 4.4684 0.3446 0.715 -0.686 -0.132 122 132 108 0 0
-2.6684 4.4770 0.3454 0.402 -0.846 -0.352 128 138 114 0 0
-2.5943 4.5311 0.3508 0.333 -0.940 0.077 130 127 118 0 0
-2.5802 4.4724 0.3456 -0.310 -0.737 0.600 120 117 108 0 0
-2.5740 4.4672 0.3452 -0.445 -0.771 0.456 111 109 97 0 0
-2.5686 4.4680 0.3453 -0.491 -0.790 0.367 124 122 109 0 0
-2.5627 4.4646 0.3450 -0.440 -0.816 0.376 134 130 120 0 0
-2.5575 4.4665 0.3452 -0.259 -0.871 0.418 127 122 117 0 0
-2.5555 4.6625 0.3630 0.458 -0.308 0.834 90 89 94 0 0
-2.5432 4.6119 0.3585 -0.594 -0.576 -0.562 95 94 99 0 0
-2.5317 4.6113 0.3585 0.476 -0.735 -0.482 104 103 108 0 0
-2.5262 4.6134 0.3588 0.396 -0.752 -0.528 114 112 117 0 0
-2.4789 4.6540 0.3628 0.907 -0.421 -0.015 150 145 144 0 0
-2.4628 4.5578 0.3542 -0.585 -0.643 -0.495 154 149 146 0 0
-2.4566 4.5525 0.3537 -0.585 -0.643 -0.495 154 149 146 0 0
-2.4509 4.5519 0.3537 -0.685 -0.555 -0.472 156 151 147 0 0
-2.4381 4.5372 0.3525 -0.685 -0.555 -0.472 159 154 150 0 0
-2.4093 4.5940 0.3578 -0.635 -0.561 -0.531 165 161 160 0 0
-2.3948 4.4950 0.3489 -0.500 -0.745 0.441 165 161 160 0 0
-2.3889 4.4911 0.3486 -0.424 -0.815 0.395 166 162 161 0 0
-2.3837 4.5625 0.3551 -0.555 -0.512 -0.655 164 160 159 0 0
-2.3413 4.5290 0.3524 -0.539 -0.828 -0.157 157 155 160 0 0
-2.3105 4.4890 0.3490 0.961 -0.253 -0.114 172 171 185 0 0
-2.3417 5.5789 0.4476 -0.830 -0.462 -0.312 140 140 150 0 0
-2.3026 5.5403 0.4444 -0.664 -0.709 -0.240 145 145 157 0 0
-2.2955 5.5461 0.4449 -0.663 -0.677 -0.319 146 146 158 0 0
-2.2878 5.5398 0.4444 -0.643 -0.708 -0.293 146 146 158 0 0
-2.2803 5.5378 0.4443 -0.615 -0.611 -0.498 147 147 159 0 0
-2.2722 5.5213 0.4429 -0.644 -0.520 -0.561 148 148 158 0 0
-2.1929 5.6220 0.4525 0.617 -0.326 0.716 159 158 172 0 0
-2.1710 5.6768 0.4577 0.511 -0.332 0.793 161 160 174 0 0
-1.6145 5.1928 0.4176 0.543 -0.686 -0.484 184 183 201 0 0
-1.6068 5.1978 0.4181 0.195 -0.911 -0.365 178 177 193 0 0
-1.6000 5.1964 0.4180 0.330 -0.934 -0.138 172 171 187 0 0
-1.5920 5.2033 0.4187 0.025 -0.999 0.032 175 174 190 0 0
-1.5757 5.2755 0.4254 0.144 -0.966 -0.214 198 197 213 0 0
-1.5682 5.2777 0.4256 -0.170 -0.982 -0.086 186 185 199 0 0
-1.5698 5.2106 0.4195 0.405 -0.861 -0.309 170 169 183 0 0
-1.5623 5.2136 0.4198 0.613 -0.739 -0.279 186 185 201 0 0
-1.5005 5.2958 0.4277 0.229 -0.940 -0.254 148 147 155 0 0
-1.4933 5.2960 0.4278 0.028 -0.898 -0.440 152 151 157 0 0
-1.4432 5.4801 0.4448 -0.666 -0.746 -0.015 153 154 159 0 0
-1.4027 5.4486 0.4423 -0.451 -0.889 -0.079 160 159 165 0 0
-1.3930 5.4615 0.4435 0.464 -0.871 -0.162 163 161 166 0 0
-1.3844 5.4679 0.4441 0.529 -0.803 -0.276 163 161 166 0 0
-1.3826 5.4333 0.4410 0.253 -0.967 -0.043 164 162 167 0 0
-1.2946 5.4192 0.4403 -0.201 -0.942 -0.269 247 236 244 0 0
-1.2401 5.4648 0.4449 0.410 -0.867 -0.282 254 242 244 0 0
-1.1813 5.4896 0.4475 0.725 -0.645 -0.241 239 166 177 0 0
-1.1723 5.4955 0.4481 0.698 -0.657 -0.283 252 220 226 0 0
-1.1626 5.5044 0.4490 0.680 -0.678 -0.278 254 242 246 0 0
-1.1519 5.5181 0.4503 0.631 -0.763 0.137 255 251 254 0 0
-1.0279 5.7476 0.4720 0.575 -0.787 -0.224 214 208 210 0 0
-1.0180 5.7546 0.4727 0.575 -0.787 -0.224 224 215 218 0 0
-1.0081 5.7616 0.4734 0.575 -0.787 -0.224 170 159 163 0 0
-0.9242 5.8326 0.4804 -0.042 -0.949 -0.312 134 132 135 0 0
-0.9197 5.8172 0.4790 0.048 -0.951 -0.304 144 140 141 0 0
-0.9107 5.7874 0.4764 -0.739 -0.649 -0.183 154 148 150 0 0
-0.8931 5.7908 0.4768 -0.487 -0.850 -0.201 162 153 156 0 0
-0.8878 5.7795 0.4758 -0.134 -0.975 -0.177 166 157 160 0 0
-0.8798 5.7784 0.4758 -0.134 -0.975 -0.177 170 161 164 0 0
-0.8717 5.7777 0.4758 -0.072 -0.977 -0.201 193 185 188 0 0
-0.8637 5.7762 0.4757 -0.134 -0.975 -0.177 226 220 224 0 0
-0.8340 5.7935 0.4775 0.454 -0.883 -0.120 245 241 242 0 0
-0.8243 5.7986 0.4780 0.378 -0.925 -0.049 250 246 247 0 0
-0.8272 5.7581 0.4743 0.213 -0.883 -0.419 240 236 237 0 0
-0.8181 5.7610 0.4746 0.348 -0.900 -0.263 208 204 205 0 0
-0.7885 5.7772 0.4763 0.548 -0.815 -0.189 165 163 166 0 0
-0.7044 5.8348 0.4821 0.448 -0.846 -0.290 240 236 237 0 0
-0.6959 5.8350 0.4822 0.161 -0.934 -0.318 191 181 182 0 0
-0.6666 5.8475 0.4835 0.515 -0.845 -0.147 47 62 87 0 0
-0.6573 5.8501 0.4838 0.348 -0.857 -0.379 46 63 89 0 0
-0.5777 6.0787 0.5051 0.828 -0.480 0.290 48 65 91 0 0
-0.6308 5.8531 0.4843 0.657 -0.725 0.205 50 65 86 0 0
-0.6169 5.8700 0.4859 0.629 -0.741 -0.235 51 68 86 0 0
-0.6087 5.8691 0.4859 -0.353 -0.749 -0.560 53 70 88 0 0
-0.6016 5.8645 0.4855 -0.329 -0.824 -0.461 56 69 91 0 0
-0.5971 5.8517 0.4844 0.372 -0.838 -0.399 57 69 93 0 0
-0.5261 5.9110 0.4902 0.455 -0.858 -0.237 226 219 227 0 0
-0.5145 5.9197 0.4911 0.499 -0.854 -0.147 221 216 223 0 0
-0.1135 6.3750 0.5352 0.414 -0.869 -0.270 166 174 186 0 0
-0.0899 6.3862 0.5364 0.354 -0.838 -0.415 205 212 227 0 0
0.0320 6.4733 0.5451 0.553 -0.808 -0.202 188 189 195 0 0
0.0449 6.4808 0.5459 0.406 -0.802 -0.438 197 196 200 0 0
0.3484 6.6971 0.5676 0.686 -0.699 -0.203 112 105 113 0 0
0.3846 6.7318 0.5710 0.291 -0.895 -0.337 119 114 121 0 0
0.4341 6.6146 0.5607 -0.251 -0.965 -0.077 148 144 158 0 0
0.4510 6.6290 0.5621 0.414 -0.728 -0.546 150 146 160 0 0
0.4541 6.6138 0.5607 0.686 -0.666 -0.294 152 148 163 0 0
0.4733 6.6327 0.5626 0.686 -0.666 -0.294 153 149 164 0 0
0.5161 6.5311 0.5537 -0.757 -0.610 -0.234 162 159 173 0 0
0.4877 6.4125 0.5427 0.380 -0.881 -0.281 168 168 186 0 0
0.4999 6.4172 0.5432 0.444 -0.863 -0.242 172 173 193 0 0
0.6166 6.5099 0.5524 0.743 -0.629 -0.228 46 39 50 0 0
0.5109 6.2649 0.5295 -0.116 -0.677 -0.727 41 39 49 0 0
-3.6518 5.5826 0.4316 0.168 -0.972 0.166 104 97 97 0 0
-3.6339 5.5917 0.4325 -0.215 -0.450 0.867 69 63 64 0 0
-3.6281 5.5952 0.4329 -0.054 -0.372 0.927 61 57 58 0 0
-3.6223 5.5991 0.4333 0.015 -0.306 0.952 56 54 55 0 0
-3.6151 5.5984 0.4332 -0.033 -0.314 0.949 54 52 53 0 0
-3.6083 5.5992 0.4334 0.013 -0.293 0.956 54 53 54 0 0
-3.6007 5.5977 0.4333 -0.124 -0.343 0.931 53 53 53 0 0
-3.5700 5.5485 0.4291 -0.591 -0.482 0.647 51 51 51 0 0
-3.5307 5.4722 0.4226 -0.393 -0.721 -0.571 51 51 51 0 0
-3.5115 5.4348 0.4194 -0.731 -0.455 -0.509 52 51 52 0 0
-3.4983 5.4155 0.4178 -0.731 -0.455 -0.509 51 50 51 0 0
-3.4821 5.4077 0.4172 -0.006 -0.526 -0.850 52 50 53 0 0
-3.4638 5.3721 0.4141 0.046 -0.951 0.306 51 49 52 0 0
-3.1643 4.8090 0.3660 -0.413 -0.262 -0.872 46 45 49 0 0
-3.0564 4.6509 0.3527 0.687 -0.305 -0.660 43 43 46 0 0
-3.0454 4.6312 0.3510 0.679 -0.454 -0.577 44 43 46 0 0
-2.9790 4.4865 0.3386 -0.106 -0.321 -0.941 43 42 47 0 0
-2.9641 4.4910 0.3391 -0.070 -0.568 -0.820 42 41 47 0 0
-2.9550 4.4767 0.3379 -0.240 -0.532 -0.812 42 41 47 0 0
-2.9265 4.5579 0.3453 -0.733 -0.679 -0.029 101 92 94 0 0
-2.8339 4.5638 0.3465 -0.327 -0.944 -0.047 65 62 69 0 0
-2.8285 4.5648 0.3466 0.010 -1.000 0.005 87 83 90 0 0
-2.8018 4.5699 0.3472 -0.693 -0.515 -0.505 125 119 121 0 0
-2.6810 4.4551 0.3378 0.104 -0.867 -0.487 107 113 91 0 0
-2.6726 4.4692 0.3391 0.715 -0.686 -0.132 122 130 107 0 0
-2.5989 4.5242 0.3445 0.824 -0.495 0.275 156 153 144 0 0
-2.5942 4.5301 0.3451 0.389 -0.897 0.211 134 131 124 0 0
-2.5885 4.5290 0.3450 -0.091 -0.995 -0.042 125 123 115 0 0
-2.5725 4.4569 0.3387 -0.009 -0.810 0.586 116 114 102 0 0
-2.5623 4.4618 0.3392 -0.231 -0.844 0.484 119 115 106 0 0
-2.5236 4.5916 0.3510 -0.379 -0.514 -0.770 114 112 117 0 0
-2.4885 4.6357 0.3552 0.889 -0.458 0.007 145 141 142 0 0
-2.4634 4.5630 0.3489 -0.528 -0.663 -0.531 154 149 146 0 0
-2.4574 4.5597 0.3486 -0.271 -0.742 -0.613 153 148 145 0 0
-2.4388 4.5447 0.3474 -0.536 -0.615 -0.579 160 155 151 0 0
-2.3999 4.4891 0.3427 -0.265 -0.842 0.469 165 161 160 0 0
-2.3946 4.4919 0.3430 -0.509 -0.619 0.598 166 162 161 0 0
-2.3414 4.5301 0.3468 -0.539 -0.828 -0.157 157 155 158 0 0
-2.2974 4.5528 0.3491 0.979 -0.181 -0.091 135 137 149 0 0
-2.3419 5.5818 0.4403 -0.215 -0.573 0.791 139 139 149 0 0
-2.2883 5.5515 0.4380 -0.561 -0.523 -0.642 145 145 157 0 0
-2.2806 5.5440 0.4374 -0.561 -0.523 -0.642 146 146 158 0 0
-2.1854 5.6231 0.4451 0.573 -0.308 0.760 159 158 172 0 0
-1.6068 5.1986 0.4112 0.257 -0.929 -0.265 175 174 190 0 0
-1.5998 5.1974 0.4111 0.330 -0.934 -0.138 172 171 187 0 0
-1.5921 5.2028 0.4117 0.054 -0.988 0.148 185 184 200 0 0
-1.5751 5.2798 0.4186 0.028 -0.969 -0.244 196 195 211 0 0
-1.5680 5.2795 0.4186 0.077 -0.941 -0.329 175 174 188 0 0
-1.5695 5.2135 0.4128 0.440 -0.855 -0.275 175 174 188 0 0
-1.5618 5.2177 0.4132 0.637 -0.657 -0.403 198 197 213 0 0
-1.5079 5.2950 0.4204 0.295 -0.896 -0.331 133 131 142 0 0
-1.5003 5.2973 0.4207 0.161 -0.866 -0.474 134 133 139 0 0
-1.4225 5.4670 0.4363 -0.734 -0.666 -0.135 159 158 164 0 0
-1.4170 5.4539 0.4352 -0.085 -0.970 -0.229 158 157 163 0 0
-1.4096 5.4532 0.4352 -0.085 -0.970 -0.229 159 158 164 0 0
-1.3920 5.4679 0.4366 0.526 -0.791 -0.313 161 159 164 0 0
-1.3839 5.4710 0.4369 0.481 -0.816 -0.321 162 160 165 0 0
-1.3820 5.4371 0.4339 0.097 -0.977 -0.190 164 162 167 0 0
-1.2764 5.3965 0.4310 0.009 -0.716 -0.698 252 246 248 0 0
-1.2465 5.4711 0.4379 0.355 -0.898 -0.261 255 244 247 0 0
