ply
format ascii 1.0
element vertex 837
property float x
property float y
property float z
property float nx
property float ny
property float nz
property uchar diffuse_red
property uchar diffuse_green
property uchar diffuse_blue
property uchar class
property uchar detection
end_header
-2.0937 4.3855 1.1232 -0.996 0.049 0.072 155 145 144 0 0
-1.6131 5.4524 1.4996 0.399 -0.917 0.003 16 17 22 0 0
-1.4721 4.2441 1.1459 -0.390 -0.210 0.897 34 34 34 0 0
0.5729 6.3363 2.0006 -0.302 -0.267 0.915 51 51 54 0 0
-0.5042 4.0662 1.1941 -0.995 -0.012 0.100 255 253 254 0 0
-0.5058 4.0577 1.1913 -0.948 -0.131 0.289 255 253 254 0 0
-0.5145 4.0421 1.1856 -0.829 -0.289 0.479 255 253 254 0 0
-4.1221 6.6367 1.5872 -0.918 -0.371 -0.141 114 82 73 0 0
-4.0695 6.4543 1.5374 -0.892 -0.160 -0.423 105 75 65 0 0
-3.9433 6.5633 1.5838 -0.332 -0.903 0.272 109 70 63 0 0
-3.5961 5.0628 1.1651 -0.855 -0.518 -0.014 103 65 62 0 0
-3.5890 5.0503 1.1621 -0.880 -0.473 -0.037 104 67 64 0 0
-3.5809 5.0313 1.1572 -0.929 -0.370 0.010 107 70 67 0 0
-3.5721 5.0069 1.1507 -0.944 -0.302 -0.134 107 70 67 0 0
-3.5605 4.9645 1.1391 -0.072 -0.801 0.594 104 66 63 0 0
-3.5545 4.9574 1.1376 -0.804 -0.591 0.063 100 62 59 0 0
-3.5492 4.9554 1.1375 -0.699 -0.524 -0.487 99 61 57 0 0
-3.5448 4.9592 1.1391 -0.775 -0.594 -0.217 102 64 59 0 0
-3.5375 4.9436 1.1352 0.140 -0.763 -0.631 107 67 66 0 0
-3.5330 4.9469 1.1366 0.083 -0.803 -0.590 109 71 71 0 0
-3.5178 4.9454 1.1378 -0.952 -0.248 -0.179 115 92 88 0 0
-3.5087 4.9160 1.1298 -0.952 -0.221 -0.213 106 83 78 0 0
-3.4812 4.8593 1.1155 -0.721 -0.589 -0.366 105 71 69 0 0
-3.4256 4.8052 1.1049 -0.892 -0.264 -0.367 107 81 76 0 0
-3.4008 4.8002 1.1061 -0.739 -0.316 -0.595 95 61 59 0 0
-3.3959 4.7999 1.1065 -0.818 -0.229 -0.527 95 60 58 0 0
-3.3888 4.7800 1.1012 -0.734 -0.250 -0.632 98 60 59 0 0
-3.3837 4.7781 1.1012 -0.763 -0.211 -0.611 103 68 66 0 0
-3.3779 4.7685 1.0989 -0.908 -0.206 -0.366 126 94 91 0 0
-3.3716 4.7549 1.0954 -0.966 -0.212 -0.148 138 114 108 0 0
-3.3423 4.6538 1.0678 -0.921 -0.385 -0.058 98 61 60 0 0
-3.3335 4.6606 1.0708 0.170 -0.751 -0.638 99 65 63 0 0
-3.3277 4.6491 1.0679 0.082 -0.629 -0.773 100 64 64 0 0
-3.3248 4.6683 1.0741 0.247 -0.353 -0.903 104 68 68 0 0
-3.3151 4.6657 1.0743 -0.952 -0.235 -0.197 135 109 108 0 0
-3.3086 4.6461 1.0690 -0.970 -0.199 -0.139 132 115 112 0 0
-3.2893 4.5842 1.0523 -0.857 -0.362 -0.367 96 65 66 0 0
-3.2848 4.5856 1.0532 -0.589 -0.511 -0.627 92 57 59 0 0
-3.2682 4.6121 1.0630 -0.904 -0.244 -0.352 89 51 53 0 0
-3.3179 6.8777 1.7451 0.252 -0.274 -0.928 97 55 56 0 0
-2.9435 4.1585 0.9596 -0.800 -0.417 -0.431 96 55 56 0 0
-2.9154 4.1154 0.9494 -0.719 -0.549 -0.426 172 144 139 0 0
-2.9113 4.1110 0.9485 -0.648 -0.599 -0.471 150 135 123 0 0
-2.8037 4.4454 1.0613 0.923 -0.384 -0.019 146 164 145 0 0
-2.7734 4.4550 1.0674 0.582 -0.513 0.631 177 182 185 0 0
-2.7246 4.4960 1.0850 0.230 -0.525 0.820 183 186 201 0 0
-2.7189 4.5026 1.0876 0.230 -0.525 0.820 183 186 200 0 0
-2.7162 4.4808 1.0813 0.041 -0.983 0.177 182 186 200 0 0
-2.7118 4.4746 1.0799 -0.509 -0.857 0.086 182 186 198 0 0
-2.7071 4.4718 1.0795 -0.509 -0.857 0.086 182 185 197 0 0
-2.4768 4.4118 1.0856 -0.886 -0.428 0.179 159 158 164 0 0
-2.4732 4.4034 1.0834 -0.901 -0.419 0.108 157 156 162 0 0
-2.4694 4.3965 1.0817 -0.782 -0.554 0.285 157 156 162 0 0
-2.4661 4.3875 1.0793 -0.805 -0.590 -0.060 158 157 163 0 0
-2.4601 4.3919 1.0813 -0.348 -0.764 0.543 155 154 161 0 0
-1.9774 5.9262 1.5976 -0.806 -0.243 0.540 156 151 158 0 0
-1.8567 5.9824 1.6274 -0.267 -0.322 0.908 164 163 168 0 0
-1.8294 5.9604 1.6236 -0.728 -0.246 0.640 172 168 175 0 0
-1.8273 5.9376 1.6169 -0.763 -0.212 0.610 175 170 178 0 0
-1.8258 5.9131 1.6096 -0.760 -0.196 0.620 175 170 178 0 0
-1.5643 6.1044 1.6952 -0.463 -0.566 0.682 155 145 145 0 0
-1.5856 5.1677 1.4088 0.001 -0.715 -0.699 29 30 32 0 0
-1.7552 4.5707 1.2098 -0.550 -0.115 0.827 20 20 22 0 0
-1.7827 4.4909 1.1827 -0.363 -0.231 0.903 21 21 23 0 0
-0.9302 4.2260 1.1921 -0.666 -0.029 0.745 52 52 54 0 0
-0.9884 4.0168 1.1225 0.557 -0.664 -0.498 36 35 41 0 0
-0.5201 4.0365 1.1778 -0.793 -0.273 0.545 255 251 251 0 0
-4.1229 6.6411 1.5805 -0.918 -0.371 -0.141 114 81 72 0 0
-3.6659 5.1435 1.1765 -0.783 -0.324 -0.530 111 70 65 0 0
-3.6463 5.1196 1.1714 -0.305 -0.146 -0.941 110 66 63 0 0
-3.6271 5.0661 1.1573 0.739 -0.504 0.447 109 65 62 0 0
-3.6213 5.1242 1.1754 -0.694 -0.267 -0.669 110 68 64 0 0
-3.5889 5.0506 1.1566 -0.880 -0.473 -0.037 107 67 65 0 0
-3.5816 5.0365 1.1531 -0.925 -0.336 -0.179 108 70 67 0 0
-3.5596 4.9592 1.1321 -0.072 -0.801 0.594 106 68 65 0 0
-3.5554 4.9642 1.1340 -0.751 -0.645 -0.141 101 64 60 0 0
-3.5460 4.9684 1.1363 -0.768 -0.476 -0.427 104 65 61 0 0
-3.5337 4.9523 1.1327 -0.014 -0.772 -0.636 110 72 70 0 0
-3.5294 4.9571 1.1346 0.329 -0.680 -0.655 110 76 74 0 0
-3.5262 4.9696 1.1387 -0.912 -0.252 -0.324 114 85 82 0 0
-3.5177 4.9455 1.1323 -0.942 -0.260 -0.211 111 86 82 0 0
-3.4872 4.8678 1.1121 -0.783 -0.540 -0.309 108 75 72 0 0
-3.4817 4.8639 1.1115 -0.871 -0.279 -0.404 108 74 72 0 0
-3.3898 4.7899 1.0988 -0.839 -0.238 -0.489 98 61 60 0 0
-3.3847 4.7880 1.0987 -0.840 -0.210 -0.500 103 69 66 0 0
-3.3784 4.7744 1.0953 -0.939 -0.216 -0.268 123 93 90 0 0
-3.3713 4.7526 1.0895 -0.963 -0.235 -0.130 135 110 105 0 0
-3.3428 4.6598 1.0645 -0.891 -0.455 -0.010 100 60 60 0 0
-3.3386 4.6659 1.0667 -0.683 -0.649 -0.336 100 65 63 0 0
-3.3340 4.6664 1.0674 0.227 -0.828 -0.512 101 67 65 0 0
-3.3281 4.6541 1.0643 -0.063 -0.588 -0.806 103 65 66 0 0
-3.3155 4.6715 1.0708 -0.959 -0.249 -0.135 143 117 116 0 0
-3.3087 4.6485 1.0646 -0.973 -0.216 -0.085 131 115 112 0 0
-3.2885 4.5762 1.0449 -0.960 -0.279 0.000 94 63 64 0 0
-3.2876 4.6207 1.0585 -0.715 -0.548 -0.434 95 59 61 0 0
-3.2686 4.6183 1.0597 -0.913 -0.249 -0.325 87 54 55 0 0
-3.2700 6.5651 1.6469 -0.886 -0.018 -0.464 97 55 56 0 0
-2.9189 4.1304 0.9492 -0.874 -0.207 -0.440 165 124 124 0 0
-2.9111 4.1141 0.9451 -0.641 -0.541 -0.545 158 137 128 0 0
-2.7698 4.4396 1.0581 0.491 -0.537 0.686 174 179 181 0 0
-2.7120 4.4723 1.0740 -0.638 -0.743 0.204 183 187 199 0 0
-2.4881 4.4333 1.0857 -0.897 -0.434 0.083 167 166 171 0 0
-2.4731 4.4038 1.0784 -0.911 -0.404 0.082 165 164 170 0 0
-2.4693 4.3970 1.0767 -0.880 -0.473 0.029 166 165 171 0 0
-2.4657 4.3889 1.0747 -0.755 -0.655 0.027 167 166 172 0 0
-2.4607 4.3885 1.0751 -0.136 -0.906 0.402 164 163 169 0 0
-1.8576 5.9475 1.6087 -0.703 -0.652 0.283 158 157 163 0 0
-1.6791 5.9582 1.6306 0.073 -0.381 0.922 161 156 156 0 0
-1.9657 4.4294 1.1393 0.463 -0.881 0.101 22 22 25 0 0
-1.6007 5.1850 1.4055 0.197 -0.378 -0.904 33 33 33 0 0
-1.7280 4.6658 1.2355 -0.513 -0.125 0.849 20 20 22 0 0
-1.7751 4.5377 1.1920 -0.550 -0.115 0.827 20 20 22 0 0
-1.8151 4.0991 1.0554 -0.153 -0.386 0.910 25 25 27 0 0
-1.0618 5.4463 1.5409 0.496 -0.547 -0.675 33 33 35 0 0
-1.0513 4.6477 1.3010 -0.536 -0.770 -0.345 39 40 42 0 0
-0.9907 4.1483 1.1567 -0.904 -0.414 -0.106 53 53 55 0 0
-4.0838 6.5241 1.5414 -0.915 -0.167 -0.367 105 76 66 0 0
-4.1856 7.5292 1.8323 0.222 -0.679 0.700 111 78 71 0 0
-3.6647 5.1369 1.1689 -0.639 -0.761 -0.108 109 69 62 0 0
-3.6581 5.1290 1.1672 -0.788 -0.614 -0.055 109 68 62 0 0
-3.6548 5.1397 1.1708 -0.798 -0.474 -0.372 109 68 62 0 0
-3.6480 5.1299 1.1686 -0.794 -0.496 -0.351 108 67 61 0 0
-3.6326 5.1001 1.1612 -0.116 -0.409 -0.905 111 67 64 0 0
-3.5856 5.0630 1.1550 -0.754 -0.172 -0.635 109 70 65 0 0
-3.5467 4.9736 1.1322 -0.729 -0.482 -0.486 104 65 61 0 0
-3.5343 4.9573 1.1286 -0.177 -0.691 -0.701 111 72 70 0 0
-3.5291 4.9557 1.1287 0.201 -0.746 -0.635 111 77 75 0 0
-3.5036 4.9163 1.1195 -0.888 -0.248 -0.387 105 76 72 0 0
-3.4983 4.9142 1.1194 -0.564 -0.367 -0.740 107 75 72 0 0
-3.4881 4.8754 1.1089 -0.608 -0.793 -0.036 109 74 71 0 0
-3.4768 4.8643 1.1067 -0.579 -0.777 0.248 104 70 68 0 0
-3.6975 7.0783 1.7480 -0.603 -0.179 -0.777 107 78 74 0 0
-3.4024 4.8168 1.1002 -0.677 -0.662 0.323 96 62 61 0 0
-3.3788 4.7794 1.0915 -0.952 -0.222 -0.213 120 89 87 0 0
-3.3715 4.7560 1.0852 -0.963 -0.235 -0.130 134 109 105 0 0
-3.3388 4.6683 1.0623 -0.683 -0.649 -0.336 100 65 62 0 0
-3.3336 4.6630 1.0613 -0.853 -0.523 0.002 101 68 64 0 0
-3.3157 4.6744 1.0666 -0.959 -0.249 -0.135 145 119 116 0 0
-3.3089 4.6518 1.0605 -0.966 -0.252 -0.053 127 110 106 0 0
-3.2874 4.5636 1.0363 -0.903 -0.344 0.258 95 63 64 0 0
-3.2877 4.6241 1.0544 -0.715 -0.548 -0.434 94 58 59 0 0
-2.9432 4.1647 0.9525 -0.556 -0.545 -0.627 95 55 55 0 0
-2.9148 4.1243 0.9433 -0.829 -0.284 -0.482 176 139 138 0 0
-2.9109 4.1173 0.9417 -0.641 -0.541 -0.545 166 141 133 0 0
-2.9067 4.1151 0.9414 -0.415 -0.512 -0.752 141 131 116 0 0
-2.8033 4.4480 1.0521 0.918 -0.382 -0.103 144 162 143 0 0
-2.7766 4.4171 1.0456 0.661 -0.623 0.417 167 172 172 0 0
-2.7712 4.4233 1.0480 0.599 -0.552 0.579 170 176 175 0 0
-2.7653 4.4343 1.0519 0.358 -0.564 0.744 173 178 179 0 0
-2.6425 4.4241 1.0617 0.434 -0.891 0.135 178 180 192 0 0
-2.6371 4.4273 1.0632 0.276 -0.912 0.304 179 181 193 0 0
-2.4807 4.4173 1.0765 -0.892 -0.443 0.085 176 175 181 0 0
-2.4769 4.4103 1.0748 -0.926 -0.378 0.007 175 174 180 0 0
-2.4732 4.4029 1.0730 -0.911 -0.404 0.082 173 172 178 0 0
-2.4693 4.3966 1.0715 -0.880 -0.473 0.029 175 174 181 0 0
-2.4657 4.3886 1.0695 -0.755 -0.655 0.027 178 177 184 0 0
-2.4604 4.3895 1.0703 -0.160 -0.872 0.462 175 174 180 0 0
-2.4561 4.3853 1.0695 0.006 -0.954 0.300 159 158 165 0 0
-1.8597 5.9389 1.5978 -0.268 -0.845 0.463 156 155 161 0 0
-1.8523 5.9359 1.5977 -0.249 -0.828 0.502 156 155 161 0 0
-1.8467 5.9260 1.5953 -0.461 -0.500 0.733 156 155 163 0 0
-1.8400 5.8903 1.5853 -0.691 -0.258 0.676 160 157 167 0 0
-1.8340 5.8237 1.5659 -0.713 -0.235 0.660 163 160 169 0 0
-1.8274 5.8184 1.5651 -0.609 -0.310 0.730 166 163 172 0 0
-1.7082 5.8357 1.5827 0.069 -0.377 0.924 169 163 167 0 0
-1.5616 5.1542 1.3935 -0.717 -0.618 -0.321 18 19 21 0 0
-1.9056 4.0174 1.0166 -1.000 -0.014 -0.006 31 31 33 0 0
-1.4356 4.7852 1.2959 0.715 -0.699 -0.006 25 25 27 0 0
-1.0528 4.6565 1.2972 -0.166 -0.819 -0.550 41 42 45 0 0
-1.0477 4.6534 1.2969 -0.914 -0.361 -0.187 38 39 41 0 0
-3.5822 5.0745 1.1531 -0.671 -0.036 -0.741 108 71 65 0 0
-3.5607 4.9680 1.1236 0.681 -0.724 0.106 106 70 64 0 0
-3.5574 4.9790 1.1272 0.716 -0.696 0.054 103 68 62 0 0
-3.5302 4.9644 1.1257 0.236 -0.478 -0.846 109 75 73 0 0
-3.4762 4.8608 1.1004 -0.761 -0.626 0.170 105 70 68 0 0
-3.7310 7.0847 1.7374 -0.805 -0.234 -0.545 102 67 65 0 0
-3.4019 4.8134 1.0939 -0.523 -0.675 0.520 98 63 62 0 0
-3.3793 4.7851 1.0878 -0.952 -0.222 -0.213 118 87 85 0 0
-3.3718 4.7594 1.0810 -0.963 -0.235 -0.130 133 108 104 0 0
-3.3435 4.6697 1.0571 -0.904 -0.376 -0.203 100 58 59 0 0
-3.3394 4.6753 1.0592 -0.710 -0.584 -0.393 99 64 60 0 0
-3.3335 4.6633 1.0563 -0.722 -0.681 0.120 100 66 62 0 0
-3.3288 4.6637 1.0569 -0.160 -0.562 -0.811 100 64 62 0 0
-3.3218 4.6907 1.0657 -0.689 -0.262 -0.676 122 90 88 0 0
-3.3158 4.6774 1.0623 -0.959 -0.249 -0.135 139 112 109 0 0
-3.3090 4.6532 1.0558 -0.958 -0.277 -0.069 120 101 97 0 0
-3.2973 4.6274 1.0493 0.395 -0.815 0.424 99 72 71 0 0
-3.2514 6.5049 1.6142 -0.878 -0.040 -0.478 98 56 57 0 0
-2.9958 4.7819 1.1267 0.482 -0.608 0.631 98 52 57 0 0
-2.9429 4.1695 0.9495 -0.270 -0.380 -0.885 95 55 55 0 0
-2.9065 4.1184 0.9380 -0.562 -0.579 -0.591 148 132 121 0 0
-2.8461 4.3875 1.0246 -0.966 0.031 -0.256 124 139 113 0 0
-2.7766 4.4170 1.0406 0.722 -0.683 -0.114 167 171 170 0 0
-2.7657 4.4289 1.0453 0.260 -0.908 0.329 170 174 173 0 0
-2.7608 4.4289 1.0458 0.028 -0.886 0.463 171 175 176 0 0
-2.7554 4.4349 1.0481 -0.023 -0.744 0.668 173 177 178 0 0
-2.7503 4.4366 1.0492 -0.072 -0.624 0.778 174 178 181 0 0
-2.5102 4.4833 1.0880 -0.872 -0.364 -0.327 178 179 184 0 0
-2.4879 4.4336 1.0755 -0.914 -0.380 -0.143 178 177 183 0 0
-2.4844 4.4249 1.0733 -0.909 -0.400 -0.115 179 178 184 0 0
-2.4806 4.4176 1.0715 -0.914 -0.380 -0.143 178 177 183 0 0
-2.4770 4.4098 1.0695 -0.917 -0.374 -0.140 178 177 183 0 0
-2.4733 4.4020 1.0676 -0.911 -0.404 0.082 178 177 183 0 0
-2.4693 4.3963 1.0663 -0.880 -0.473 0.029 181 180 188 0 0
-2.4657 4.3883 1.0643 -0.733 -0.679 0.034 186 185 193 0 0
-2.4612 4.3852 1.0638 -0.184 -0.949 0.258 188 187 195 0 0
-2.4551 4.3899 1.0659 0.406 -0.750 0.522 165 164 172 0 0
-1.8582 5.7940 1.5467 -0.169 -0.475 0.864 155 154 162 0 0
-1.8066 5.8061 1.5557 -0.303 -0.678 0.669 162 159 166 0 0
-1.7767 5.8535 1.5729 -0.413 -0.025 -0.911 165 162 169 0 0
-1.7727 5.8388 1.5690 -0.688 0.043 -0.724 167 164 171 0 0
-1.7707 5.8181 1.5630 -0.804 0.073 -0.590 169 166 173 0 0
-1.7657 5.8073 1.5603 -0.845 0.101 -0.525 171 166 174 0 0
-1.7644 5.7846 1.5537 -0.845 0.100 -0.526 172 167 175 0 0
-1.7620 5.7654 1.5482 -0.854 0.078 -0.514 173 167 177 0 0
-1.7515 5.6945 1.5281 -0.956 -0.071 -0.283 174 170 176 0 0
-1.7416 5.7008 1.5310 0.026 -0.385 0.923 173 171 174 0 0
-1.7296 5.7138 1.5361 0.034 -0.377 0.926 174 169 173 0 0
-1.5602 5.1575 1.3878 -0.049 -0.578 -0.815 19 20 22 0 0
-1.7667 4.4300 1.1493 0.061 -0.384 0.921 28 29 31 0 0
-1.7506 4.4531 1.1579 0.061 -0.384 0.921 25 25 27 0 0
-1.4184 4.8060 1.2976 0.709 -0.694 0.128 25 25 27 0 0
-1.0551 4.6642 1.2930 -0.641 -0.637 -0.427 42 43 47 0 0
-1.0500 4.6609 1.2926 -0.434 -0.775 -0.460 41 42 45 0 0
-1.0469 4.6546 1.2910 -0.914 -0.361 -0.187 37 38 40 0 0
0.4465 6.1230 1.8841 -0.565 -0.013 0.825 50 50 52 0 0
-4.0486 6.4234 1.4994 -0.915 -0.167 -0.367 101 68 61 0 0
-3.6547 5.1406 1.1596 -0.843 -0.535 -0.059 108 70 62 0 0
-3.6205 5.0595 1.1390 -0.554 -0.531 0.641 110 68 63 0 0
-3.6184 5.1403 1.1632 -0.355 -0.013 -0.935 110 67 60 0 0
-3.5430 4.9839 1.1246 0.135 -0.536 -0.833 109 67 64 0 0
-3.5368 4.9761 1.1229 -0.457 -0.567 -0.685 108 69 67 0 0
-3.5313 4.9726 1.1225 -0.680 -0.537 -0.499 106 72 70 0 0
-3.5251 4.9648 1.1208 -0.851 -0.410 -0.330 106 73 70 0 0
-3.5186 4.9540 1.1183 -0.826 -0.452 -0.336 104 73 70 0 0
-3.5120 4.9428 1.1156 -0.861 -0.410 -0.301 103 73 69 0 0
-3.5078 4.9485 1.1177 -0.607 -0.475 -0.637 104 72 67 0 0
-3.4758 4.8587 1.0944 -0.761 -0.626 0.170 105 70 68 0 0
-3.4701 4.8526 1.0932 -0.264 -0.956 0.129 102 68 66 0 0
-3.4202 4.8040 1.0839 -0.339 -0.645 0.685 106 72 70 0 0
-3.4020 4.8147 1.0890 0.038 -0.609 0.792 100 64 64 0 0
-3.3723 4.7654 1.0774 -0.967 -0.223 -0.122 132 107 105 0 0
-3.3437 4.6724 1.0528 -0.904 -0.376 -0.203 101 61 61 0 0
-3.3396 4.6788 1.0551 -0.681 -0.548 -0.485 102 65 61 0 0
-3.3269 4.6957 1.0614 -0.481 -0.305 -0.822 108 73 71 0 0
-3.3222 4.6959 1.0620 -0.703 -0.257 -0.663 121 87 86 0 0
-3.3157 4.6771 1.0571 -0.954 -0.263 -0.146 129 99 97 0 0
-3.3083 4.6469 1.0489 -0.913 -0.407 0.028 113 90 86 0 0
-3.2421 6.4710 1.5969 -0.935 -0.091 -0.344 99 57 58 0 0
-2.9427 4.1754 0.9468 -0.277 -0.394 -0.877 96 54 55 0 0
-2.9259 4.1628 0.9448 -0.767 -0.364 -0.529 112 63 66 0 0
-2.9141 4.1363 0.9381 -0.858 -0.220 -0.464 173 131 132 0 0
-2.9062 4.1237 0.9352 -0.481 -0.626 -0.614 156 136 126 0 0
-2.8887 4.1297 0.9388 -0.006 -0.734 -0.679 114 131 104 0 0
-2.7764 4.4183 1.0360 0.660 -0.690 -0.297 167 172 170 0 0
-2.7665 4.4199 1.0375 0.148 -0.988 0.045 171 174 172 0 0
-2.7611 4.4256 1.0397 0.078 -0.877 0.473 171 174 173 0 0
-2.7558 4.4295 1.0414 -0.032 -0.788 0.615 171 175 173 0 0
-2.7459 4.4299 1.0426 -0.070 -0.667 0.742 172 176 178 0 0
-2.6537 4.4522 1.0587 0.226 -0.473 0.852 182 184 195 0 0
-2.5006 4.4204 1.0651 -0.170 -0.308 -0.936 179 178 183 0 0
-2.4973 4.4109 1.0626 0.134 -0.991 -0.003 179 178 184 0 0
-2.4877 4.4347 1.0707 -0.914 -0.380 -0.143 179 178 184 0 0
-2.4842 4.4258 1.0684 -0.909 -0.400 -0.115 180 179 185 0 0
-2.4805 4.4180 1.0665 -0.909 -0.400 -0.115 180 179 185 0 0
-2.4768 4.4104 1.0646 -0.919 -0.353 -0.175 179 178 185 0 0
-2.4733 4.4019 1.0624 -0.900 -0.426 0.089 180 179 185 0 0
-2.4692 4.3961 1.0611 -0.901 -0.434 0.011 183 183 191 0 0
-2.4701 4.3657 1.0520 0.654 -0.672 0.347 187 187 195 0 0
-2.4634 4.3739 1.0551 0.654 -0.672 0.347 193 192 200 0 0
-2.4566 4.3821 1.0583 0.654 -0.672 0.347 180 179 187 0 0
-1.8524 5.9346 1.5813 -0.108 -0.752 0.650 155 154 160 0 0
-1.8530 5.8422 1.5538 -0.617 -0.311 0.723 154 153 161 0 0
-1.8486 5.7423 1.5246 0.045 -0.448 0.893 155 154 160 0 0
-1.8036 5.7881 1.5428 -0.238 -0.443 0.864 158 155 162 0 0
-1.7558 5.8683 1.5716 -0.988 0.098 -0.119 162 159 166 0 0
-1.7576 5.8070 1.5532 -0.982 0.067 -0.179 164 159 169 0 0
-1.7560 5.7850 1.5468 -0.993 0.039 -0.113 165 160 170 0 0
-1.7554 5.7602 1.5395 -0.986 0.026 -0.162 164 161 170 0 0
-1.7496 5.7530 1.5380 -0.837 0.095 -0.538 167 164 172 0 0
-1.7488 5.7292 1.5310 -0.844 0.090 -0.529 168 167 172 0 0
-1.7249 5.6522 1.5107 -0.997 -0.082 0.011 171 169 174 0 0
-1.7197 5.6438 1.5087 -0.983 -0.171 -0.069 172 168 174 0 0
-1.6364 5.5168 1.4796 -0.518 -0.571 0.637 33 27 34 0 0
-1.5717 5.3361 1.4327 -0.888 -0.249 -0.386 36 34 35 0 0
-1.9278 3.9570 0.9868 -0.958 -0.239 0.158 31 31 34 0 0
-1.3976 4.8059 1.2934 0.141 -0.953 0.266 23 25 27 0 0
-1.0537 4.6664 1.2875 -0.641 -0.637 -0.427 41 42 46 0 0
-1.0490 4.6624 1.2868 -0.648 -0.644 -0.406 39 40 43 0 0
-0.0961 5.5467 1.6476 0.151 -0.516 0.843 49 48 53 0 0
0.3965 6.0568 1.8498 -0.508 -0.050 0.860 46 47 50 0 0
0.1928 4.8384 1.4673 0.047 -0.501 0.864 229 231 230 0 0
0.2123 4.8492 1.4725 0.047 -0.501 0.864 243 243 243 0 0
-3.5360 4.9712 1.1160 -0.877 -0.476 -0.071 109 69 65 0 0
-3.5295 4.9613 1.1138 -0.888 -0.452 -0.086 107 71 68 0 0
-3.5254 4.9671 1.1159 -0.899 -0.387 -0.205 106 72 70 0 0
-3.5190 4.9577 1.1138 -0.851 -0.410 -0.330 105 71 69 0 0
-3.5122 4.9447 1.1107 -0.859 -0.394 -0.328 104 70 67 0 0
-3.5035 4.9185 1.1038 -0.533 -0.725 0.435 103 70 65 0 0
-3.4850 4.8916 1.0978 -0.857 -0.511 -0.069 106 67 65 0 0
-3.4754 4.8562 1.0883 -0.772 -0.634 0.034 104 69 67 0 0
-3.4705 4.8559 1.0888 0.024 -0.953 -0.300 103 68 67 0 0
-3.4245 4.7999 1.0770 -0.481 -0.621 0.618 103 71 69 0 0
-3.4190 4.7943 1.0759 -0.484 -0.580 0.656 104 69 68 0 0
-3.4043 4.7935 1.0772 0.076 -0.581 0.810 104 64 65 0 0
-3.3725 4.7688 1.0731 -0.967 -0.223 -0.122 134 106 105 0 0
-3.3439 4.6752 1.0485 -0.904 -0.376 -0.203 103 63 63 0 0
-3.3398 4.6817 1.0508 -0.787 -0.527 -0.320 104 66 63 0 0
-3.3274 4.7015 1.0579 -0.600 -0.332 -0.728 110 75 73 0 0
-3.3203 4.6759 1.0511 -0.943 -0.317 0.103 118 83 82 0 0
-3.3159 4.6801 1.0528 -0.954 -0.263 -0.146 118 87 86 0 0
-3.3082 4.6470 1.0438 -0.906 -0.423 -0.012 108 79 77 0 0
-3.3031 4.6427 1.0431 -0.877 -0.450 -0.169 106 79 76 0 0
-3.2819 4.6135 1.0366 0.294 -0.741 0.604 94 63 61 0 0
-3.2767 4.6071 1.0353 -0.886 -0.464 0.000 86 60 58 0 0
-3.2579 4.6067 1.0371 -0.808 -0.138 -0.572 80 60 59 0 0
-3.2543 6.5779 1.6189 -0.950 -0.057 -0.306 95 53 54 0 0
-3.0569 4.6425 1.0683 -0.301 -0.762 0.574 97 53 54 0 0
-2.9382 4.1765 0.9431 -0.559 -0.428 -0.710 98 54 55 0 0
-2.9138 4.1414 0.9352 -0.862 -0.225 -0.454 171 126 128 0 0
-2.9100 4.1308 0.9325 -0.623 -0.541 -0.565 178 142 140 0 0
-2.9059 4.1272 0.9318 -0.493 -0.658 -0.569 165 141 134 0 0
-2.9018 4.1239 0.9313 -0.552 -0.627 -0.549 140 129 115 0 0
-2.8884 4.1352 0.9360 0.273 -0.952 -0.136 115 132 104 0 0
-2.7613 4.4223 1.0338 0.078 -0.877 0.473 172 174 171 0 0
-2.7562 4.4247 1.0350 0.015 -0.746 0.666 172 174 171 0 0
-2.7514 4.4233 1.0351 -0.029 -0.733 0.680 171 173 172 0 0
-2.7464 4.4247 1.0360 0.030 -0.679 0.734 172 173 173 0 0
-2.7415 4.4241 1.0363 -0.149 -0.694 0.705 174 175 176 0 0
-2.6569 4.3893 1.0347 -0.670 -0.708 -0.223 182 185 194 0 0
-2.6500 4.3669 1.0288 -0.842 -0.316 -0.437 180 183 192 0 0
-2.6425 4.3856 1.0351 -0.725 -0.448 0.523 181 184 193 0 0
-2.4981 4.4338 1.0642 0.161 -0.696 -0.700 178 179 184 0 0
-2.4998 4.3696 1.0451 0.200 -0.918 -0.343 179 178 184 0 0
-2.4946 4.3701 1.0458 -0.019 -0.926 -0.376 180 179 185 0 0
-2.4865 4.3858 1.0512 0.405 -0.913 -0.044 181 180 186 0 0
-2.4767 4.4102 1.0594 -0.864 -0.393 0.313 180 180 188 0 0
-2.4742 4.3704 1.0479 0.472 -0.872 -0.129 183 183 191 0 0
-2.4709 4.3612 1.0456 0.678 -0.666 0.312 187 187 195 0 0
-2.4641 4.3699 1.0488 0.684 -0.655 0.321 195 195 203 0 0
-2.4503 4.3874 1.0554 0.640 -0.690 0.337 169 168 176 0 0
-1.7963 5.7851 1.5349 -0.025 -0.565 0.825 156 154 159 0 0
-1.7564 5.7836 1.5386 -1.000 0.019 0.019 158 155 166 0 0
-1.7497 5.7523 1.5300 -0.995 -0.088 -0.052 159 156 165 0 0
-1.7461 5.7376 1.5261 -0.988 -0.056 -0.145 160 159 165 0 0
-1.7287 5.7160 1.5215 -0.716 0.043 -0.696 163 162 168 0 0
-1.7260 5.6988 1.5167 -0.862 0.089 -0.499 164 163 169 0 0
-1.7223 5.6851 1.5130 -0.875 0.106 -0.473 166 165 171 0 0
-1.7017 5.4613 1.4491 -0.655 -0.537 0.531 138 133 139 0 0
-1.6911 5.4701 1.4528 -0.256 -0.603 0.755 127 122 128 0 0
-1.6394 5.5079 1.4693 -0.518 -0.571 0.637 68 61 68 0 0
-1.6338 5.5015 1.4679 -0.729 -0.570 0.380 58 52 56 0 0
-1.6295 5.4918 1.4655 -0.817 -0.545 0.187 47 41 43 0 0
-1.6241 5.4850 1.4641 -0.841 -0.492 0.225 37 33 34 0 0
-1.6194 5.4763 1.4620 -0.874 -0.484 0.054 32 28 29 0 0
-1.9051 4.1871 1.0523 -0.345 -0.228 0.910 25 26 28 0 0
-1.8331 4.2773 1.0864 0.455 -0.611 0.648 22 23 25 0 0
-1.3966 4.8218 1.2918 0.630 -0.692 0.352 21 22 24 0 0
-0.8683 5.1959 1.4565 -0.480 -0.301 -0.824 27 27 29 0 0
-0.8571 5.2011 1.4591 0.192 -0.684 -0.703 27 27 29 0 0
0.3376 6.3599 1.9238 -0.014 -0.155 -0.988 33 33 35 0 0
-0.1935 5.5172 1.6206 0.085 -0.561 0.823 39 39 41 0 0
0.3857 6.0715 1.8436 -0.554 -0.021 0.832 44 45 49 0 0
0.6895 6.2168 1.9177 -0.929 -0.150 0.337 52 52 54 0 0
0.5624 5.6637 1.7415 -0.824 -0.290 0.486 70 73 80 0 0
0.5600 5.6488 1.7369 -0.782 -0.445 0.436 69 69 76 0 0
0.5706 5.6489 1.7380 0.105 -0.909 0.403 63 63 71 0 0
0.0496 4.7534 1.4203 0.331 -0.900 0.285 216 208 207 0 0
0.1812 4.7903 1.4447 0.263 -0.666 0.698 249 249 249 0 0
-0.2258 4.3078 1.2605 0.522 -0.302 -0.797 118 123 122 0 0
-4.0604 6.4819 1.5000 -0.944 -0.215 -0.251 105 71 62 0 0
-3.5296 4.9628 1.1087 -0.879 -0.339 -0.335 107 71 67 0 0
-3.5230 4.9517 1.1061 -0.837 -0.491 0.241 105 72 67 0 0
-3.5162 4.9384 1.1029 -0.837 -0.491 0.241 104 71 66 0 0
-3.4951 4.9674 1.1136 -0.293 -0.640 0.710 106 66 64 0 0
-3.4757 4.8591 1.0838 -0.851 -0.493 -0.180 104 68 65 0 0
-3.4288 4.7967 1.0703 -0.619 -0.579 0.531 100 69 67 0 0
-3.3728 4.7723 1.0689 -0.967 -0.223 -0.122 134 106 104 0 0
-3.3443 4.6808 1.0449 -0.906 -0.402 -0.137 103 65 64 0 0
-3.3399 4.6843 1.0464 -0.794 -0.535 -0.288 106 68 65 0 0
-3.3280 4.7088 1.0548 -0.519 -0.393 -0.759 109 74 72 0 0
-3.3202 4.6765 1.0461 -0.933 -0.320 0.167 113 77 77 0 0
-3.3081 4.6473 1.0388 -0.916 -0.395 0.072 106 74 72 0 0
-3.3032 4.6447 1.0385 -0.877 -0.403 -0.263 107 75 74 0 0
-3.2893 4.6479 1.0409 0.784 -0.585 -0.210 100 67 65 0 0
-3.2647 4.6366 1.0401 -0.737 -0.080 -0.671 64 46 44 0 0
-3.2587 4.6182 1.0353 -0.808 -0.138 -0.572 70 52 50 0 0
-3.2525 4.5986 1.0302 -0.876 -0.136 -0.462 87 69 67 0 0
-3.2340 6.4691 1.5807 -0.934 -0.158 -0.320 96 55 56 0 0
-3.2095 6.4299 1.5717 0.398 -0.312 -0.863 92 51 52 0 0
-3.0518 4.6357 1.0616 -0.151 -0.903 0.402 98 54 55 0 0
-3.0469 4.6307 1.0607 -0.215 -0.959 0.186 96 53 54 0 0
-2.9862 4.7015 1.0876 0.451 -0.537 -0.713 99 54 56 0 0
-2.9097 4.1353 0.9294 -0.793 -0.350 -0.498 179 140 140 0 0
-2.9057 4.1297 0.9282 -0.594 -0.622 -0.510 172 143 139 0 0
-2.9016 4.1263 0.9276 -0.594 -0.622 -0.510 146 131 120 0 0
-2.8844 4.1272 0.9296 -0.769 -0.620 0.156 114 132 103 0 0
-2.8434 4.4255 1.0213 -0.985 0.021 -0.173 120 134 109 0 0
-2.8264 4.4615 1.0336 0.909 -0.413 -0.055 122 141 108 0 0
-2.7708 4.4245 1.0284 0.315 -0.948 -0.052 168 172 169 0 0
-2.6614 4.3919 1.0300 -0.511 -0.797 0.322 181 184 191 0 0
-2.6571 4.3867 1.0289 -0.571 -0.763 -0.303 182 185 191 0 0
-2.6539 4.3740 1.0256 -0.106 -0.632 0.768 182 185 192 0 0
-2.6422 4.3870 1.0306 -0.550 -0.643 0.534 182 185 193 0 0
-2.6398 4.3688 1.0255 -0.717 -0.665 0.210 182 184 193 0 0
-2.6355 4.3642 1.0246 -0.325 -0.906 -0.271 181 183 194 0 0
-2.6285 4.3787 1.0295 -0.742 -0.548 0.386 180 182 193 0 0
-2.4740 4.3713 1.0431 0.472 -0.872 -0.129 182 182 190 0 0
-2.4688 4.3715 1.0437 0.500 -0.826 -0.261 185 185 193 0 0
-2.4580 4.3743 1.0457 0.681 -0.651 0.335 199 199 207 0 0
-2.4506 4.3854 1.0497 0.667 -0.647 0.370 184 183 191 0 0
-1.7466 5.7357 1.5177 -0.913 -0.405 0.044 155 154 162 0 0
-1.7405 5.7295 1.5165 -0.634 -0.576 0.516 156 155 163 0 0
-1.7051 5.4509 1.4384 -0.790 -0.466 0.399 171 166 173 0 0
-1.6970 5.4524 1.4397 -0.250 -0.525 0.813 167 162 169 0 0
-1.6568 5.5247 1.4650 -0.703 -0.616 0.356 158 151 159 0 0
-1.6514 5.5177 1.4635 -0.703 -0.616 0.356 149 142 150 0 0
-1.6460 5.5109 1.4621 -0.801 -0.591 0.092 137 130 138 0 0
-1.6408 5.5036 1.4604 -0.801 -0.591 0.092 129 123 130 0 0
-1.6356 5.4963 1.4588 -0.801 -0.591 0.092 118 112 116 0 0
-1.6196 5.4756 1.4544 -0.884 -0.380 -0.271 79 74 76 0 0
-1.4973 5.3887 1.4414 -0.041 -0.548 0.836 30 27 30 0 0
-1.4997 5.3251 1.4225 -0.375 -0.836 0.400 24 23 25 0 0
-1.4008 4.8132 1.2825 0.630 -0.692 0.352 22 22 24 0 0
0.6775 6.2161 1.9065 -0.752 -0.477 0.456 53 52 57 0 0
0.8346 6.2374 1.9288 0.491 -0.868 0.077 36 35 40 0 0
0.5688 5.6468 1.7284 0.086 -0.930 0.357 64 64 72 0 0
0.7859 5.8443 1.8085 -0.329 -0.942 0.066 49 57 67 0 0
-3.5223 4.9474 1.0994 -0.760 -0.538 0.364 105 71 66 0 0
-3.5164 4.9412 1.0982 -0.833 -0.417 0.363 104 69 65 0 0
-3.5107 4.9360 1.0973 0.641 -0.657 0.396 103 68 64 0 0
-3.5061 4.9385 1.0985 0.621 -0.750 0.228 102 67 63 0 0
-3.5015 4.9413 1.0998 0.765 -0.644 -0.020 105 66 63 0 0
-3.4975 4.9488 1.1024 0.810 -0.582 -0.074 108 65 63 0 0
-3.4890 4.9229 1.0957 -0.484 -0.236 -0.843 108 66 64 0 0
-3.4831 4.9161 1.0943 -0.461 -0.154 -0.874 104 67 64 0 0
-3.4225 4.7852 1.0623 -0.533 -0.643 0.549 100 69 64 0 0
-3.4164 4.7742 1.0597 -0.547 -0.618 0.565 102 67 64 0 0
-3.4125 4.7821 1.0624 0.072 -0.876 0.477 103 65 62 0 0
-3.4095 4.7978 1.0673 -0.653 -0.266 -0.709 104 64 64 0 0
-3.3929 4.8244 1.0767 -0.827 -0.385 -0.409 97 57 58 0 0
-3.3739 4.7835 1.0667 -0.973 -0.199 -0.119 134 104 102 0 0
-3.3444 4.6825 1.0403 -0.906 -0.402 -0.137 103 65 64 0 0
-3.3400 4.6856 1.0417 -0.821 -0.531 -0.212 106 68 65 0 0
-3.3196 4.6713 1.0395 -0.938 -0.301 0.172 110 73 73 0 0
-3.3129 4.6485 1.0336 -0.902 -0.355 0.246 110 72 72 0 0
-3.2976 4.6356 1.0314 -0.045 -0.666 -0.745 107 72 70 0 0
-3.2655 4.6477 1.0382 -0.671 -0.064 -0.739 62 44 42 0 0
-3.2593 4.6286 1.0332 -0.795 -0.113 -0.596 58 42 39 0 0
-3.2535 4.6130 1.0293 -0.812 -0.114 -0.573 73 57 54 0 0
-3.2468 4.5856 1.0219 -0.907 -0.102 -0.408 91 73 71 0 0
-3.2449 6.5491 1.5947 -0.962 -0.079 -0.261 97 57 57 0 0
-3.2343 6.4808 1.5759 -0.934 -0.158 -0.320 96 56 56 0 0
-3.0746 4.8849 1.1268 -0.884 -0.247 -0.398 97 53 54 0 0
-3.0468 4.6331 1.0562 -0.204 -0.974 -0.098 94 52 51 0 0
-2.9861 4.7059 1.0836 0.508 -0.562 -0.653 99 54 56 0 0
-2.9423 4.1802 0.9347 0.028 -0.877 0.480 98 53 54 0 0
-2.9095 4.1393 0.9261 -0.793 -0.350 -0.498 180 138 139 0 0
-2.9055 4.1325 0.9245 -0.594 -0.622 -0.510 175 143 139 0 0
-2.9014 4.1290 0.9240 -0.594 -0.622 -0.510 151 133 123 0 0
-2.8845 4.1241 0.9242 -0.582 -0.650 -0.489 115 133 103 0 0
-2.7545 4.3899 1.0150 -0.824 -0.482 0.297 170 172 169 0 0
-2.7376 4.4124 1.0232 -0.424 -0.695 0.581 170 173 170 0 0
-2.7331 4.4087 1.0226 -0.499 -0.655 0.568 169 174 170 0 0
-2.7286 4.4047 1.0219 -0.499 -0.655 0.568 170 175 171 0 0
-2.7246 4.3965 1.0199 -0.295 -0.556 0.777 169 174 170 0 0
-2.6616 4.3898 1.0244 -0.511 -0.797 0.322 180 183 187 0 0
-2.6565 4.3912 1.0253 -0.343 -0.833 0.434 180 183 188 0 0
-2.6518 4.3892 1.0252 -0.343 -0.833 0.434 181 184 189 0 0
-2.6473 4.3859 1.0247 -0.403 -0.764 0.503 182 185 192 0 0
-2.6393 4.3717 1.0214 -0.533 -0.805 -0.260 181 184 191 0 0
-2.6351 4.3667 1.0204 -0.279 -0.831 -0.480 180 183 192 0 0
-2.6289 4.3757 1.0236 -0.666 -0.698 0.262 180 183 192 0 0
-2.6249 4.3691 1.0221 -0.162 -0.529 0.833 180 182 194 0 0
-2.4754 4.5272 1.0834 -0.766 -0.451 -0.458 177 178 183 0 0
-2.4736 4.3728 1.0386 0.501 -0.837 -0.219 181 181 189 0 0
-2.4691 4.3698 1.0381 0.602 -0.758 -0.250 184 184 192 0 0
-2.4655 4.3619 1.0362 0.695 -0.651 0.306 192 192 200 0 0
-2.4588 4.3703 1.0393 0.681 -0.651 0.335 200 200 208 0 0
-1.7885 5.7562 1.5117 -0.720 -0.149 0.678 156 154 159 0 0
-1.7912 5.7200 1.5009 -0.720 -0.149 0.678 155 152 159 0 0
-1.7475 5.7323 1.5089 -0.904 -0.373 -0.208 154 153 161 0 0
-1.7420 5.7242 1.5071 -0.872 -0.489 0.040 154 153 161 0 0
-1.7028 5.4352 1.4268 -0.250 -0.525 0.813 169 167 174 0 0
-1.6129 5.4725 1.4468 -0.846 -0.197 -0.496 134 129 133 0 0
-1.5911 5.4263 1.4356 -0.930 -0.330 -0.164 84 81 85 0 0
-1.5831 5.4063 1.4306 -0.930 -0.330 -0.164 70 65 69 0 0
-1.5080 5.3234 1.4140 -0.340 -0.748 0.569 27 22 23 0 0
-0.3701 4.9235 1.4132 -0.117 -0.795 0.596 50 51 56 0 0
0.6802 6.2196 1.8980 -0.095 -0.915 0.393 54 53 59 0 0
0.8332 6.2357 1.9182 0.491 -0.868 0.077 36 35 40 0 0
0.5535 5.6778 1.7271 -0.575 -0.414 0.705 79 83 92 0 0
0.5662 5.6438 1.7185 0.147 -0.963 0.226 65 65 73 0 0
0.7870 5.8456 1.7998 -0.695 -0.717 0.063 50 59 69 0 0
0.7778 5.8227 1.7922 -0.995 -0.065 0.069 68 78 87 0 0
-4.1119 6.5951 1.5120 -0.954 -0.220 -0.201 108 77 67 0 0
-4.0434 6.4344 1.4723 -0.956 -0.240 -0.166 107 68 63 0 0
-3.4882 5.0327 1.1221 -0.831 -0.343 -0.438 104 66 65 0 0
-3.4236 4.7949 1.0597 -0.912 -0.337 -0.235 102 69 64 0 0
-3.3839 4.8333 1.0749 -0.973 -0.181 -0.140 114 80 79 0 0
-3.3656 4.7517 1.0531 -0.978 -0.193 -0.074 111 87 83 0 0
-3.3401 4.6877 1.0371 -0.859 -0.451 -0.244 105 67 66 0 0
-3.3190 4.6654 1.0328 -0.938 -0.301 0.172 108 70 69 0 0
-3.3123 4.6437 1.0271 -0.940 -0.306 0.152 108 68 69 0 0
-3.2931 4.6388 1.0277 0.527 -0.629 -0.571 108 75 71 0 0
-3.2604 4.6448 1.0327 -0.825 -0.110 -0.555 56 40 37 0 0
-3.2477 4.5995 1.0209 -0.906 -0.090 -0.413 84 67 65 0 0
-3.0745 4.8912 1.1230 -0.882 -0.226 -0.413 96 52 53 0 0
-3.0368 4.6290 1.0508 -0.108 -0.994 0.024 95 52 51 0 0
-3.0269 4.6276 1.0514 -0.314 -0.850 -0.424 98 53 54 0 0
-2.9337 4.1766 0.9300 -0.751 -0.545 -0.373 99 51 54 0 0
-2.9294 4.1737 0.9296 -0.639 -0.415 -0.648 100 52 55 0 0
-2.9129 4.1564 0.9263 -0.884 -0.212 -0.417 160 112 114 0 0
-2.9092 4.1436 0.9230 -0.879 -0.227 -0.418 179 136 137 0 0
-2.9053 4.1352 0.9209 -0.594 -0.622 -0.510 177 142 139 0 0
-2.8844 4.1259 0.9203 -0.611 -0.662 -0.434 116 134 105 0 0
-2.7511 4.3262 0.9919 -0.423 -0.730 0.537 170 172 171 0 0
-2.7100 4.3956 1.0162 -0.580 -0.677 0.453 168 172 171 0 0
-2.7057 4.3904 1.0151 -0.650 -0.621 0.439 168 172 171 0 0
-2.7014 4.3849 1.0140 -0.575 -0.612 0.542 168 172 172 0 0
-2.6970 4.3805 1.0131 -0.574 -0.572 0.586 167 171 171 0 0
-2.6928 4.3751 1.0120 -0.574 -0.572 0.586 167 171 172 0 0
-2.6618 4.3876 1.0187 -0.511 -0.797 0.322 175 178 181 0 0
-2.6571 4.3860 1.0188 -0.554 -0.826 0.104 174 178 181 0 0
-2.6525 4.3829 1.0183 -0.554 -0.826 0.104 177 180 185 0 0
-2.6480 4.3803 1.0180 -0.647 -0.746 0.161 180 183 188 0 0
-2.6437 4.3754 1.0170 -0.738 -0.675 0.031 179 182 189 0 0
-2.6390 4.3734 1.0169 -0.484 -0.847 -0.218 179 182 190 0 0
-2.6349 4.3677 1.0157 -0.527 -0.781 -0.336 181 184 193 0 0
-2.6247 4.3699 1.0174 -0.650 -0.753 -0.102 180 182 194 0 0
-2.6182 4.3465 1.0112 -0.024 -0.718 0.696 181 182 194 0 0
-2.6132 4.3476 1.0121 -0.020 -0.680 0.733 181 182 194 0 0
-2.4749 4.5295 1.0788 -0.820 -0.495 -0.288 178 179 185 0 0
-2.4687 4.3716 1.0336 0.602 -0.758 -0.250 184 184 192 0 0
-2.4625 4.3770 1.0358 0.281 -0.916 -0.288 191 191 200 0 0
-2.4451 4.3865 1.0403 0.638 -0.670 0.379 186 186 194 0 0
-1.7374 5.5627 1.4530 -0.767 -0.196 0.610 155 154 161 0 0
-1.7377 5.5139 1.4388 -0.766 -0.623 0.162 154 153 161 0 0
-1.7333 5.5037 1.4363 -0.817 -0.536 0.212 156 155 163 0 0
-1.7086 5.4628 1.4270 -0.603 -0.724 0.334 160 159 165 0 0
-1.7114 5.4320 1.4178 -0.378 -0.562 0.735 159 159 165 0 0
-1.7071 5.4221 1.4153 -0.405 -0.521 0.751 162 159 168 0 0
-1.7016 5.4161 1.4141 -0.405 -0.521 0.751 164 161 171 0 0
-1.6956 5.4115 1.4134 -0.332 -0.533 0.778 167 164 173 0 0
-1.6904 5.4046 1.4119 -0.236 -0.548 0.802 170 165 175 0 0
-1.6841 5.4011 1.4116 -0.241 -0.558 0.794 171 166 174 0 0
-1.6753 5.4046 1.4135 -0.360 -0.777 0.517 172 167 174 0 0
-1.6679 5.4040 1.4140 -0.498 -0.832 0.243 172 168 174 0 0
-1.6615 5.4006 1.4137 -0.449 -0.803 0.391 173 169 175 0 0
-1.6552 5.3969 1.4133 -0.449 -0.803 0.391 174 169 174 0 0
-1.6480 5.3957 1.4136 -0.408 -0.853 0.326 172 168 172 0 0
-1.6416 5.3925 1.4134 -0.408 -0.853 0.326 170 166 170 0 0
-1.6351 5.3894 1.4131 -0.461 -0.808 0.367 167 162 168 0 0
-1.6284 5.3869 1.4131 -0.428 -0.783 0.452 165 161 167 0 0
-1.6215 5.3850 1.4132 -0.361 -0.779 0.513 157 154 159 0 0
-1.6147 5.3827 1.4132 -0.236 -0.759 0.606 148 145 151 0 0
-1.6079 5.3806 1.4133 -0.236 -0.759 0.606 141 136 140 0 0
-1.6029 5.3734 1.4117 -0.201 -0.680 0.705 133 128 132 0 0
-1.5961 5.3714 1.4119 -0.208 -0.597 0.775 125 118 123 0 0
-1.5901 5.3669 1.4111 -0.294 -0.558 0.776 117 108 113 0 0
-1.5846 5.3613 1.4101 -0.361 -0.523 0.772 105 95 99 0 0
-1.5036 5.3150 1.4048 -0.271 -0.800 0.535 28 23 25 0 0
-1.4817 5.3312 1.4118 -0.174 -0.433 0.884 22 20 25 0 0
-1.4753 5.3281 1.4115 -0.174 -0.433 0.884 32 31 36 0 0
-1.2471 5.6791 1.5364 0.555 -0.681 -0.477 25 24 27 0 0
-0.8279 6.0829 1.6959 0.702 -0.610 0.367 36 34 37 0 0
-1.4088 4.6885 1.2328 -0.790 -0.592 -0.162 27 22 26 0 0
-0.8785 5.2061 1.4366 0.408 -0.846 -0.342 29 29 31 0 0
-0.8693 5.2079 1.4380 -0.578 -0.709 -0.404 28 28 30 0 0
-0.8658 5.1999 1.4360 -0.976 -0.134 -0.169 28 28 30 0 0
-0.8635 5.1900 1.4334 -0.888 -0.425 -0.179 28 28 30 0 0
-0.2176 5.4700 1.5800 -0.039 -0.908 0.418 30 30 32 0 0
0.6766 6.2150 1.8865 -0.095 -0.915 0.393 54 53 59 0 0
0.8318 6.2340 1.9077 0.491 -0.868 0.077 36 35 40 0 0
1.0001 6.2788 1.9377 -0.880 -0.270 -0.392 37 40 47 0 0
1.0032 6.2683 1.9350 -0.325 -0.738 -0.592 39 43 53 0 0
0.5531 5.6409 1.7075 -0.139 -0.986 0.095 73 72 79 0 0
0.5663 5.6439 1.7097 0.080 -0.993 0.082 65 65 72 0 0
0.7855 5.8439 1.7899 -0.801 -0.598 0.021 52 61 71 0 0
-4.0688 6.5246 1.4880 -0.956 -0.240 -0.166 106 69 63 0 0
-3.9839 6.2425 1.4153 -0.928 -0.184 -0.324 106 69 63 0 0
-3.3848 4.8429 1.0722 -0.976 -0.175 -0.129 112 78 76 0 0
-3.3179 4.6037 1.0100 -0.483 -0.456 0.748 104 69 67 0 0
-3.2939 4.6502 1.0258 -0.339 -0.421 -0.841 109 76 71 0 0
-3.2899 4.6585 1.0286 -0.834 -0.257 -0.489 102 71 65 0 0
-3.2549 4.6361 1.0256 -0.888 -0.125 -0.443 50 35 32 0 0
-3.2486 4.6130 1.0196 -0.916 -0.066 -0.396 71 53 52 0 0
-3.0745 4.8979 1.1193 -0.882 -0.226 -0.413 95 51 52 0 0
-3.0631 4.8206 1.0981 -0.824 -0.195 -0.532 94 49 51 0 0
-3.0578 4.8093 1.0954 -0.858 -0.216 -0.467 94 49 51 0 0
-3.0367 4.6396 1.0486 -0.662 -0.628 -0.410 93 51 50 0 0
-3.0318 4.6334 1.0473 -0.451 -0.791 -0.413 95 51 50 0 0
-2.9857 4.7209 1.0772 0.572 -0.553 0.606 97 52 54 0 0
-2.9804 4.7277 1.0797 0.465 -0.596 0.655 97 53 54 0 0
-2.9420 4.1839 0.9268 -0.628 -0.777 0.041 100 52 55 0 0
-2.9377 4.1812 0.9264 -0.709 -0.667 0.230 99 51 53 0 0
-2.9293 4.1752 0.9256 -0.555 -0.434 -0.709 99 53 55 0 0
-2.9246 4.1839 0.9286 -0.814 -0.314 -0.489 103 56 58 0 0
-2.9126 4.1612 0.9232 -0.884 -0.212 -0.417 153 104 107 0 0
-2.9089 4.1482 0.9198 -0.879 -0.227 -0.418 176 131 133 0 0
-2.7483 4.6705 1.0866 -0.995 0.007 -0.096 164 168 167 0 0
-2.7516 4.3687 0.9992 -0.413 -0.827 0.383 169 171 170 0 0
-2.6751 4.3593 1.0042 -0.374 -0.665 0.646 169 173 176 0 0
-2.6620 4.3854 1.0131 -0.509 -0.816 0.274 172 173 175 0 0
-2.6568 4.3873 1.0142 -0.728 -0.685 -0.014 170 172 174 0 0
-2.6525 4.3827 1.0133 -0.728 -0.685 -0.014 172 176 178 0 0
-2.6481 4.3789 1.0126 -0.793 -0.587 -0.164 175 179 182 0 0
-2.6052 4.3344 1.0041 -0.451 -0.613 0.649 181 181 192 0 0
-2.6009 4.3305 1.0034 -0.472 -0.621 0.626 182 182 192 0 0
-2.5955 4.3340 1.0050 -0.080 -0.619 0.781 182 182 192 0 0
-2.5917 4.3265 1.0032 -0.283 -0.644 0.711 182 182 192 0 0
-2.4996 4.4240 1.0406 -0.903 -0.155 -0.401 178 178 186 0 0
-2.4682 4.3733 1.0291 0.597 -0.760 -0.255 184 184 193 0 0
-2.4625 4.3766 1.0306 0.294 -0.952 -0.080 190 190 200 0 0
-2.4588 4.3693 1.0289 0.603 -0.743 0.291 195 195 205 0 0
-1.7343 5.5003 1.4279 -0.666 -0.594 -0.451 156 153 162 0 0
-1.7301 5.4900 1.4254 -0.789 -0.528 -0.314 156 153 162 0 0
-1.7246 5.4834 1.4240 -0.778 -0.604 -0.172 156 153 162 0 0
-1.7191 5.4768 1.4226 -0.778 -0.604 -0.172 155 154 162 0 0
-1.7088 5.4169 1.4064 -0.533 -0.583 0.612 155 154 164 0 0
-1.7033 5.4109 1.4053 -0.475 -0.592 0.651 159 157 168 0 0
-1.6958 5.4109 1.4060 -0.296 -0.775 0.559 160 159 169 0 0
-1.6834 5.4028 1.4049 -0.329 -0.781 0.531 161 158 167 0 0
-1.6770 5.3995 1.4046 -0.360 -0.777 0.517 161 158 165 0 0
-1.6705 5.3964 1.4044 -0.360 -0.777 0.517 164 162 167 0 0
-1.6626 5.3972 1.4054 -0.449 -0.803 0.391 168 166 171 0 0
-1.6564 5.3935 1.4050 -0.449 -0.803 0.391 171 169 174 0 0
-1.6493 5.3920 1.4052 -0.478 -0.834 0.276 172 170 175 0 0
-1.6425 5.3899 1.4053 -0.408 -0.853 0.326 174 172 177 0 0
-1.6362 5.3863 1.4049 -0.461 -0.808 0.367 174 171 178 0 0
-1.6298 5.3828 1.4045 -0.428 -0.783 0.452 174 171 178 0 0
-1.6232 5.3800 1.4044 -0.361 -0.779 0.513 175 171 176 0 0
-1.6168 5.3768 1.4041 -0.354 -0.792 0.498 172 167 173 0 0
-1.6104 5.3737 1.4039 -0.377 -0.801 0.465 171 165 170 0 0
-1.6069 5.3626 1.4010 -0.231 -0.654 0.720 170 165 169 0 0
-1.6007 5.3589 1.4006 -0.261 -0.598 0.758 169 160 166 0 0
-1.5951 5.3534 1.3996 -0.294 -0.558 0.776 164 155 160 0 0
-1.5897 5.3476 1.3984 -0.367 -0.510 0.778 157 146 150 0 0
-1.5854 5.3390 1.3964 -0.281 -0.487 0.827 149 138 142 0 0
-1.5796 5.3344 1.3956 -0.281 -0.487 0.827 139 127 132 0 0
-1.5118 5.3135 1.3965 -0.375 -0.771 0.514 48 37 40 0 0
-1.5038 5.3143 1.3975 -0.246 -0.417 0.875 40 31 34 0 0
-1.4983 5.3091 1.3965 -0.246 -0.417 0.875 33 28 33 0 0
-1.4997 5.2869 1.3900 -0.253 -0.446 0.858 35 32 37 0 0
-1.4979 5.2728 1.3861 -0.395 -0.423 0.816 43 42 48 0 0
-1.4958 5.2596 1.3825 -0.580 -0.285 0.763 53 54 59 0 0
-1.9937 4.0013 0.9697 -0.640 -0.070 0.765 28 27 33 0 0
-1.2385 5.6990 1.5351 0.639 -0.647 -0.416 27 26 29 0 0
-0.8111 6.0976 1.6930 0.586 -0.612 0.532 39 37 40 0 0
-1.3958 4.6744 1.2239 -0.887 -0.404 -0.223 25 22 25 0 0
-1.3576 4.6194 1.2119 -0.894 -0.333 0.300 18 18 18 0 0
-0.8792 5.2048 1.4288 0.437 -0.891 0.125 29 29 31 0 0
0.6735 6.2110 1.8752 -0.042 -0.977 0.208 53 53 59 0 0
0.6801 6.2048 1.8741 -0.868 -0.454 0.202 52 52 58 0 0
0.6785 6.1883 1.8692 -0.990 0.064 0.124 51 50 56 0 0
1.0300 6.3427 1.9491 -0.990 -0.041 -0.133 37 40 45 0 0
1.0079 6.2738 1.9270 -0.305 -0.832 -0.464 38 42 51 0 0
1.0171 6.2705 1.9270 -0.119 -0.899 -0.422 44 51 61 0 0
0.5519 5.6394 1.6982 -0.065 -0.938 -0.339 71 71 79 0 0
0.5630 5.6401 1.6995 0.164 -0.901 -0.402 63 63 71 0 0
-4.0908 6.5305 1.4797 -0.942 -0.198 -0.272 111 79 66 0 0
-4.0779 6.5357 1.4825 -0.925 -0.311 0.218 103 75 63 0 0
-3.3953 4.8949 1.0806 -0.976 -0.175 -0.129 99 63 61 0 0
-3.3161 4.5854 0.9999 -0.362 -0.525 0.770 106 67 68 0 0
-3.3064 4.5797 0.9992 -0.356 -0.576 0.736 106 63 64 0 0
-3.3035 4.7087 1.0365 -0.915 -0.203 -0.349 102 67 63 0 0
-3.2971 4.6898 1.0317 -0.930 -0.240 -0.277 110 76 72 0 0
-3.2800 4.5958 1.0065 0.698 -0.633 0.335 94 65 59 0 0
-3.2570 4.6667 1.0291 -0.956 -0.098 -0.276 49 33 31 0 0
-3.0466 4.6630 1.0491 -0.845 -0.444 0.298 92 49 51 0 0
-3.0416 4.6503 1.0460 -0.865 -0.445 0.231 91 49 50 0 0
-3.0317 4.6347 1.0425 -0.500 -0.739 -0.452 93 49 51 0 0
-2.9804 4.7197 1.0720 0.323 -0.602 0.731 96 51 53 0 0
-2.9752 4.7250 1.0740 0.292 -0.592 0.751 97 54 55 0 0
-2.9461 4.1863 0.9226 -0.320 -0.685 -0.654 100 53 56 0 0
-2.9418 4.1867 0.9231 -0.764 -0.595 -0.251 100 53 55 0 0
-2.9377 4.1803 0.9217 -0.731 -0.673 0.116 97 52 54 0 0
-2.9334 4.1788 0.9217 -0.745 -0.638 -0.193 98 53 54 0 0
-2.9290 4.1801 0.9225 -0.612 -0.354 -0.707 99 53 55 0 0
-2.9244 4.1870 0.9249 -0.775 -0.279 -0.567 101 55 57 0 0
-2.8881 4.1338 0.9134 0.047 -0.979 -0.199 120 131 105 0 0
-2.8837 4.1349 0.9141 0.074 -0.934 -0.349 119 133 105 0 0
-2.7613 4.3667 0.9928 0.173 -0.974 -0.145 166 170 169 0 0
-2.7561 4.3708 0.9945 0.104 -0.957 0.273 167 171 169 0 0
-2.7359 4.3797 0.9991 0.444 -0.814 0.375 168 172 170 0 0
-2.6758 4.3531 0.9975 -0.374 -0.665 0.646 168 172 172 0 0
-2.6621 4.3837 1.0076 -0.509 -0.816 0.274 170 172 173 0 0
-2.6568 4.3869 1.0090 -0.741 -0.595 -0.309 169 170 171 0 0
-2.6376 4.3827 1.0098 -0.377 -0.155 -0.913 172 175 180 0 0
-2.6211 4.3597 1.0048 -0.026 -0.938 0.345 178 181 189 0 0
-2.6158 4.3618 1.0059 0.074 -0.790 0.609 181 181 190 0 0
-2.5936 4.3143 0.9946 -0.499 -0.729 0.469 182 182 192 0 0
-2.5872 4.3238 0.9979 -0.107 -0.605 0.789 181 181 191 0 0
-2.5823 4.3234 0.9983 -0.107 -0.605 0.789 181 181 191 0 0
-2.4988 4.4278 1.0366 -0.883 -0.152 -0.444 179 179 188 0 0
-2.4623 4.3770 1.0257 0.294 -0.952 -0.080 189 190 200 0 0
-2.4569 4.3784 1.0266 0.136 -0.967 -0.216 193 194 204 0 0
-1.7339 5.4781 1.4142 0.210 -0.413 0.886 155 152 161 0 0
-1.6910 5.4025 1.3969 -0.323 -0.803 0.500 156 153 163 0 0
-1.6852 5.3974 1.3960 -0.329 -0.781 0.531 157 154 163 0 0
-1.6771 5.3989 1.3972 -0.277 -0.873 0.403 158 155 162 0 0
-1.6703 5.3968 1.3973 -0.247 -0.881 0.404 159 156 163 0 0
-1.6633 5.3949 1.3975 -0.247 -0.881 0.404 161 159 164 0 0
-1.6564 5.3931 1.3976 -0.247 -0.881 0.404 163 160 166 0 0
-1.6379 5.3813 1.3961 -0.361 -0.779 0.513 168 165 172 0 0
-1.6311 5.3790 1.3961 -0.356 -0.773 0.526 169 166 173 0 0
-1.6250 5.3750 1.3956 -0.361 -0.779 0.513 170 168 173 0 0
-1.6183 5.3726 1.3956 -0.377 -0.801 0.465 171 167 173 0 0
-1.6119 5.3694 1.3953 -0.377 -0.801 0.465 173 169 175 0 0
-1.6065 5.3633 1.3941 -0.423 -0.779 0.463 175 170 174 0 0
-1.6050 5.3472 1.3896 -0.304 -0.582 0.754 175 169 176 0 0
-1.5989 5.3432 1.3891 -0.451 -0.571 0.686 174 169 173 0 0
-1.5942 5.3356 1.3874 -0.404 -0.528 0.747 175 167 172 0 0
-1.5859 5.3175 1.3830 -0.364 -0.493 0.791 172 162 168 0 0
-1.5804 5.3123 1.3821 -0.481 -0.522 0.704 170 160 167 0 0
-1.5754 5.3058 1.3807 -0.481 -0.522 0.704 166 157 164 0 0
-1.5699 5.3005 1.3798 -0.451 -0.526 0.720 160 150 158 0 0
-1.5640 5.2963 1.3791 -0.240 -0.492 0.837 151 142 150 0 0
-1.5112 5.3146 1.3897 -0.550 -0.733 0.400 96 86 90 0 0
-1.5146 5.2688 1.3762 -0.253 -0.446 0.858 67 61 65 0 0
-1.5089 5.2641 1.3754 -0.253 -0.446 0.858 57 52 57 0 0
-1.2356 5.6857 1.5236 0.632 -0.663 0.401 25 26 31 0 0
-1.3867 4.6657 1.2162 -0.887 -0.447 0.111 26 20 24 0 0
-0.8659 5.2275 1.4294 0.102 -0.727 0.679 29 29 32 0 0
0.6684 6.2045 1.8631 0.217 -0.976 -0.012 52 54 60 0 0
0.6725 6.1952 1.8608 -0.993 -0.082 0.085 50 52 58 0 0
0.6732 6.1816 1.8570 -0.997 -0.061 0.051 50 50 57 0 0
1.0055 6.2850 1.9199 -0.864 -0.403 -0.303 36 39 46 0 0
1.0111 6.2774 1.9183 -0.305 -0.832 -0.464 38 42 51 0 0
0.5454 5.6440 1.6901 -0.602 -0.468 -0.647 74 77 86 0 0
0.5510 5.6384 1.6891 -0.602 -0.468 -0.647 68 68 78 0 0
0.1451 4.7625 1.3974 -0.772 -0.289 0.566 239 240 238 0 0
-4.0965 6.5585 1.4792 -0.942 -0.198 -0.272 111 79 67 0 0
-4.0725 6.5105 1.4680 -0.927 -0.303 0.222 102 74 62 0 0
-4.0371 6.3734 1.4324 -0.886 -0.334 0.322 101 71 63 0 0
-3.3042 4.7172 1.0336 -0.918 -0.192 -0.347 99 63 59 0 0
-3.2979 4.7000 1.0293 -0.954 -0.289 -0.082 110 77 72 0 0
-3.2423 4.5933 1.0045 -0.967 -0.087 -0.241 80 55 58 0 0
-3.0465 4.6572 1.0422 -0.798 -0.463 0.386 91 49 51 0 0
-3.0415 4.6465 1.0397 -0.845 -0.436 0.310 92 50 51 0 0
-3.0365 4.6447 1.0396 -0.748 -0.572 0.336 91 49 51 0 0
-3.0316 4.6374 1.0381 -0.744 -0.593 0.307 92 50 52 0 0
-3.0266 4.6301 1.0365 -0.762 -0.592 0.263 93 51 53 0 0
-2.9701 4.7182 1.0672 0.360 -0.497 0.789 97 53 56 0 0
-2.9546 4.1897 0.9182 0.561 -0.720 0.409 100 52 55 0 0
-2.9415 4.1932 0.9205 -0.839 -0.364 -0.404 99 54 56 0 0
-2.9375 4.1843 0.9183 -0.831 -0.421 -0.363 97 53 54 0 0
-2.9241 4.1922 0.9219 -0.775 -0.279 -0.567 101 56 57 0 0
-2.9046 4.1456 0.9106 -0.787 -0.412 -0.459 180 138 140 0 0
-2.9006 4.1392 0.9092 -0.602 -0.601 -0.526 173 143 139 0 0
-2.7597 4.3827 0.9926 0.385 -0.740 0.552 169 171 170 0 0
-2.7561 4.3704 0.9894 0.299 -0.930 0.213 169 172 168 0 0
-2.7562 4.3203 0.9752 0.524 -0.818 -0.239 166 171 166 0 0
-2.7396 4.3898 0.9966 0.732 -0.624 0.274 169 171 168 0 0
-2.7361 4.3774 0.9934 0.620 -0.763 0.183 170 172 169 0 0
-2.6897 4.3581 0.9926 -0.243 -0.682 0.690 169 171 170 0 0
-2.6851 4.3564 0.9925 -0.243 -0.682 0.690 169 171 170 0 0
-2.6622 4.3823 1.0022 -0.518 -0.856 0.002 170 172 171 0 0
-2.6163 4.3584 1.0000 0.056 -0.842 0.537 178 179 184 0 0
-2.6129 4.3477 0.9972 -0.134 -0.986 -0.102 179 180 185 0 0
-2.6078 4.3488 0.9981 -0.150 -0.959 0.242 179 180 185 0 0
-2.6027 4.3502 0.9990 -0.354 -0.893 0.279 180 181 186 0 0
-2.5784 4.3474 1.0006 -0.456 -0.717 0.527 182 182 192 0 0
-2.5595 4.3128 0.9926 -0.320 -0.662 0.678 182 181 195 0 0
-2.4980 4.4318 1.0327 -0.909 -0.192 -0.370 180 179 189 0 0
-2.4621 4.3775 1.0208 0.294 -0.952 -0.080 186 189 198 0 0
-2.4097 4.4057 1.0340 0.435 -0.855 0.283 156 155 161 0 0
-1.6575 5.5673 1.4399 -0.345 -0.355 0.869 154 153 159 0 0
-1.6509 5.4735 1.4139 -0.417 -0.309 0.855 156 153 160 0 0
-1.6580 5.3884 1.3889 -0.563 -0.617 0.550 157 154 161 0 0
-1.6510 5.3868 1.3892 -0.335 -0.842 0.423 158 155 162 0 0
-1.6436 5.3862 1.3897 -0.322 -0.898 0.301 160 157 164 0 0
-1.6396 5.3764 1.3873 -0.361 -0.779 0.513 161 158 165 0 0
-1.6332 5.3732 1.3871 -0.361 -0.779 0.513 162 159 166 0 0
-1.6267 5.3700 1.3868 -0.361 -0.779 0.513 163 161 166 0 0
-1.6155 5.3594 1.3849 -0.426 -0.705 0.567 165 164 169 0 0
-1.6094 5.3553 1.3843 -0.426 -0.705 0.567 167 165 171 0 0
-1.6094 5.3352 1.3786 -0.304 -0.582 0.754 168 166 173 0 0
-1.6041 5.3291 1.3774 -0.404 -0.528 0.747 169 167 172 0 0
-1.5987 5.3234 1.3763 -0.404 -0.528 0.747 171 167 173 0 0
-1.5940 5.3159 1.3747 -0.562 -0.532 0.633 172 168 174 0 0
-1.5891 5.3090 1.3732 -0.562 -0.532 0.633 173 169 176 0 0
-1.5842 5.3022 1.3717 -0.577 -0.571 0.584 174 169 176 0 0
-1.5778 5.2992 1.3715 -0.718 -0.596 0.361 175 170 177 0 0
-1.5714 5.2964 1.3713 -0.797 -0.603 -0.039 174 169 177 0 0
-1.5648 5.2939 1.3713 -0.749 -0.562 -0.349 174 170 177 0 0
-1.5607 5.2851 1.3692 -0.597 -0.790 0.140 173 168 175 0 0
-1.5537 5.2839 1.3695 -0.479 -0.877 -0.032 170 166 173 0 0
-1.5475 5.2804 1.3692 -0.473 -0.881 0.019 168 164 171 0 0
-1.5426 5.2737 1.3678 -0.511 -0.757 0.407 163 157 164 0 0
-1.5359 5.2719 1.3679 -0.662 -0.744 0.086 161 152 160 0 0
-1.5307 5.2659 1.3667 -0.490 -0.669 0.558 153 144 150 0 0
-1.5265 5.2577 1.3648 -0.463 -0.470 0.752 137 131 135 0 0
-1.5218 5.2507 1.3633 -0.502 -0.451 0.738 126 121 125 0 0
-1.5186 5.2402 1.3606 -0.614 -0.383 0.690 97 92 96 0 0
-0.8727 5.2299 1.4220 0.736 -0.571 -0.363 32 31 36 0 0
-0.8582 5.2406 1.4266 0.668 -0.667 -0.330 30 28 33 0 0
-0.3595 5.0242 1.4146 -0.858 -0.403 -0.319 47 47 55 0 0
0.6707 6.1928 1.8502 -0.995 -0.095 0.034 49 52 59 0 0
0.5451 5.6437 1.6813 -0.600 -0.247 -0.761 68 70 81 0 0
-3.9951 6.4026 1.4372 0.490 -0.332 -0.806 110 70 60 0 0
-3.9843 6.4175 1.4425 0.673 -0.389 -0.630 109 71 62 0 0
-3.6641 5.6895 1.2681 -0.796 -0.587 0.146 111 71 64 0 0
-3.3858 4.8555 1.0595 -0.969 -0.168 -0.181 108 73 71 0 0
-3.3443 4.6867 1.0158 -0.950 -0.244 -0.193 101 71 71 0 0
-3.3357 4.6468 1.0053 -0.974 -0.208 -0.086 100 64 66 0 0
-3.2729 4.6272 1.0060 -0.044 -0.923 -0.383 88 54 52 0 0
-3.0364 4.6275 1.0295 -0.407 -0.564 0.719 92 50 52 0 0
-3.0315 4.6341 1.0319 -0.760 -0.603 0.242 92 50 52 0 0
-3.0265 4.6270 1.0304 -0.740 -0.634 0.224 92 50 52 0 0
-3.0216 4.6159 1.0277 -0.583 -0.598 0.549 91 49 51 0 0
-2.9650 4.7086 1.0596 0.293 -0.424 0.857 95 53 55 0 0
-2.9411 4.2017 0.9184 -0.910 -0.188 -0.370 99 55 56 0 0
-2.9373 4.1863 0.9144 -0.796 -0.362 -0.485 98 54 55 0 0
-2.9195 4.1961 0.9190 -0.878 -0.200 -0.434 103 56 58 0 0
-2.9003 4.1426 0.9057 -0.599 -0.649 -0.469 177 143 141 0 0
-2.7618 4.4110 0.9955 0.837 -0.409 0.363 166 167 167 0 0
-2.7359 4.3785 0.9888 0.042 -0.914 0.404 170 172 169 0 0
-2.6816 4.3448 0.9847 -0.390 -0.610 0.689 169 171 170 0 0
-2.6502 4.3982 1.0029 -0.503 -0.413 -0.759 169 172 171 0 0
-2.6354 4.3971 1.0041 -0.484 -0.076 -0.872 171 175 176 0 0
-2.6257 4.3610 0.9948 0.012 -0.711 0.703 171 175 178 0 0
-2.6169 4.3535 0.9935 -0.003 -0.941 0.339 175 176 180 0 0
-2.6127 4.3486 0.9926 -0.073 -0.991 -0.114 174 175 179 0 0
-2.6080 4.3475 0.9927 -0.176 -0.976 -0.132 174 175 179 0 0
-2.6029 4.3483 0.9934 -0.414 -0.903 -0.114 175 176 180 0 0
-2.5982 4.3468 0.9935 -0.492 -0.847 0.201 177 178 182 0 0
-2.4100 4.4040 1.0284 0.498 -0.859 0.115 157 156 162 0 0
-2.4040 4.4079 1.0301 0.587 -0.808 -0.049 155 154 160 0 0
-1.6407 5.5473 1.4284 -0.705 -0.590 -0.395 154 151 158 0 0
-1.6350 5.5412 1.4273 -0.705 -0.590 -0.395 155 152 159 0 0
-1.6275 5.5402 1.4278 -0.425 -0.500 -0.755 155 152 159 0 0
-1.6456 5.3805 1.3807 -0.190 -0.968 -0.166 157 154 161 0 0
-1.6381 5.3802 1.3814 -0.070 -0.887 -0.456 158 155 162 0 0
-1.6308 5.3794 1.3819 -0.070 -0.887 -0.456 157 154 161 0 0
-1.6235 5.3785 1.3824 -0.070 -0.887 -0.456 157 156 161 0 0
-1.6066 5.4040 1.3913 -0.163 -0.382 0.910 157 156 161 0 0
