ply
format ascii 1.0
element vertex 824
property float x
property float y
property float z
property float nx
property float ny
property float nz
property uchar diffuse_red
property uchar diffuse_green
property uchar diffuse_blue
property uchar class
property uchar detection
end_header
-2.5088 4.4323 0.6980 -0.731 -0.648 -0.213 179 180 182 0 0
-2.4949 4.4272 0.6977 0.080 -0.940 0.331 181 182 184 0 0
-2.4912 4.4233 0.6969 0.050 -0.971 -0.232 180 181 183 0 0
-2.4866 4.4213 0.6967 0.365 -0.920 -0.139 179 180 182 0 0
-2.4588 4.4366 0.7027 -0.198 -0.523 -0.829 174 176 175 0 0
-2.3922 4.3449 0.6835 -0.738 -0.466 -0.489 225 230 241 0 0
-2.3888 4.3409 0.6827 -0.618 -0.587 -0.522 228 232 243 0 0
-1.5186 5.1387 0.9536 0.488 -0.645 -0.588 177 178 193 0 0
-1.4957 5.1513 0.9586 0.064 -0.816 -0.575 177 179 194 0 0
-1.6034 4.8650 0.8760 0.362 -0.581 0.729 204 209 227 0 0
-1.2684 5.2288 0.9951 0.145 -0.949 -0.282 242 246 248 0 0
-1.2598 5.2298 0.9960 0.305 -0.918 -0.252 250 252 253 0 0
-1.2507 5.2315 0.9971 0.417 -0.868 -0.270 253 254 254 0 0
-0.3881 5.9457 1.2456 -0.265 -0.729 0.631 152 152 155 0 0
-0.3777 5.7947 1.2069 -0.281 -0.794 -0.539 255 251 254 0 0
-0.3512 5.7913 1.2079 -0.075 -0.770 -0.634 234 234 243 0 0
0.2293 6.3869 1.4052 -0.226 -0.274 -0.935 161 160 167 0 0
0.2755 6.4150 1.4159 0.073 -0.511 0.857 163 161 166 0 0
0.6509 6.1923 1.3845 -0.518 -0.675 -0.525 169 169 179 0 0
0.6512 6.1805 1.3814 -0.827 -0.439 -0.352 168 168 178 0 0
0.6623 6.1682 1.3790 -0.594 -0.640 -0.487 151 149 160 0 0
-3.7258 5.6170 0.9143 -0.431 -0.895 0.117 138 136 138 0 0
-3.7073 5.6078 0.9132 -0.768 -0.356 -0.532 133 130 133 0 0
-3.6756 5.5503 0.9005 -0.769 -0.466 -0.438 62 76 95 0 0
-3.6518 5.5693 0.9071 -0.068 -0.392 0.918 77 88 112 0 0
-3.5732 5.4249 0.8752 -0.328 -0.690 0.645 128 127 127 0 0
-3.5673 5.4172 0.8736 -0.314 -0.779 0.543 127 126 129 0 0
-3.5614 5.4183 0.8743 -0.157 -0.715 0.682 126 126 131 0 0
-3.5555 5.4187 0.8749 0.180 -0.716 0.674 126 125 130 0 0
-2.8792 4.3971 0.6575 -0.916 -0.381 0.129 132 128 129 0 0
-2.8802 4.3754 0.6518 -0.985 -0.148 0.083 132 128 129 0 0
-2.8708 4.3742 0.6522 -0.924 -0.167 -0.343 134 128 130 0 0
-2.8688 4.3636 0.6496 -0.915 -0.147 -0.375 135 129 131 0 0
-2.8663 4.3555 0.6476 -0.928 -0.123 -0.352 136 130 132 0 0
-2.8658 4.3397 0.6436 -0.903 -0.184 -0.389 137 131 133 0 0
-2.8017 4.3268 0.6448 -0.910 -0.109 -0.400 175 147 146 0 0
-2.6167 4.5454 0.7147 -0.195 -0.632 -0.750 159 162 161 0 0
-2.6090 4.5520 0.7170 -0.947 0.046 -0.317 163 164 166 0 0
-2.5500 4.4774 0.7018 -0.803 -0.433 -0.409 183 184 186 0 0
-2.4958 4.4251 0.6921 0.096 -0.927 0.361 181 182 184 0 0
-2.4907 4.4245 0.6923 0.030 -0.971 -0.238 181 182 184 0 0
-2.4870 4.4205 0.6915 0.331 -0.938 -0.104 180 181 183 0 0
-2.4688 4.4256 0.6941 0.381 -0.900 -0.214 175 176 178 0 0
-2.4772 4.3805 0.6818 -0.864 -0.092 -0.496 173 175 174 0 0
-2.3393 4.4954 0.7215 0.850 -0.486 0.202 188 192 201 0 0
-2.3911 4.3474 0.6793 -0.738 -0.466 -0.489 224 228 239 0 0
-2.3878 4.3431 0.6784 -0.738 -0.466 -0.489 226 231 242 0 0
-2.3851 4.3375 0.6772 -0.757 -0.374 -0.536 222 226 237 0 0
-1.5252 5.1402 0.9469 0.480 -0.688 -0.544 177 177 193 0 0
-1.5141 5.1461 0.9492 0.480 -0.688 -0.544 177 178 193 0 0
-1.5011 5.1549 0.9524 0.220 -0.804 -0.552 178 179 194 0 0
-1.4947 5.1532 0.9524 0.079 -0.782 -0.618 178 180 195 0 0
-1.1331 5.2513 1.0037 -0.731 -0.443 -0.519 188 170 175 0 0
-0.4043 5.9507 1.2372 -0.105 -0.908 0.406 191 190 195 0 0
-0.3866 5.9477 1.2377 0.050 -0.952 0.303 188 187 191 0 0
0.1758 6.3087 1.3715 0.115 -0.535 0.837 168 166 169 0 0
0.2019 6.3266 1.3780 -0.002 -0.454 0.891 165 163 164 0 0
0.3215 6.4428 1.4167 0.083 -0.461 0.883 170 164 165 0 0
0.3448 6.4568 1.4220 0.107 -0.480 0.871 170 165 168 0 0
0.3528 6.4388 1.4179 0.001 -0.416 0.909 167 164 173 0 0
0.3566 6.4160 1.4123 -0.072 -0.385 0.920 168 163 172 0 0
0.6535 6.1830 1.3728 -0.757 -0.524 -0.390 166 166 176 0 0
-3.7604 5.7175 0.9314 0.240 -0.307 -0.921 146 142 143 0 0
-3.7278 5.6735 0.9223 -0.885 -0.149 -0.440 141 138 139 0 0
-3.7157 5.6816 0.9252 -0.723 -0.002 -0.691 140 135 135 0 0
-3.7073 5.6080 0.9068 -0.859 -0.470 0.205 138 133 135 0 0
-3.6757 5.5552 0.8954 -0.769 -0.466 -0.438 54 70 92 0 0
-3.6695 5.5466 0.8937 -0.769 -0.466 -0.438 40 60 87 0 0
-3.5909 5.4379 0.8712 -0.742 -0.633 0.221 115 120 129 0 0
-3.5791 5.4250 0.8687 -0.564 -0.699 0.439 122 125 130 0 0
-3.5732 5.4197 0.8677 -0.564 -0.699 0.439 123 125 129 0 0
-3.5673 5.4143 0.8667 -0.564 -0.699 0.439 123 125 129 0 0
-3.5615 5.4090 0.8658 -0.564 -0.699 0.439 124 125 131 0 0
-3.5556 5.4033 0.8647 -0.593 -0.665 0.454 125 125 131 0 0
-3.5498 5.3974 0.8636 -0.593 -0.665 0.454 125 125 131 0 0
-3.5435 5.4351 0.8738 -0.856 -0.510 -0.086 126 125 130 0 0
-3.5314 5.4428 0.8766 -0.813 -0.362 0.457 127 126 129 0 0
-2.8743 4.3793 0.6485 -0.723 -0.686 0.079 134 128 132 0 0
-2.8704 4.3756 0.6478 -0.832 -0.391 -0.394 136 127 130 0 0
-2.8679 4.3498 0.6413 -0.822 -0.413 -0.391 137 128 131 0 0
-2.8649 4.3430 0.6398 -0.903 -0.184 -0.389 139 130 133 0 0
-2.8260 4.4633 0.6736 -0.732 0.068 -0.678 140 131 134 0 0
-2.8004 4.3308 0.6412 -0.906 -0.100 -0.410 175 147 146 0 0
-2.6654 4.4973 0.6937 0.896 -0.419 -0.144 149 170 155 0 0
-2.6522 4.5206 0.7007 0.876 -0.480 -0.047 149 167 155 0 0
-2.5514 4.4879 0.6994 0.029 -0.815 -0.579 183 184 186 0 0
-2.4944 4.4285 0.6881 0.287 -0.905 0.313 181 182 184 0 0
-2.4906 4.4248 0.6874 0.103 -0.968 -0.229 181 182 184 0 0
-2.4881 4.4179 0.6858 0.533 -0.845 -0.053 180 181 183 0 0
-2.4739 4.3759 0.6759 -0.877 -0.131 -0.462 171 173 172 0 0
-2.3864 4.3461 0.6744 -0.691 -0.462 -0.556 225 232 242 0 0
-2.3838 4.3403 0.6731 -0.753 -0.352 -0.556 223 227 239 0 0
-2.5511 3.9442 0.5590 0.229 -0.545 0.806 178 180 193 0 0
-1.5098 5.1531 0.9447 0.460 -0.789 -0.407 178 178 194 0 0
-1.5007 5.1556 0.9460 -0.037 -0.932 -0.359 180 179 195 0 0
-1.4934 5.1552 0.9464 -0.037 -0.932 -0.359 180 180 196 0 0
-1.2779 5.3482 1.0114 0.817 -0.444 -0.367 201 206 225 0 0
-1.1924 5.3061 1.0066 -0.028 -0.845 0.534 255 251 251 0 0
-1.1816 5.3100 1.0084 -0.131 -0.737 0.663 255 250 251 0 0
-1.1792 5.3016 1.0064 -0.207 -0.754 0.623 255 249 251 0 0
-0.4007 5.9687 1.2336 -0.175 -0.409 -0.896 178 174 180 0 0
-0.3974 5.9598 1.2315 -0.190 -0.301 -0.934 166 163 168 0 0
0.2337 6.3514 1.3772 0.083 -0.461 0.883 195 198 200 0 0
0.2573 6.3661 1.3827 0.083 -0.461 0.883 197 197 201 0 0
0.2824 6.3825 1.3887 0.107 -0.480 0.871 192 192 199 0 0
0.2851 6.3721 1.3862 0.215 -0.567 0.795 186 189 198 0 0
0.3165 6.3959 1.3945 0.226 -0.565 0.794 181 184 195 0 0
0.2879 6.3352 1.3768 0.274 -0.747 0.606 173 174 185 0 0
0.3861 6.4101 1.4031 -0.377 -0.434 0.818 164 161 170 0 0
-3.7286 5.6961 0.9216 -0.958 -0.283 -0.053 144 140 140 0 0
-3.7216 5.6718 0.9158 -0.963 -0.258 -0.083 144 138 137 0 0
-3.7167 5.7105 0.9261 -0.823 -0.032 -0.567 143 137 136 0 0
-3.7076 5.6183 0.9031 -0.936 -0.330 -0.124 141 135 136 0 0
-3.6757 5.5581 0.8899 -0.562 -0.605 -0.564 57 75 99 0 0
-3.5791 5.4194 0.8611 -0.750 -0.661 -0.022 102 113 126 0 0
-3.5732 5.4143 0.8602 -0.685 -0.713 0.151 108 117 129 0 0
-3.5674 5.4084 0.8591 -0.685 -0.713 0.151 114 120 130 0 0
-3.5615 5.4026 0.8580 -0.685 -0.713 0.151 121 124 132 0 0
-3.5557 5.3972 0.8570 -0.716 -0.684 0.140 124 125 133 0 0
-3.5492 5.4562 0.8726 -0.780 -0.596 0.191 126 127 133 0 0
-3.5433 5.4451 0.8702 -0.761 -0.643 -0.089 127 127 132 0 0
-3.5375 5.4384 0.8689 -0.761 -0.643 -0.089 127 126 132 0 0
-3.5316 5.4317 0.8676 -0.629 -0.758 -0.172 128 126 131 0 0
-3.5200 5.4169 0.8646 0.225 -0.974 0.028 128 126 128 0 0
-3.5143 5.4045 0.8618 0.426 -0.894 0.138 128 126 127 0 0
-3.5082 5.4099 0.8636 0.419 -0.869 0.263 128 126 127 0 0
-3.5021 5.4182 0.8662 0.306 -0.865 0.397 128 126 127 0 0
-2.8745 4.3788 0.6436 -0.767 -0.594 0.242 133 127 131 0 0
-2.8698 4.3781 0.6438 -0.831 -0.460 -0.314 133 127 129 0 0
-2.8640 4.3464 0.6361 -0.903 -0.184 -0.389 136 130 132 0 0
-2.7001 4.8469 0.7759 0.584 -0.489 0.648 146 137 140 0 0
-2.6763 4.8886 0.7883 0.029 -0.492 0.870 149 144 148 0 0
-2.7992 4.3348 0.6376 -0.906 -0.100 -0.410 175 147 146 0 0
-2.6640 4.5015 0.6899 0.896 -0.430 -0.111 147 168 153 0 0
-2.5613 4.4903 0.6942 -0.363 -0.822 -0.439 178 182 181 0 0
-2.5512 4.4885 0.6945 -0.076 -0.837 -0.542 183 184 186 0 0
-2.4903 4.4255 0.6826 0.334 -0.938 -0.092 181 182 184 0 0
-2.4877 4.4190 0.6811 0.498 -0.864 -0.071 180 181 183 0 0
-2.4707 4.3960 0.6764 -0.932 -0.174 -0.318 173 175 174 0 0
-2.4722 4.3799 0.6722 -0.927 -0.150 -0.345 172 174 174 0 0
-2.4710 4.3703 0.6698 -0.868 -0.161 -0.471 171 173 173 0 0
-2.4435 4.4095 0.6818 0.770 -0.637 0.027 169 170 172 0 0
-2.3851 4.3490 0.6704 -0.691 -0.462 -0.556 225 232 242 0 0
-2.3823 4.3435 0.6691 -0.753 -0.352 -0.556 223 228 239 0 0
-1.6523 4.8318 0.8456 -0.657 -0.042 0.753 187 195 210 0 0
-1.1991 5.2962 0.9965 -0.039 -0.945 0.324 254 247 248 0 0
-1.1909 5.2964 0.9971 -0.296 -0.871 0.393 253 241 244 0 0
0.0939 6.3313 1.3527 0.723 -0.687 -0.073 226 233 240 0 0
0.2387 6.4823 1.4016 0.583 -0.445 -0.680 224 233 242 0 0
0.4891 6.3819 1.3934 0.084 -0.721 0.688 164 165 170 0 0
0.5006 6.3818 1.3942 -0.042 -0.628 0.777 164 165 172 0 0
0.6476 6.2012 1.3582 -0.718 -0.606 -0.342 169 169 179 0 0
0.6529 6.1947 1.3569 -0.752 -0.557 -0.353 165 165 175 0 0
-3.8354 5.8346 0.9429 0.598 -0.740 0.307 49 41 45 0 0
-3.7285 5.6939 0.9145 -0.970 -0.234 0.060 147 142 142 0 0
-3.6757 5.5571 0.8833 -0.626 -0.566 -0.537 66 85 110 0 0
-3.6694 5.5460 0.8809 0.009 -0.766 -0.643 41 66 96 0 0
-3.6634 5.5445 0.8810 -0.224 -0.664 -0.713 27 58 92 0 0
-3.5791 5.4196 0.8550 -0.750 -0.661 -0.022 71 89 114 0 0
-3.5732 5.4130 0.8537 -0.750 -0.661 -0.022 79 96 117 0 0
-3.5674 5.4069 0.8526 -0.729 -0.680 -0.084 89 102 120 0 0
-3.5615 5.4029 0.8520 -0.740 -0.670 0.061 102 109 122 0 0
-3.5557 5.3959 0.8506 -0.716 -0.684 0.140 109 114 123 0 0
-3.5499 5.3865 0.8486 -0.800 -0.597 -0.058 114 118 127 0 0
-3.5435 5.4344 0.8613 -0.748 -0.586 -0.311 119 121 129 0 0
-3.5374 5.4391 0.8629 -0.548 -0.641 0.537 122 123 130 0 0
-3.5314 5.4462 0.8651 -0.209 -0.579 0.788 124 125 131 0 0
-3.5254 5.4438 0.8649 -0.209 -0.579 0.788 127 126 130 0 0
-3.5198 5.4279 0.8613 -0.311 -0.779 0.544 128 126 129 0 0
-3.5139 5.4214 0.8600 -0.529 -0.837 0.141 127 126 128 0 0
-3.3933 5.2171 0.8164 -0.528 -0.308 0.791 127 126 126 0 0
-3.3882 5.2067 0.8141 -0.517 -0.575 -0.633 128 126 127 0 0
-3.3828 5.2019 0.8132 -0.615 -0.518 -0.594 129 125 126 0 0
-2.8719 4.3704 0.6370 -0.338 -0.939 -0.067 131 126 130 0 0
-2.7306 4.7608 0.7463 0.542 -0.435 0.719 142 133 136 0 0
-2.7980 4.3387 0.6340 -0.906 -0.100 -0.410 177 147 147 0 0
-2.6114 4.5607 0.7036 -0.754 -0.131 -0.644 151 155 154 0 0
-2.5605 4.4924 0.6897 -0.363 -0.822 -0.439 179 183 182 0 0
-2.5502 4.4912 0.6902 0.013 -0.865 -0.501 183 184 186 0 0
-2.4898 4.4269 0.6780 0.350 -0.926 -0.141 181 182 184 0 0
-2.4451 4.4561 0.6885 -0.773 -0.484 -0.411 174 176 175 0 0
-2.4421 4.4128 0.6777 0.778 -0.628 0.025 169 170 172 0 0
-2.4140 4.3439 0.6621 0.839 -0.498 0.220 167 171 180 0 0
-2.3680 4.4329 0.6880 0.839 -0.498 0.220 178 182 191 0 0
-2.3837 4.3519 0.6663 -0.691 -0.462 -0.556 224 230 242 0 0
-2.3810 4.3464 0.6651 -0.750 -0.358 -0.556 222 226 238 0 0
-2.5688 3.9071 0.5400 0.328 -0.568 0.755 177 180 192 0 0
-1.2886 5.2343 0.9674 0.178 -0.946 -0.272 210 214 220 0 0
-1.2798 5.2357 0.9684 0.178 -0.946 -0.272 227 231 235 0 0
-1.2113 5.2902 0.9871 -0.152 -0.902 0.404 254 247 248 0 0
-1.2013 5.2930 0.9885 -0.031 -0.947 0.321 251 238 240 0 0
-1.1944 5.2913 0.9885 -0.195 -0.913 0.359 243 225 229 0 0
-0.4105 5.9559 1.2125 0.298 -0.946 0.127 153 147 155 0 0
-0.3415 5.9806 1.2236 -0.097 -0.877 -0.471 113 113 118 0 0
-0.3579 5.8323 1.1847 -0.863 -0.403 -0.305 253 251 255 0 0
-0.3551 5.8235 1.1826 -0.865 -0.351 -0.358 248 245 250 0 0
-0.3513 5.8159 1.1809 -0.865 -0.351 -0.358 237 235 241 0 0
-0.3476 5.8083 1.1793 -0.865 -0.351 -0.358 235 233 243 0 0
0.1089 6.3500 1.3491 0.730 -0.644 -0.227 225 232 242 0 0
0.0733 6.1852 1.3046 0.084 -0.554 0.828 136 157 179 0 0
0.0891 6.1912 1.3073 -0.017 -0.457 0.889 137 160 185 0 0
0.1132 6.2070 1.3130 0.117 -0.495 0.861 138 162 189 0 0
0.1643 6.2418 1.3254 0.129 -0.515 0.847 138 161 188 0 0
0.4873 6.3668 1.3798 -0.080 -0.692 0.718 163 164 171 0 0
0.4921 6.3592 1.3781 -0.208 -0.578 0.789 164 164 172 0 0
0.4911 6.3450 1.3745 0.029 -0.634 0.772 164 164 173 0 0
0.6446 6.2103 1.3508 -0.506 -0.696 -0.510 170 170 180 0 0
0.6498 6.2037 1.3495 -0.677 -0.598 -0.430 168 168 178 0 0
-3.7961 5.8106 0.9328 0.858 -0.498 0.125 151 147 147 0 0
-3.7819 5.7772 0.9254 -0.179 -0.543 -0.821 151 149 150 0 0
-3.7748 5.7603 0.9216 -0.756 -0.469 -0.457 150 148 150 0 0
-3.7158 5.6845 0.9065 -0.907 -0.422 -0.003 147 141 140 0 0
-3.6696 5.5514 0.8760 -0.673 -0.501 -0.545 50 72 100 0 0
-3.6634 5.5463 0.8751 -0.448 -0.691 -0.568 30 59 94 0 0
-3.6573 5.5401 0.8740 0.068 -0.931 -0.359 22 57 96 0 0
-3.5908 5.4490 0.8555 -0.831 -0.384 -0.402 39 64 98 0 0
-3.5849 5.4388 0.8533 -0.836 -0.451 -0.312 44 68 100 0 0
-3.5791 5.4274 0.8508 -0.834 -0.468 -0.291 49 72 103 0 0
-3.5732 5.4160 0.8484 -0.736 -0.648 -0.196 53 74 103 0 0
-3.5674 5.4097 0.8472 -0.736 -0.648 -0.196 58 77 103 0 0
-3.5441 5.3807 0.8414 -0.810 -0.542 -0.225 93 104 120 0 0
-3.5376 5.4313 0.8547 -0.277 -0.547 0.790 100 109 124 0 0
-3.5316 5.4291 0.8546 -0.227 -0.596 0.770 109 116 128 0 0
-3.5257 5.4266 0.8543 -0.227 -0.596 0.770 116 120 129 0 0
-3.4911 5.3837 0.8459 -0.347 -0.463 0.816 127 128 132 0 0
-3.4854 5.3773 0.8446 -0.347 -0.463 0.816 127 128 132 0 0
-3.3880 5.2104 0.8091 -0.597 -0.737 -0.316 129 126 128 0 0
-2.8651 4.3772 0.6344 -0.381 -0.793 -0.476 132 127 131 0 0
-2.7182 4.8041 0.7527 0.535 -0.494 -0.685 142 133 136 0 0
-2.7045 4.8319 0.7606 0.459 -0.515 -0.724 144 135 138 0 0
-2.6961 4.8409 0.7635 0.443 -0.581 -0.683 144 140 141 0 0
-2.7941 4.3358 0.6289 -0.917 -0.115 -0.382 169 145 141 0 0
-2.6056 4.5932 0.7071 0.782 -0.492 0.383 144 150 148 0 0
-2.6116 4.5602 0.6983 -0.969 -0.167 0.181 150 154 153 0 0
-2.5407 4.4740 0.6814 -0.741 -0.372 -0.559 185 186 188 0 0
-2.4440 4.4589 0.6843 -0.677 -0.597 -0.430 174 176 175 0 0
-2.4696 4.3861 0.6641 -0.924 -0.070 -0.377 175 176 178 0 0
-2.4658 4.3704 0.6604 0.724 -0.686 0.072 171 172 174 0 0
-2.4650 4.3601 0.6578 -0.852 -0.159 -0.498 169 170 172 0 0
-2.4337 4.4199 0.6751 0.755 -0.655 0.011 168 169 171 0 0
-2.4045 4.3885 0.6692 -0.994 0.041 0.101 164 167 174 0 0
-2.3781 4.4108 0.6766 0.839 -0.498 0.220 176 180 189 0 0
-2.3826 4.3544 0.6621 -0.796 -0.304 -0.523 223 229 241 0 0
-2.5754 3.8933 0.5320 0.615 -0.614 0.495 178 180 193 0 0
-1.2873 5.2363 0.9611 0.178 -0.946 -0.272 215 217 223 0 0
-1.2784 5.2377 0.9621 0.178 -0.946 -0.272 232 233 238 0 0
-1.2192 5.2785 0.9765 0.488 -0.872 -0.035 253 244 245 0 0
-1.2031 5.2904 0.9806 -0.031 -0.947 0.321 245 229 232 0 0
-1.1963 5.2886 0.9806 -0.195 -0.913 0.359 233 210 215 0 0
-0.4018 5.9675 1.2075 0.183 -0.766 0.617 180 174 183 0 0
-0.3949 5.9634 1.2069 0.126 -0.789 0.602 171 167 177 0 0
-0.3580 5.8323 1.1763 -0.841 -0.420 -0.342 251 250 254 0 0
-0.3538 5.8252 1.1748 -0.841 -0.420 -0.342 244 243 249 0 0
-0.3496 5.8181 1.1733 -0.841 -0.420 -0.342 235 233 241 0 0
0.0561 6.2982 1.3229 0.740 -0.576 -0.348 227 231 242 0 0
0.1263 6.3717 1.3463 0.728 -0.601 -0.330 223 232 241 0 0
0.1002 6.1915 1.2989 0.111 -0.632 0.767 113 147 181 0 0
0.2018 6.2734 1.3267 0.539 -0.841 0.043 116 147 181 0 0
0.2230 6.2853 1.3312 0.515 -0.853 -0.088 118 146 178 0 0
0.2211 6.2436 1.3205 -0.907 -0.315 0.280 140 153 175 0 0
0.2128 6.2208 1.3141 -0.828 -0.173 0.533 147 155 174 0 0
0.1586 6.0815 1.2751 0.419 -0.900 0.118 161 160 169 0 0
0.6475 6.2134 1.3424 -0.662 -0.592 -0.460 169 169 177 0 0
0.6535 6.2076 1.3413 -0.662 -0.592 -0.460 166 165 173 0 0
-3.7285 5.6930 0.9012 -0.961 -0.277 0.002 149 145 146 0 0
-3.6635 5.5503 0.8698 -0.260 -0.891 -0.373 36 62 93 0 0
-3.6574 5.5440 0.8686 0.039 -0.988 -0.147 24 57 95 0 0
-3.6513 5.5390 0.8678 0.013 -1.000 -0.023 21 57 97 0 0
-3.6452 5.5342 0.8670 -0.086 -0.957 0.278 21 57 99 0 0
-3.6392 5.5382 0.8684 -0.299 -0.697 0.652 20 57 100 0 0
-3.6332 5.5339 0.8677 -0.722 -0.621 0.304 18 55 99 0 0
-3.6089 5.5047 0.8621 -0.651 -0.304 -0.696 19 54 97 0 0
-3.6028 5.4968 0.8605 -0.675 -0.340 -0.655 21 55 96 0 0
-3.5968 5.4877 0.8586 -0.675 -0.289 -0.679 26 58 97 0 0
-3.5908 5.4598 0.8520 -0.811 -0.409 -0.418 33 61 98 0 0
-3.5849 5.4502 0.8500 -0.811 -0.409 -0.418 41 67 102 0 0
-3.5790 5.4331 0.8461 -0.821 -0.509 -0.260 49 73 107 0 0
-3.5731 5.4269 0.8450 -0.766 -0.489 -0.417 49 72 105 0 0
-3.5673 5.4191 0.8434 -0.766 -0.489 -0.417 45 70 102 0 0
-3.4989 5.3113 0.8210 -0.733 -0.412 -0.542 120 125 134 0 0
-3.4877 5.2968 0.8181 -0.771 -0.562 -0.300 123 126 134 0 0
-3.4822 5.2899 0.8168 -0.771 -0.562 -0.300 126 129 135 0 0
-3.4766 5.2830 0.8154 -0.771 -0.562 -0.300 127 129 133 0 0
-3.4711 5.2745 0.8137 -0.803 -0.592 -0.072 128 128 130 0 0
-3.4660 5.2565 0.8095 -0.905 -0.356 -0.234 129 128 129 0 0
-3.4607 5.2445 0.8068 -0.905 -0.384 -0.184 128 126 129 0 0
-3.4554 5.2346 0.8047 -0.909 -0.417 0.004 128 126 129 0 0
-3.4501 5.2241 0.8024 -0.873 -0.448 -0.194 129 127 130 0 0
-3.4085 5.2548 0.8130 -0.530 -0.404 0.745 128 127 126 0 0
-3.3933 5.2175 0.8047 -0.690 -0.723 -0.036 130 126 127 0 0
-3.3879 5.2110 0.8034 -0.775 -0.632 -0.031 130 126 128 0 0
-3.3825 5.2062 0.8026 0.327 -0.642 0.694 129 125 129 0 0
-3.3771 5.2000 0.8014 -0.696 -0.717 -0.033 127 125 128 0 0
-3.3718 5.1942 0.8003 -0.531 -0.755 0.385 127 125 128 0 0
-2.7930 4.3394 0.6252 -0.917 -0.115 -0.382 168 144 142 0 0
-2.5438 4.5958 0.7068 -0.264 -0.963 0.053 166 167 169 0 0
-2.5449 4.4769 0.6768 -0.325 -0.944 -0.053 182 186 187 0 0
-2.4864 4.4221 0.6670 0.257 -0.966 -0.027 180 181 183 0 0
-2.4427 4.4621 0.6801 -0.154 -0.984 -0.092 173 174 176 0 0
-2.4683 4.3894 0.6601 -0.924 -0.070 -0.377 174 175 177 0 0
-2.4677 4.3782 0.6573 -0.795 -0.297 -0.529 172 173 175 0 0
-2.4653 4.3717 0.6558 -0.895 -0.100 -0.435 171 171 173 0 0
-2.3881 4.3891 0.6655 0.839 -0.498 0.220 171 175 184 0 0
-2.3811 4.3576 0.6580 -0.796 -0.304 -0.523 221 227 239 0 0
-2.5819 3.8798 0.5241 0.222 -0.813 0.539 176 178 191 0 0
-2.5892 3.8554 0.5175 0.276 -0.519 0.809 175 177 190 0 0
-1.2948 5.2370 0.9538 0.178 -0.946 -0.272 200 203 212 0 0
-1.2186 5.2796 0.9698 0.401 -0.906 0.133 252 243 244 0 0
-1.2046 5.2884 0.9730 0.060 -0.987 0.152 244 227 230 0 0
-0.3867 6.0008 1.2083 -0.932 -0.319 -0.169 180 176 184 0 0
-0.3837 5.9915 1.2062 -0.892 -0.399 -0.211 168 164 175 0 0
-0.3756 5.9757 1.2028 -0.058 -0.910 -0.410 168 168 177 0 0
-0.3440 5.9907 1.2087 0.424 -0.684 -0.593 168 170 178 0 0
-0.3864 5.8089 1.1601 0.156 -0.839 -0.522 253 252 255 0 0
-0.3748 5.8113 1.1615 0.068 -0.810 -0.582 248 247 253 0 0
-0.3647 5.8116 1.1623 0.156 -0.839 -0.522 240 240 246 0 0
0.1476 6.3983 1.3450 0.728 -0.601 -0.330 222 232 241 0 0
0.2465 6.3000 1.3271 0.510 -0.840 -0.184 120 149 184 0 0
0.2236 6.2598 1.3154 -0.493 -0.721 -0.487 128 152 180 0 0
0.2190 6.2412 1.3104 -0.880 -0.126 -0.458 139 154 178 0 0
0.2164 6.2251 1.3062 -0.964 -0.144 -0.225 147 156 175 0 0
0.2493 6.2376 1.3116 0.416 -0.725 0.549 158 159 169 0 0
0.6457 6.2238 1.3354 -0.497 -0.682 -0.536 170 169 177 0 0
0.6505 6.2167 1.3339 -0.662 -0.592 -0.460 169 168 176 0 0
-3.8740 5.7582 0.9010 0.775 -0.438 0.455 51 44 45 0 0
-3.8634 5.7834 0.9081 0.455 -0.487 0.746 84 80 78 0 0
-3.8520 5.7994 0.9128 0.255 -0.551 0.795 99 95 93 0 0
-3.8460 5.8041 0.9144 0.483 -0.505 -0.715 100 95 93 0 0
-3.8014 5.7923 0.9145 -0.694 -0.460 -0.554 152 148 148 0 0
-3.7962 5.8125 0.9199 0.872 -0.490 0.021 152 148 149 0 0
-3.6882 5.5742 0.8678 -0.206 -0.876 0.435 131 133 141 0 0
-3.6513 5.5417 0.8622 -0.673 -0.699 -0.241 26 58 96 0 0
-3.6452 5.5383 0.8617 -0.517 -0.856 0.020 26 58 99 0 0
-3.6399 5.5912 0.8753 -0.514 -0.099 -0.852 24 58 101 0 0
-3.6330 5.5251 0.8593 -0.673 -0.699 -0.241 20 57 100 0 0
-3.6270 5.5196 0.8583 -0.673 -0.699 -0.241 18 56 101 0 0
-3.6209 5.5112 0.8566 -0.507 -0.846 -0.168 18 56 102 0 0
-3.6149 5.5101 0.8568 -0.390 -0.921 0.003 18 56 102 0 0
-3.6089 5.5172 0.8589 -0.701 -0.411 -0.583 17 56 101 0 0
-3.6029 5.5086 0.8572 -0.683 -0.399 -0.612 19 57 100 0 0
-3.5968 5.4962 0.8545 -0.599 -0.371 -0.710 26 61 103 0 0
-3.5908 5.4646 0.8470 -0.833 -0.409 -0.372 33 66 104 0 0
-3.5849 5.4544 0.8449 -0.832 -0.419 -0.364 41 70 107 0 0
-3.5790 5.4418 0.8421 -0.852 -0.487 -0.192 49 75 110 0 0
-3.5731 5.4339 0.8406 -0.791 -0.535 -0.296 52 78 111 0 0
-3.5673 5.4236 0.8384 -0.742 -0.549 -0.383 50 77 110 0 0
-3.5614 5.4153 0.8367 -0.699 -0.555 -0.452 45 74 108 0 0
-3.4877 5.2988 0.8127 -0.717 -0.295 -0.632 109 118 130 0 0
-3.4712 5.2714 0.8069 -0.786 -0.387 -0.482 127 128 132 0 0
-3.4660 5.2576 0.8039 -0.843 -0.358 -0.402 130 130 132 0 0
-3.4606 5.2471 0.8016 -0.834 -0.389 -0.392 130 128 131 0 0
-3.4553 5.2368 0.7994 -0.892 -0.370 -0.260 129 128 130 0 0
-3.4499 5.2284 0.7977 -0.833 -0.449 -0.325 130 128 131 0 0
-3.4440 5.2334 0.7993 -0.905 -0.394 0.160 130 128 130 0 0
-3.4099 5.2276 0.8002 -0.784 -0.514 0.349 127 127 128 0 0
-3.4047 5.2183 0.7982 -0.784 -0.514 0.349 129 126 128 0 0
-3.3996 5.2073 0.7958 -0.569 -0.395 0.721 131 127 129 0 0
-3.3890 5.1923 0.7928 0.327 -0.642 0.694 131 126 129 0 0
-3.3830 5.1970 0.7944 0.327 -0.642 0.694 130 125 129 0 0
-3.3770 5.2018 0.7960 0.242 -0.610 0.755 128 126 129 0 0
-3.3720 5.1908 0.7936 -0.718 -0.655 0.236 127 125 128 0 0
-2.6863 4.8745 0.7614 0.124 -0.354 0.927 144 140 141 0 0
-2.7914 4.3445 0.6218 -0.912 -0.086 -0.400 170 146 144 0 0
-2.5447 4.5935 0.7009 -0.301 -0.953 0.036 166 167 169 0 0
-2.5500 4.4639 0.6681 0.006 -0.921 -0.389 183 187 188 0 0
-2.5425 4.4694 0.6700 -0.524 -0.683 -0.509 185 186 188 0 0
-2.4533 4.4498 0.6712 0.449 -0.875 0.178 176 177 179 0 0
-2.4685 4.3890 0.6550 -0.911 -0.078 -0.404 174 175 177 0 0
-2.4656 4.3832 0.6537 -0.898 -0.144 -0.416 172 173 175 0 0
-2.4654 4.3714 0.6508 -0.876 -0.155 -0.456 172 172 174 0 0
-2.3796 4.3609 0.6540 -0.698 -0.462 -0.547 219 225 236 0 0
-2.3702 4.3468 0.6512 -0.729 -0.304 -0.613 198 197 213 0 0
-1.7366 4.6986 0.7823 -0.866 -0.166 0.471 196 201 219 0 0
-1.2716 5.2842 0.9603 -0.944 -0.322 -0.074 185 193 201 0 0
-1.2839 5.2415 0.9488 0.137 -0.939 -0.317 222 223 230 0 0
-1.2648 5.2465 0.9513 -0.577 -0.780 -0.241 251 248 253 0 0
-1.2184 5.2799 0.9629 0.527 -0.847 -0.071 253 245 246 0 0
-1.2054 5.2872 0.9656 0.303 -0.950 -0.081 248 232 234 0 0
-0.8623 5.5364 1.0512 -0.718 -0.647 -0.255 255 251 255 0 0
-0.2915 6.0326 1.2141 0.617 -0.787 -0.021 167 171 180 0 0
-0.3827 5.8137 1.1532 -0.102 -0.794 -0.599 252 251 255 0 0
-0.3730 5.8136 1.1539 -0.441 -0.693 -0.571 246 245 252 0 0
-0.3652 5.8111 1.1538 -0.230 -0.758 -0.610 237 237 244 0 0
0.5951 6.2070 1.3182 0.477 -0.769 -0.426 169 169 179 0 0
0.6475 6.2258 1.3265 -0.662 -0.592 -0.460 169 167 178 0 0
0.6535 6.2199 1.3254 -0.662 -0.592 -0.460 167 165 176 0 0
-3.8330 5.7957 0.9066 0.006 -0.505 0.863 149 143 142 0 0
-3.8267 5.7961 0.9071 -0.230 -0.462 0.857 152 146 146 0 0
-3.8202 5.7914 0.9064 -0.262 -0.446 0.856 152 146 146 0 0
-3.8059 5.7580 0.8990 -0.619 -0.385 0.684 150 145 144 0 0
-3.7984 5.7345 0.8937 -0.696 -0.364 0.619 151 147 146 0 0
-3.7912 5.7149 0.8894 -0.589 -0.423 0.689 152 148 147 0 0
-3.6575 5.5505 0.8576 -0.732 -0.631 -0.257 44 65 98 0 0
-3.6453 5.5388 0.8556 -0.704 -0.689 -0.172 30 57 95 0 0
-3.6277 5.5948 0.8706 -0.599 -0.211 -0.772 22 58 103 0 0
-3.6216 5.6003 0.8724 -0.843 -0.392 -0.368 19 57 103 0 0
-3.6155 5.5992 0.8726 -0.897 -0.382 -0.224 16 56 102 0 0
-3.6088 5.5004 0.8485 -0.427 -0.610 -0.668 16 56 101 0 0
-3.6028 5.4969 0.8480 -0.306 -0.787 -0.535 18 57 101 0 0
-3.5968 5.4943 0.8478 -0.805 -0.503 -0.313 25 63 105 0 0
-3.5849 5.4651 0.8414 -0.909 -0.350 -0.227 41 74 110 0 0
-3.5790 5.4511 0.8383 -0.891 -0.392 -0.231 49 79 113 0 0
-3.5731 5.4371 0.8352 -0.444 -0.567 -0.693 52 81 113 0 0
-3.5672 5.4281 0.8334 -0.408 -0.583 -0.702 51 78 109 0 0
-3.5614 5.4208 0.8320 -0.564 -0.550 -0.616 46 73 106 0 0
-3.4555 5.2315 0.7922 -0.851 -0.231 -0.472 130 129 131 0 0
-3.4445 5.2213 0.7904 -0.937 -0.347 -0.045 131 129 130 0 0
-3.4045 5.2218 0.7932 -0.751 -0.638 0.173 130 127 131 0 0
-3.3988 5.2213 0.7935 -0.669 -0.698 0.254 131 127 130 0 0
-3.3987 5.1233 0.7692 -0.184 -0.886 0.425 132 126 130 0 0
-3.3882 5.2067 0.7906 -0.512 -0.719 0.470 131 126 130 0 0
-3.3827 5.2024 0.7899 -0.512 -0.719 0.470 130 126 130 0 0
-3.3775 5.1938 0.7881 -0.477 -0.687 0.549 128 126 129 0 0
-3.3722 5.1879 0.7870 -0.649 -0.618 0.444 127 125 128 0 0
-3.3678 5.1682 0.7824 -0.182 -0.502 0.846 127 125 128 0 0
-3.3228 5.0895 0.7659 -0.187 -0.569 0.801 131 126 130 0 0
-2.7902 4.3485 0.6182 -0.912 -0.086 -0.400 170 146 144 0 0
-2.5508 4.5919 0.6948 -0.177 -0.800 -0.573 162 163 165 0 0
-2.5443 4.5795 0.6922 -0.843 -0.278 -0.461 170 171 173 0 0
-2.5494 4.4655 0.6636 -0.107 -0.914 -0.390 182 186 187 0 0
-2.5415 4.4719 0.6657 -0.402 -0.864 -0.303 184 185 187 0 0
-2.4708 4.4213 0.6579 0.665 -0.672 0.325 178 179 181 0 0
-2.4602 4.4335 0.6617 0.665 -0.672 0.325 176 177 179 0 0
-2.4649 4.3849 0.6493 -0.846 -0.480 -0.233 172 173 175 0 0
-2.4626 4.3779 0.6477 -0.891 -0.227 -0.393 171 172 174 0 0
-2.3817 4.3681 0.6508 -0.776 -0.386 -0.499 207 214 224 0 0
-2.3783 4.3638 0.6499 -0.698 -0.462 -0.547 216 223 233 0 0
-2.3754 4.3584 0.6488 -0.783 -0.345 -0.517 218 223 234 0 0
-2.3692 4.3490 0.6469 -0.755 -0.306 -0.580 197 196 212 0 0
-1.7410 4.6917 0.7745 0.477 -0.485 -0.733 197 203 220 0 0
-1.7522 4.6636 0.7667 0.790 -0.437 -0.430 202 207 226 0 0
-1.2909 5.2430 0.9417 0.154 -0.956 -0.251 206 211 218 0 0
-1.2824 5.2438 0.9425 0.137 -0.939 -0.317 226 228 235 0 0
-1.2639 5.2479 0.9448 -0.587 -0.781 -0.212 251 251 253 0 0
-1.2595 5.2425 0.9438 0.648 -0.752 0.122 254 254 255 0 0
-1.2177 5.2810 0.9562 0.524 -0.852 -0.006 254 247 248 0 0
-1.2050 5.2880 0.9587 0.303 -0.950 -0.081 253 238 240 0 0
-1.1926 5.2943 0.9611 0.429 -0.903 0.036 251 230 232 0 0
-0.2922 6.0318 1.2051 0.634 -0.755 -0.167 149 155 165 0 0
-0.3887 5.8185 1.1457 -0.214 -0.709 -0.673 250 249 254 0 0
-0.3796 5.8177 1.1461 -0.330 -0.687 -0.648 249 248 254 0 0
-0.3708 5.8164 1.1464 -0.667 -0.539 -0.514 243 242 250 0 0
-0.3652 5.8111 1.1455 -0.815 -0.412 -0.407 236 236 245 0 0
-0.3960 5.7482 1.1277 -0.747 -0.417 -0.518 228 229 239 0 0
0.1415 6.3631 1.3167 0.594 -0.672 0.441 206 222 235 0 0
0.6505 6.2291 1.3180 -0.662 -0.592 -0.460 168 166 177 0 0
-3.8045 5.7337 0.8866 -0.619 -0.385 0.684 150 146 145 0 0
-3.7758 5.7824 0.9005 0.503 -0.567 -0.652 150 146 146 0 0
-3.7630 5.7788 0.9005 0.002 -0.854 -0.520 150 146 147 0 0
-3.7418 5.7196 0.8873 -0.626 -0.121 -0.770 147 145 148 0 0
-3.6883 5.5808 0.8567 -0.806 -0.556 0.201 139 140 142 0 0
-3.6453 5.5409 0.8498 -0.713 -0.670 -0.205 47 67 98 0 0
-3.6218 5.6193 0.8707 -0.777 -0.569 0.270 23 57 100 0 0
-3.6155 5.5990 0.8661 -0.699 -0.443 -0.561 21 57 100 0 0
-3.6029 5.5107 0.8452 -0.635 -0.593 0.495 21 58 101 0 0
-3.5969 5.5008 0.8432 -0.712 -0.568 0.413 25 62 104 0 0
-3.5908 5.4859 0.8399 -0.870 -0.475 0.134 31 66 107 0 0
-3.5790 5.4461 0.8309 -0.874 -0.397 -0.282 51 83 119 0 0
-3.5497 5.4060 0.8230 -0.625 -0.658 -0.421 28 60 97 0 0
-3.5439 5.4010 0.8221 -0.625 -0.658 -0.421 22 56 96 0 0
-3.4445 5.2218 0.7846 -0.816 -0.300 -0.493 133 132 132 0 0
-3.4091 5.1371 0.7662 -0.871 -0.462 -0.167 131 128 133 0 0
-3.3988 5.1204 0.7627 -0.101 -0.978 -0.182 132 128 131 0 0
-3.3636 5.1458 0.7714 -0.346 -0.473 0.810 127 125 128 0 0
-3.3579 5.1462 0.7719 -0.467 -0.418 0.779 127 125 128 0 0
-3.3532 5.1330 0.7689 -0.460 -0.364 0.810 127 125 128 0 0
-3.3440 5.1045 0.7625 -0.362 -0.390 0.847 128 126 129 0 0
-3.3393 5.0924 0.7598 -0.404 -0.482 0.777 128 126 129 0 0
-2.7893 4.3513 0.6142 -0.921 -0.050 -0.385 170 146 144 0 0
-2.5501 4.5940 0.6901 -0.086 -0.867 -0.490 161 162 164 0 0
-2.5469 4.5876 0.6888 -0.946 -0.236 -0.224 166 167 169 0 0
-2.5348 4.5755 0.6866 0.167 -0.443 -0.881 172 176 177 0 0
-2.5436 4.4805 0.6626 -0.505 -0.810 -0.298 182 186 187 0 0
-2.5389 4.4786 0.6625 -0.293 -0.837 -0.462 183 184 186 0 0
-2.5108 4.4815 0.6651 -0.482 -0.087 -0.872 184 185 187 0 0
-2.4638 4.4252 0.6544 0.549 -0.805 0.226 177 178 180 0 0
-2.4646 4.3858 0.6446 -0.857 -0.435 -0.276 173 174 176 0 0
-2.4617 4.3800 0.6434 -0.816 -0.278 -0.507 172 173 175 0 0
-2.4085 4.3448 0.6383 0.822 -0.547 0.158 166 170 178 0 0
-2.3803 4.3711 0.6467 -0.791 -0.406 -0.458 204 211 221 0 0
-2.3770 4.3667 0.6458 -0.698 -0.462 -0.547 212 219 229 0 0
-2.3740 4.3614 0.6447 -0.783 -0.345 -0.517 215 219 231 0 0
-2.3675 4.3525 0.6429 -0.688 -0.399 -0.606 193 195 210 0 0
-1.2715 5.2846 0.9464 -0.956 -0.293 -0.037 194 199 209 0 0
-1.2649 5.2465 0.9374 -0.352 -0.843 -0.406 251 252 254 0 0
-1.2617 5.2394 0.9359 0.648 -0.752 0.122 253 253 254 0 0
-1.2066 5.2856 0.9510 0.057 -0.996 0.063 254 238 240 0 0
-0.2693 6.0615 1.2053 0.678 -0.735 0.015 153 159 170 0 0
-0.3849 5.8235 1.1388 -0.304 -0.663 -0.684 245 244 251 0 0
-0.3759 5.8224 1.1392 -0.330 -0.687 -0.648 243 242 251 0 0
-0.3681 5.8199 1.1391 -0.667 -0.539 -0.514 239 238 248 0 0
-0.3630 5.8141 1.1380 -0.815 -0.412 -0.407 234 234 245 0 0
-0.3924 5.7528 1.1209 -0.795 -0.485 -0.364 226 228 239 0 0
0.1903 6.4514 1.3323 0.452 -0.693 0.561 218 228 238 0 0
0.6493 6.2280 1.3081 -0.798 -0.496 -0.342 166 165 175 0 0
0.6551 6.2219 1.3070 -0.777 -0.529 -0.341 158 158 168 0 0
-3.8376 5.7691 0.8865 0.175 -0.678 0.714 143 139 138 0 0
-3.8312 5.7670 0.8864 -0.132 -0.647 0.751 144 141 140 0 0
-3.8250 5.7659 0.8865 -0.132 -0.647 0.751 144 141 140 0 0
-3.8187 5.7657 0.8869 -0.242 -0.681 0.691 145 142 141 0 0
-3.8125 5.7659 0.8874 -0.532 -0.745 0.402 148 144 143 0 0
-3.8061 5.7624 0.8869 -0.763 -0.267 -0.589 149 145 144 0 0
-3.7991 5.7488 0.8841 -0.763 -0.267 -0.589 150 146 145 0 0
-3.7914 5.7182 0.8771 -0.755 -0.229 -0.614 151 146 145 0 0
-3.7844 5.7018 0.8735 -0.841 -0.307 -0.445 151 145 145 0 0
-3.7786 5.7093 0.8758 -0.909 -0.334 -0.251 151 145 145 0 0
-3.7759 5.7842 0.8943 -0.233 -0.380 -0.895 151 145 145 0 0
-3.7429 5.7479 0.8876 -0.513 -0.156 -0.844 148 144 149 0 0
-3.6883 5.5789 0.8499 -0.846 -0.529 0.068 142 142 142 0 0
-3.6713 5.6353 0.8648 -0.424 -0.380 0.822 126 130 138 0 0
-3.6655 5.6532 0.8696 -0.704 -0.395 0.590 119 124 137 0 0
-3.6405 5.6369 0.8673 -0.682 -0.416 -0.601 76 92 117 0 0
-3.6342 5.6290 0.8658 -0.670 -0.405 -0.622 62 82 111 0 0
-3.5968 5.4956 0.8356 -0.714 -0.566 0.411 29 62 102 0 0
-3.5908 5.4840 0.8332 -0.870 -0.475 0.134 34 65 105 0 0
-3.5790 5.4524 0.8262 -0.841 -0.466 -0.275 46 77 115 0 0
-3.5731 5.4445 0.8247 -0.773 -0.526 -0.355 46 78 116 0 0
-3.5672 5.4337 0.8224 -0.719 -0.489 -0.494 42 74 112 0 0
-3.4549 5.2462 0.7841 -0.859 -0.235 -0.454 131 132 135 0 0
-3.4496 5.2360 0.7819 -0.831 -0.254 -0.495 133 134 133 0 0
-3.4443 5.2281 0.7803 -0.816 -0.300 -0.493 134 134 132 0 0
-3.4185 5.1714 0.7682 -0.745 -0.242 -0.622 132 129 136 0 0
-3.4135 5.1600 0.7657 -0.775 -0.338 -0.534 132 129 137 0 0
-3.3920 5.1413 0.7626 -0.956 -0.216 -0.201 131 129 132 0 0
-3.3694 5.1427 0.7644 -0.241 -0.551 0.799 129 127 130 0 0
-3.3586 5.1370 0.7638 -0.514 -0.478 0.712 129 127 130 0 0
-3.3537 5.1254 0.7612 -0.531 -0.452 0.717 129 127 130 0 0
-3.3248 5.0639 0.7481 -0.094 -0.620 0.779 130 125 129 0 0
-3.3193 5.0632 0.7483 -0.294 -0.591 0.751 130 125 129 0 0
-3.2511 4.8202 0.6934 -0.764 -0.500 0.408 127 125 128 0 0
-2.7459 4.6507 0.6857 0.043 -0.331 0.943 143 141 142 0 0
-2.7560 4.5620 0.6633 -0.473 -0.167 0.865 152 146 148 0 0
-2.7881 4.3554 0.6106 -0.921 -0.050 -0.385 170 146 144 0 0
-2.5926 4.5833 0.6794 0.227 -0.933 -0.280 152 156 157 0 0
-2.5498 4.5950 0.6852 0.134 -0.424 -0.896 163 164 166 0 0
-2.5341 4.5774 0.6819 0.497 -0.730 -0.469 173 177 178 0 0
-2.5440 4.4796 0.6573 -0.546 -0.780 -0.305 182 186 187 0 0
-2.5384 4.4801 0.6578 -0.358 -0.792 -0.494 184 185 187 0 0
-2.5336 4.4786 0.6578 -0.370 -0.697 0.615 184 185 187 0 0
-2.5302 4.4735 0.6567 -0.013 -0.771 0.637 185 186 188 0 0
-2.5141 4.5008 0.6645 -0.349 -0.189 -0.918 185 186 188 0 0
-2.5089 4.5002 0.6647 -0.273 -0.183 -0.944 185 186 188 0 0
-2.5057 4.4945 0.6635 -0.396 -0.095 -0.913 184 185 187 0 0
-2.4648 4.4230 0.6487 0.549 -0.805 0.226 178 179 181 0 0
-2.4568 4.4289 0.6507 0.528 -0.807 0.266 177 178 180 0 0
-2.3791 4.3737 0.6424 -0.791 -0.406 -0.458 201 208 218 0 0
-2.3727 4.3645 0.6406 -0.783 -0.345 -0.517 211 216 227 0 0
-2.3659 4.3559 0.6389 -0.688 -0.399 -0.606 191 194 206 0 0
-1.6721 4.7902 0.7916 0.809 -0.441 -0.387 203 208 227 0 0
-1.6918 4.6662 0.7599 -0.375 -0.173 0.911 183 186 198 0 0
-1.2633 5.2489 0.9312 -0.317 -0.799 -0.512 252 253 255 0 0
-1.2155 5.2845 0.9431 0.144 -0.880 -0.452 255 242 245 0 0
-1.2059 5.2867 0.9443 -0.080 -0.994 -0.081 253 234 237 0 0
-0.8672 5.5421 1.0294 -0.673 -0.708 -0.212 254 252 254 0 0
-0.2887 6.0364 1.1890 0.684 -0.647 -0.338 170 176 189 0 0
-0.3735 5.8256 1.1318 -0.304 -0.663 -0.684 240 238 249 0 0
-0.3653 5.8235 1.1318 -0.667 -0.539 -0.514 234 232 243 0 0
-0.3607 5.8170 1.1305 -0.815 -0.412 -0.407 229 229 241 0 0
0.6573 6.2243 1.2982 -0.777 -0.529 -0.341 153 153 163 0 0
-3.8846 5.7356 0.8686 -0.077 -0.997 -0.002 128 118 120 0 0
-3.8785 5.7358 0.8691 -0.153 -0.976 0.154 127 118 121 0 0
-3.8722 5.7326 0.8687 0.040 -0.950 0.308 118 112 114 0 0
-3.8661 5.7330 0.8692 0.040 -0.950 0.308 108 105 106 0 0
-3.8238 5.7454 0.8750 -0.554 -0.757 0.347 134 134 132 0 0
-3.8179 5.7513 0.8768 -0.331 -0.898 0.289 138 138 137 0 0
-3.8059 5.7593 0.8796 -0.494 -0.671 0.553 145 142 142 0 0
-3.7994 5.7534 0.8786 -0.476 -0.633 0.610 147 144 143 0 0
-3.7367 5.7490 0.8817 -0.339 -0.190 -0.922 147 145 149 0 0
-3.6882 5.5766 0.8430 -0.673 -0.740 -0.018 143 142 140 0 0
-3.6821 5.5730 0.8425 -0.214 -0.758 0.616 141 141 141 0 0
-3.6652 5.6371 0.8592 -0.704 -0.395 0.590 133 136 142 0 0
-3.6588 5.6225 0.8561 -0.567 -0.401 0.720 129 132 142 0 0
-3.6462 5.6059 0.8529 -0.168 -0.398 0.902 122 128 141 0 0
-3.6401 5.6040 0.8528 -0.063 -0.419 0.906 116 124 139 0 0
-3.6339 5.6036 0.8531 -0.053 -0.420 0.906 106 117 135 0 0
-3.6278 5.6007 0.8529 -0.090 -0.422 0.902 93 107 129 0 0
-3.6216 5.6034 0.8539 -0.202 -0.435 0.877 80 96 121 0 0
-3.6155 5.6003 0.8536 -0.160 -0.454 0.877 67 85 113 0 0
-3.5849 5.4712 0.8242 -0.825 -0.558 0.090 40 66 104 0 0
-3.5789 5.4572 0.8212 -0.833 -0.536 -0.139 40 67 105 0 0
-3.5730 5.4496 0.8198 -0.781 -0.582 -0.226 41 69 107 0 0
-3.5668 5.4956 0.8314 -0.524 0.040 -0.851 40 70 108 0 0
-3.5496 5.4176 0.8135 -0.465 -0.579 -0.670 26 61 102 0 0
-3.5437 5.4171 0.8138 -0.340 -0.644 -0.686 20 57 100 0 0
-3.4884 5.2752 0.7830 -0.214 -0.572 0.792 31 60 100 0 0
-3.4494 5.2427 0.7777 -0.830 -0.265 -0.491 134 135 134 0 0
-3.4439 5.2370 0.7766 -0.702 -0.302 -0.645 134 134 132 0 0
-3.3918 5.1446 0.7576 -0.976 -0.194 -0.100 131 129 132 0 0
-2.7870 4.3590 0.6068 -0.922 -0.066 -0.381 171 145 144 0 0
-2.5412 4.7785 0.7251 -0.748 0.020 0.663 136 142 140 0 0
-2.5930 4.5822 0.6740 0.282 -0.959 0.000 154 158 159 0 0
-2.5409 4.6040 0.6827 -0.663 -0.043 -0.747 170 171 173 0 0
-2.5383 4.5958 0.6809 -0.663 -0.043 -0.747 173 174 176 0 0
-2.5366 4.5707 0.6749 0.563 -0.779 0.276 174 178 179 0 0
-2.5477 4.4839 0.6531 -0.400 -0.853 -0.335 182 186 187 0 0
-2.5411 4.4871 0.6543 -0.564 -0.485 -0.668 182 186 187 0 0
-2.5365 4.4850 0.6541 -0.367 -0.478 -0.798 183 184 186 0 0
-2.5057 4.5083 0.6618 -0.357 -0.108 -0.928 185 186 188 0 0
-2.5020 4.5037 0.6609 -0.357 -0.108 -0.928 184 185 187 0 0
-2.4659 4.4203 0.6430 0.478 -0.815 0.328 178 179 181 0 0
-2.4504 4.4315 0.6468 0.480 -0.823 0.305 176 177 179 0 0
-2.4066 4.3490 0.6296 0.801 -0.581 -0.145 164 169 175 0 0
-2.3714 4.3673 0.6364 -0.820 -0.302 -0.487 208 213 225 0 0
-2.3646 4.3588 0.6348 -0.714 -0.380 -0.588 190 193 206 0 0
-1.7228 4.6388 0.7454 0.094 -0.679 0.728 188 189 201 0 0
-1.7341 4.5919 0.7333 -0.462 -0.075 0.884 186 192 201 0 0
-1.2620 5.2510 0.9248 -0.139 -0.795 -0.591 253 253 254 0 0
-2.1121 3.8967 0.5392 0.627 -0.675 0.388 199 185 190 0 0
-0.8663 5.5434 1.0221 -0.673 -0.708 -0.212 254 251 254 0 0
-0.3778 5.8327 1.1249 -0.497 -0.653 -0.571 244 242 251 0 0
-0.3714 5.8283 1.1242 -0.497 -0.653 -0.571 239 237 248 0 0
-0.3650 5.8240 1.1236 -0.497 -0.653 -0.571 229 228 239 0 0
-0.3594 5.8187 1.1227 -0.712 -0.555 -0.431 225 225 237 0 0
0.2614 6.4828 1.3253 -0.990 0.003 0.139 168 184 213 0 0
0.6496 6.2407 1.2922 -0.873 -0.395 -0.285 166 166 176 0 0
0.6538 6.2329 1.2906 -0.798 -0.496 -0.342 158 158 169 0 0
-3.8909 5.7374 0.8621 -0.050 -0.968 -0.245 116 108 110 0 0
-3.8848 5.7375 0.8625 -0.692 -0.695 0.196 117 110 112 0 0
-3.8781 5.7304 0.8612 -0.722 -0.631 0.284 106 101 104 0 0
-3.8722 5.7332 0.8623 -0.104 -0.993 0.053 92 89 91 0 0
-3.8113 5.7434 0.8688 -0.181 -0.555 0.812 126 125 126 0 0
-3.8057 5.7557 0.8721 -0.225 -0.483 0.846 130 129 130 0 0
-3.7141 5.6320 0.8483 -0.101 -0.432 -0.896 147 144 144 0 0
-3.7080 5.6336 0.8491 0.602 -0.787 0.133 148 144 143 0 0
-3.7020 5.6349 0.8498 0.010 -0.997 -0.076 146 142 140 0 0
-3.6883 5.5815 0.8378 -0.337 -0.404 -0.850 141 140 137 0 0
-3.6817 5.5570 0.8323 0.620 -0.758 -0.203 141 140 139 0 0
-3.6214 5.5681 0.8390 -0.100 -0.411 0.906 119 124 138 0 0
-3.6153 5.5715 0.8402 -0.069 -0.410 0.909 111 118 135 0 0
-3.6092 5.5728 0.8409 -0.005 -0.418 0.908 101 111 132 0 0
-3.5909 5.5794 0.8437 0.094 -0.409 0.908 71 89 118 0 0
-3.5789 5.4589 0.8154 -0.817 -0.558 -0.146 53 74 107 0 0
-3.5730 5.4517 0.8141 -0.768 -0.596 -0.235 47 70 105 0 0
-3.5033 5.3696 0.7989 -0.249 -0.946 0.208 16 56 98 0 0
-3.4971 5.3813 0.8021 -0.626 -0.411 -0.662 17 53 95 0 0
-3.4492 5.2479 0.7731 -0.791 -0.296 -0.536 135 136 137 0 0
-3.4436 5.2433 0.7723 -0.771 -0.334 -0.543 136 135 133 0 0
-3.4381 5.2388 0.7716 -0.456 -0.576 -0.678 136 134 131 0 0
-3.3916 5.1488 0.7529 -0.687 -0.673 -0.274 132 131 132 0 0
-3.3873 5.1261 0.7477 -0.960 -0.226 0.166 132 130 133 0 0
-3.3318 5.0458 0.7320 -0.058 -0.623 0.780 130 128 131 0 0
-3.3187 5.0708 0.7389 -0.247 -0.400 0.883 131 126 130 0 0
-3.3136 5.0653 0.7379 -0.399 -0.377 0.836 131 126 130 0 0
-3.3088 5.0559 0.7359 -0.399 -0.377 0.836 131 126 130 0 0
-3.3040 5.0482 0.7344 -0.369 -0.387 0.845 130 128 129 0 0
-3.2490 4.9364 0.7110 -0.454 -0.626 -0.634 128 126 129 0 0
-2.8495 4.3636 0.5991 0.416 -0.385 0.824 135 129 131 0 0
-2.7857 4.3631 0.6032 -0.920 -0.133 -0.369 171 145 146 0 0
-2.5967 4.5876 0.6698 -0.002 -0.698 0.716 149 153 154 0 0
-2.5912 4.5876 0.6702 0.059 -0.640 0.766 151 155 156 0 0
-2.5848 4.5899 0.6711 0.176 -0.798 0.577 154 155 157 0 0
-2.5616 4.6084 0.6771 0.548 -0.829 0.109 164 165 167 0 0
-2.5572 4.6052 0.6767 0.207 -0.978 0.036 165 166 168 0 0
-2.5434 4.6125 0.6793 -0.209 -0.222 -0.952 170 171 173 0 0
-2.5409 4.6041 0.6775 -0.806 0.004 -0.592 172 173 175 0 0
-2.5356 4.6033 0.6776 -0.740 -0.062 -0.670 174 175 177 0 0
-2.5472 4.4852 0.6483 -0.689 -0.707 -0.162 180 184 185 0 0
-2.5397 4.4908 0.6502 -0.649 -0.370 -0.665 180 184 185 0 0
-2.5300 4.5019 0.6535 0.283 -0.892 -0.353 182 183 185 0 0
-2.5239 4.5035 0.6543 0.283 -0.892 -0.353 183 184 186 0 0
-2.4797 4.4131 0.6354 0.139 -0.985 0.100 177 181 182 0 0
-2.4592 4.4236 0.6393 0.606 -0.769 0.206 177 178 180 0 0
-2.3887 4.3763 0.6325 0.862 -0.508 -0.007 169 173 182 0 0
-2.3700 4.3703 0.6323 -0.820 -0.302 -0.487 205 211 222 0 0
-1.6059 4.9059 0.8119 0.801 -0.452 -0.393 204 208 226 0 0
-1.7220 4.6401 0.7401 -0.558 -0.159 0.815 186 188 200 0 0
-1.2596 5.2547 0.9189 -0.204 -0.778 -0.594 253 252 253 0 0
-1.1948 5.3033 0.9349 0.294 -0.738 -0.607 245 215 221 0 0
-0.8653 5.5449 1.0149 -0.677 -0.688 -0.263 254 251 255 0 0
-0.2733 6.0699 1.1807 0.712 -0.643 -0.283 145 154 168 0 0
-0.3818 5.8277 1.1151 0.184 -0.858 -0.479 241 240 248 0 0
-0.3706 5.8294 1.1162 0.184 -0.858 -0.479 238 236 247 0 0
-0.3621 5.8277 1.1164 -0.346 -0.792 -0.503 230 229 240 0 0
-0.3580 5.8206 1.1149 -0.573 -0.680 -0.458 225 226 239 0 0
0.2296 6.5006 1.3177 0.541 -0.281 -0.793 214 227 242 0 0
0.2408 6.1642 1.2373 -0.812 -0.067 0.580 159 159 171 0 0
0.2413 6.1271 1.2284 -0.248 -0.822 0.512 161 161 173 0 0
-3.8914 5.7441 0.8572 -0.796 -0.605 0.024 108 102 104 0 0
-3.8846 5.7348 0.8554 -0.834 -0.541 0.107 102 98 99 0 0
-3.8773 5.7185 0.8519 -0.741 -0.570 0.354 88 86 88 0 0
-3.8566 5.6841 0.8450 -0.352 -0.588 0.728 64 65 68 0 0
-3.8148 5.6978 0.8511 0.072 -0.333 0.940 95 97 98 0 0
-3.7976 5.7191 0.8573 0.050 -0.344 0.937 115 114 116 0 0
-3.7912 5.7160 0.8570 -0.034 -0.376 0.926 123 122 123 0 0
-3.7853 5.7204 0.8584 -0.121 -0.380 0.917 130 128 128 0 0
-3.7790 5.7192 0.8585 -0.136 -0.414 0.900 135 132 133 0 0
-3.7592 5.6905 0.8530 -0.220 -0.621 0.752 145 140 139 0 0
-3.7529 5.6876 0.8527 -0.761 -0.419 -0.495 145 142 141 0 0
-3.7461 5.6704 0.8490 -0.788 -0.343 -0.511 146 143 143 0 0
-3.7395 5.6589 0.8467 -0.813 -0.307 -0.494 146 144 145 0 0
-3.7015 5.6200 0.8398 -0.151 -0.701 0.697 145 142 141 0 0
-3.6952 5.6124 0.8384 0.328 -0.808 0.490 143 140 139 0 0
-3.6817 5.5564 0.8259 0.041 -0.767 0.640 142 140 139 0 0
-3.6756 5.5531 0.8255 -0.341 -0.792 0.507 141 139 139 0 0
-3.6695 5.5516 0.8255 -0.730 -0.581 0.359 141 138 139 0 0
-3.6635 5.5532 0.8263 -0.394 -0.645 0.654 141 138 140 0 0
-3.6513 5.5401 0.8239 -0.195 -0.463 0.865 139 139 141 0 0
-3.5848 5.5494 0.8305 0.000 -0.421 0.907 101 113 136 0 0
-3.5786 5.5542 0.8321 -0.199 -0.457 0.867 92 106 130 0 0
-3.5726 5.5507 0.8316 -0.199 -0.457 0.867 80 96 123 0 0
-3.5665 5.5399 0.8295 -0.512 -0.586 0.628 67 84 114 0 0
-3.5605 5.5339 0.8284 -0.690 -0.581 0.432 55 73 106 0 0
-3.5544 5.5268 0.8271 -0.597 -0.580 0.554 47 66 102 0 0
-3.4697 5.3181 0.7826 -0.915 -0.150 -0.374 88 100 126 0 0
-3.4380 5.2407 0.7661 -0.748 -0.311 -0.587 139 135 134 0 0
-3.4148 5.2459 0.7689 -0.463 -0.190 -0.866 137 134 141 0 0
-3.3924 5.2338 0.7675 -0.862 -0.023 -0.506 133 133 133 0 0
-3.3915 5.1510 0.7477 -0.750 -0.633 -0.193 133 133 133 0 0
-3.3862 5.1449 0.7465 -0.796 -0.600 0.078 133 131 134 0 0
-3.3811 5.1362 0.7448 -0.852 -0.522 -0.047 134 132 135 0 0
-3.1829 4.6673 0.6454 -0.729 -0.649 -0.217 128 126 129 0 0
-3.1149 4.7435 0.6681 -0.793 -0.130 0.595 128 126 129 0 0
-3.1100 4.7417 0.6680 -0.991 -0.115 -0.068 128 126 129 0 0
-2.8393 4.3651 0.5954 0.644 -0.401 0.651 138 132 134 0 0
-2.5602 4.7408 0.7037 0.439 -0.453 0.776 137 149 143 0 0
-2.5962 4.5890 0.6650 0.004 -0.453 -0.892 147 151 152 0 0
-2.5945 4.5784 0.6625 0.571 -0.810 -0.134 148 152 153 0 0
-2.5679 4.6064 0.6710 0.490 -0.399 -0.775 152 153 155 0 0
-2.5601 4.6126 0.6730 0.381 -0.318 -0.868 153 154 156 0 0
-2.5532 4.6161 0.6743 0.337 -0.312 -0.888 158 159 161 0 0
-2.5465 4.6192 0.6755 0.322 -0.303 -0.897 165 166 168 0 0
-2.5374 4.6137 0.6747 -0.646 0.005 -0.763 174 175 177 0 0
-2.5349 4.6052 0.6729 -0.580 -0.008 -0.815 175 176 178 0 0
-2.5393 4.5059 0.6488 -0.646 -0.437 -0.626 180 184 185 0 0
-2.5290 4.5045 0.6491 0.144 -0.869 -0.473 182 183 185 0 0
-2.5227 4.5068 0.6501 0.194 -0.844 -0.500 183 184 186 0 0
-2.5182 4.5043 0.6498 -0.017 -0.945 -0.326 183 184 186 0 0
-2.4671 4.4561 0.6416 0.277 -0.877 0.392 178 182 183 0 0
-2.4743 4.4132 0.6308 0.208 -0.972 0.110 177 181 182 0 0
-1.1900 5.3105 0.9299 0.297 -0.724 -0.622 241 210 217 0 0
-0.2715 6.0724 1.1726 0.706 -0.708 -0.034 142 150 165 0 0
-0.3787 5.8317 1.1079 0.158 -0.972 -0.173 239 238 246 0 0
-0.3674 5.8336 1.1091 0.285 -0.934 -0.217 236 235 245 0 0
-0.3545 5.8375 1.1108 0.423 -0.893 -0.151 230 230 241 0 0
0.2375 6.1229 1.2180 -0.259 -0.904 0.339 160 160 172 0 0
0.6492 6.2528 1.2760 -0.852 -0.427 -0.303 168 168 179 0 0
-3.8976 5.7448 0.8504 -0.726 -0.683 0.083 102 97 96 0 0
-3.8909 5.7373 0.8490 -0.836 -0.529 0.146 101 97 98 0 0
-3.8769 5.7131 0.8442 -0.741 -0.570 0.354 73 75 76 0 0
-3.8556 5.6687 0.8350 -0.382 -0.588 0.713 57 59 63 0 0
-3.7832 5.6791 0.8422 -0.061 -0.354 0.933 105 104 106 0 0
-3.7650 5.6833 0.8443 0.024 -0.410 0.912 129 126 126 0 0
-3.7525 5.6776 0.8438 -0.186 -0.617 0.765 136 135 132 0 0
-3.7459 5.6665 0.8416 -0.597 -0.688 0.412 138 137 135 0 0
-3.7391 5.6493 0.8379 -0.818 -0.359 -0.450 141 140 139 0 0
-3.7330 5.6486 0.8382 -0.861 -0.380 -0.338 144 142 143 0 0
-3.7265 5.6368 0.8358 -0.801 -0.357 -0.480 146 144 145 0 0
-3.7200 5.6266 0.8338 -0.637 -0.305 -0.708 146 144 145 0 0
-3.6757 5.5579 0.8203 -0.810 -0.578 0.105 144 140 141 0 0
-3.6694 5.5475 0.8182 -0.755 -0.580 0.306 142 138 139 0 0
-3.6632 5.5372 0.8162 -0.341 -0.870 -0.355 141 137 140 0 0
-3.6572 5.5349 0.8160 -0.341 -0.870 -0.355 140 138 141 0 0
-3.6448 5.5101 0.8109 -0.905 -0.364 -0.222 140 136 140 0 0
-3.6390 5.5227 0.8143 -0.156 -0.529 0.834 142 137 140 0 0
-3.5848 5.5256 0.8185 -0.015 -0.399 0.917 127 132 144 0 0
-3.5605 5.5243 0.8198 -0.348 -0.568 0.746 101 110 133 0 0
-3.5545 5.5196 0.8190 -0.456 -0.652 0.606 91 101 125 0 0
-3.5426 5.4991 0.8150 -0.577 -0.169 -0.799 60 74 104 0 0
-3.4643 5.3058 0.7740 -0.920 -0.170 -0.353 107 112 135 0 0
-3.4431 5.2562 0.7636 -0.771 -0.334 -0.543 140 139 139 0 0
-3.4375 5.2511 0.7627 -0.752 -0.421 -0.507 142 138 137 0 0
-3.4217 5.2217 0.7568 -0.860 -0.503 -0.079 140 136 141 0 0
-3.4164 5.2128 0.7550 -0.825 -0.556 -0.098 139 136 143 0 0
-3.4111 5.2062 0.7538 -0.669 -0.731 0.134 138 136 142 0 0
-3.4058 5.1974 0.7520 -0.570 -0.804 0.172 136 136 139 0 0
-3.3283 5.0210 0.7151 -0.769 -0.631 -0.103 133 128 132 0 0
-2.8325 4.3715 0.5926 0.677 -0.405 0.615 141 135 137 0 0
-2.6134 4.6190 0.6658 0.512 -0.451 0.731 141 162 147 0 0
-2.5953 4.6554 0.6756 0.512 -0.451 0.731 140 157 147 0 0
-2.5768 4.6928 0.6857 0.487 -0.455 0.746 140 153 146 0 0
-2.5981 4.5835 0.6583 0.077 -0.342 -0.937 146 150 151 0 0
-2.5961 4.5738 0.6562 0.630 -0.730 -0.266 148 152 153 0 0
-2.5851 4.5893 0.6605 0.622 -0.776 -0.104 148 149 151 0 0
-2.5696 4.6018 0.6645 0.762 -0.642 0.084 149 150 152 0 0
-2.5581 4.6182 0.6692 0.797 -0.601 -0.057 149 150 152 0 0
-2.5468 4.6339 0.6737 0.830 -0.545 -0.118 154 155 157 0 0
-2.5350 4.6509 0.6785 0.830 -0.545 -0.118 162 163 165 0 0
-2.5286 4.6223 0.6721 -0.459 -0.136 0.878 176 177 179 0 0
-2.5348 4.5177 0.6468 -0.113 -0.724 -0.680 179 183 184 0 0
-2.5297 4.5169 0.6469 -0.141 -0.580 -0.802 180 184 185 0 0
-2.5208 4.5258 0.6496 -0.561 -0.369 -0.741 183 184 186 0 0
-2.4662 4.4584 0.6371 0.276 -0.782 0.558 179 183 184 0 0
-2.4624 4.4544 0.6364 -0.183 -0.883 0.433 179 183 184 0 0
-2.4661 4.4328 0.6310 -0.653 -0.722 -0.227 179 183 184 0 0
-2.4692 4.4127 0.6260 0.365 -0.909 -0.200 180 181 183 0 0
-2.4449 4.4193 0.6292 -0.195 -0.975 0.105 174 175 177 0 0
-2.4367 4.4258 0.6313 -0.001 -0.715 -0.699 173 174 176 0 0
-2.3863 4.4052 0.6296 0.152 -0.673 0.724 165 168 175 0 0
-2.3948 4.3631 0.6191 0.857 -0.506 0.093 167 171 180 0 0
-2.3436 4.4625 0.6460 0.821 -0.520 0.236 176 180 189 0 0
-1.2057 5.3113 0.9220 0.346 -0.718 -0.604 252 237 241 0 0
-1.1860 5.3164 0.9245 0.264 -0.758 -0.596 245 217 224 0 0
-0.2705 6.0738 1.1642 0.706 -0.708 -0.034 153 163 176 0 0
-0.3776 5.8332 1.1000 0.155 -0.980 -0.126 241 240 247 0 0
0.2232 6.5071 1.2994 0.592 -0.296 -0.750 216 229 241 0 0
-3.9042 5.7516 0.8450 -0.578 -0.788 0.213 91 88 87 0 0
-3.8974 5.7427 0.8434 -0.812 -0.531 0.243 98 95 94 0 0
-3.7634 5.6461 0.8292 0.064 -0.366 0.929 103 103 103 0 0
-3.7576 5.6525 0.8311 0.094 -0.359 0.928 109 109 106 0 0
-3.7517 5.6581 0.8328 0.108 -0.370 0.923 116 115 112 0 0
-3.7390 5.6460 0.8307 -0.264 -0.559 0.786 131 129 129 0 0
-3.7326 5.6391 0.8295 -0.547 -0.573 0.610 136 134 135 0 0
-3.7265 5.6386 0.8298 -0.505 -0.637 0.582 139 137 139 0 0
-3.7200 5.6275 0.8276 -0.669 -0.743 0.015 141 139 141 0 0
-3.7138 5.6218 0.8266 -0.669 -0.743 0.015 142 140 141 0 0
-3.7074 5.6141 0.8252 -0.736 -0.668 -0.111 143 141 142 0 0
-3.6694 5.5477 0.8120 -0.874 -0.396 -0.283 144 139 142 0 0
-3.6632 5.5358 0.8096 -0.859 -0.367 -0.357 142 138 142 0 0
-3.6572 5.5346 0.8097 -0.797 -0.557 -0.234 141 139 141 0 0
-3.6510 5.5246 0.8077 -0.594 -0.717 -0.364 141 139 141 0 0
-3.5546 5.5069 0.8097 -0.229 -0.549 0.804 122 127 141 0 0
-3.5366 5.4996 0.8092 -0.787 -0.575 -0.224 97 105 129 0 0
-3.5306 5.4920 0.8078 -0.648 -0.348 -0.678 85 95 122 0 0
-3.5247 5.4852 0.8065 -0.667 -0.462 -0.585 73 85 115 0 0
-3.4430 5.2580 0.7581 -0.830 -0.329 -0.450 143 141 144 0 0
-3.4367 5.2698 0.7613 -0.731 -0.673 -0.114 144 140 141 0 0
-3.4214 5.2281 0.7524 -0.846 -0.482 0.229 142 138 142 0 0
-3.2763 4.9342 0.6923 -0.847 -0.218 -0.485 130 128 129 0 0
-3.2689 4.9538 0.6974 -0.746 -0.650 -0.146 130 128 130 0 0
-3.2591 4.9438 0.6957 -0.369 -0.915 0.162 131 129 132 0 0
-3.2403 4.8698 0.6794 -0.771 -0.029 -0.636 129 127 130 0 0
-3.2335 4.8827 0.6829 -0.808 -0.175 -0.562 130 128 131 0 0
-2.5944 4.5943 0.6559 -0.245 -0.958 -0.147 146 150 151 0 0
-2.5891 4.5781 0.6524 0.601 -0.708 0.372 149 150 152 0 0
