ply
format ascii 1.0
element vertex 701
property float x
property float y
property float z
property uchar diffuse_red
property uchar diffuse_green
property uchar diffuse_blue
end_header
-0.8776416508630724 5.778141111026902 0.517459730367553 180 177 179
-0.8715924694951991 5.7735358949586395 0.5170792911715811 190 188 191
-0.8669730783510337 5.766844685948166 0.5163890797165052 213 211 215
-0.8622886250823782 5.760279017616081 0.5157168194294396 234 232 237
-0.8608164686692574 5.749051195529112 0.5143516722523095 247 246 249
-0.8593394685149506 5.737890816406239 0.5129951763448035 252 252 254
-0.7937876101386261 5.81974648156407 0.5254621941027038 253 253 254
-0.7334661130937535 5.893480807311046 0.5367342659342385 250 250 250
-0.7248019104827864 5.892266639381061 0.5368669837293849 239 238 239
-0.7210307562796334 5.884017373559844 0.5359526406824928 225 223 225
-0.7184978105879327 5.874035007537211 0.5347792723547624 211 209 213
-0.7157501934061193 5.864409846504222 0.5336579550420467 208 206 211
-0.7130466221944493 5.854770501566663 0.5325334000096857 221 219 223
-0.7034741596250103 5.854916560225689 0.532867319478916 238 236 238
-0.31572823422169066 6.129381662665431 0.5802056359314258 215 216 222
-0.22099122326919823 6.227527053823101 0.5956856677359316 204 207 219
-0.11459176907966097 6.354095030661773 0.6151287505595707 202 206 220
0.08690572828835846 6.5155983623863 0.6421051159012913 217 222 234
0.35905826799578683 6.360175760288153 0.6315069147565917 171 174 190
0.38585057993881733 6.377994131554258 0.6346335241687696 172 175 191
-4.169055329292505 6.731437356708588 0.5209665294024289 152 123 109
-4.011834143107087 5.858361517913112 0.4176059466729383 150 121 106
-3.935512305671801 5.914440697399162 0.4270524200628989 141 118 99
-3.9292925019372644 5.916089959556833 0.4274593747124558 132 112 98
-3.923094159963346 5.918141204720509 0.4279155731953304 113 99 88
-3.9166350613982335 5.9170257216236 0.4279868187528271 88 81 76
-3.910191688528406 5.916143971325184 0.4280865916361602 63 60 62
-3.9035806501764276 5.913080867274189 0.42792080711343056 45 45 51
-3.8969483352437564 5.909679953931231 0.4277137454713626 38 39 48
-3.8895713189662824 5.895929253075672 0.4262450527801007 38 39 48
-3.747534042333072 5.716286119103862 0.40854099026936036 33 35 43
-3.7413177386853613 5.716000619698325 0.40870746284616544 30 29 36
-3.7248425418811744 5.600538066428878 0.3948979888211329 84 79 85
-3.7182624196942684 5.584412757708132 0.3931083949089327 113 106 112
-3.699206980494509 5.55038766359826 0.38950026255539316 107 105 107
-3.693118720692387 5.546508768431908 0.389216143926287 100 99 100
-3.686891762529878 5.536944730408556 0.38823022771374344 96 96 97
-3.6704426211564836 5.608153573172407 0.3976113433081171 96 96 98
-3.6637609819561097 5.578044239138542 0.3940877182704479 95 95 97
-3.655897594956425 5.475964617950913 0.38166113321115563 95 95 97
-3.651752725424833 5.585270126456007 0.39537553732926317 95 95 97
-3.645569236924394 5.578267470372666 0.39470642657643934 96 96 98
-3.6396368555773773 5.589433586845824 0.39628638652125603 96 96 98
-3.6332414842714176 5.563282062260917 0.3932451669589586 91 91 93
-3.6270921517475543 5.554450429559642 0.39234772062118867 85 85 87
-3.620979431059838 5.547337224975243 0.39166257673421134 81 81 83
-3.6149210311230857 5.545921508285417 0.3916835052179228 83 83 85
-3.6086492980795644 5.501293085648412 0.3863427605332223 92 92 94
-3.602606364616393 5.484259044859688 0.3844228177113397 100 100 103
-3.59663529731105 5.480524214302739 0.384152790091145 109 109 111
-3.590669875321897 5.468437445734737 0.38284496195809975 116 114 117
-3.5847239194710454 5.465609445722705 0.3826867801940715 118 117 120
-3.578780871712312 5.463017467153926 0.3825578264806091 120 118 121
-3.5728346569329905 5.461709232855144 0.38258846378738215 121 119 122
-3.566848419475879 5.466531090349926 0.38338198356967124 121 119 122
-3.5608392775749076 5.471592505753144 0.3842060093041252 119 117 120
-3.554654355394298 5.492775668125096 0.3870386578689922 116 114 117
-3.5485843297930275 5.497050280206411 0.3877669116247665 112 110 113
-3.542450205169038 5.504826343378876 0.38893225638151263 107 105 110
-3.536358711184548 5.507509638590775 0.3894635076185771 102 100 105
-3.5303645250062767 5.503228266314703 0.3891263305020222 93 92 97
-3.524285743306596 5.504213627815091 0.38944622310800564 81 80 86
-3.5181119654740236 5.5096757300804615 0.39032537719394994 70 69 74
-3.511960506603433 5.512952445624767 0.3909323010198438 60 59 64
-3.5058131389461624 5.51532545449619 0.39142681841480476 48 47 52
-3.49975803084358 5.513323437138717 0.39137479990706925 38 38 43
-3.4932569784755088 5.5286654226101195 0.39349202976421926 36 37 42
-3.4748439364242354 5.52823438339442 0.39403664270406036 37 37 47
-2.9179000458817597 4.608169460369632 0.2978236344836699 36 39 48
-2.951571871820193 4.424441923508651 0.27390407493982666 102 103 108
-2.9528010813270127 4.3597483702375746 0.2658268301746063 163 159 160
-2.950080030873428 4.351445954166888 0.26488376120780205 171 167 168
-2.853727319934213 4.573181570300879 0.2955615621894303 126 126 128
-2.8748842581173126 4.473271951004769 0.2824618202561523 114 115 120
-2.884598374539277 4.417790970799311 0.2752534754149583 106 107 112
-2.87061214628626 4.451612430736442 0.27990969648745356 105 105 113
-2.819079227450571 4.604630329482056 0.30059422556346554 115 118 125
-2.813816890139873 4.604504069075678 0.3007494910328229 121 124 131
-2.8015538880892756 4.629808282038515 0.30429157703242016 127 128 133
-2.797471884113447 4.625214549654866 0.3038534744141492 130 131 136
-2.7931851892582955 4.621397537232613 0.303518518474445 133 134 139
-2.788521450385623 4.618955769719872 0.30336666701365433 134 135 140
-2.7839193588850906 4.6163095005797015 0.30318740627894303 135 134 139
-2.7847765345075612 4.59448753141166 0.3004484709941352 135 134 139
-2.742235482201134 4.507235966913222 0.2909906089723179 139 138 143
-2.730737680278807 4.527435731785432 0.29387367704781236 140 139 144
-2.725548870136288 4.52720391801453 0.2940134403221544 142 141 146
-2.7210566115281845 4.524744921496632 0.2938538776999875 146 145 150
-2.7215923793395733 4.5064184088382175 0.29155964757091846 146 147 151
-2.717942190673545 4.501436758467048 0.29105932340736174 147 148 152
-2.6732213030394947 4.525483686418112 0.29549963136882695 137 128 121
-2.6704144480085095 4.517969096789797 0.2946572267871901 131 129 117
-2.6659328287945603 4.515512389824517 0.2944976029814053 126 133 117
-2.6621057917724626 4.511129716246264 0.2940774387849927 127 140 122
-2.64612049459594 4.480650421771979 0.2908100885787139 137 156 136
-2.60815926613033 4.543305757129868 0.29982738376064394 138 163 142
-2.598821595385849 4.5543663674159784 0.30150485977967223 134 157 141
-2.536616723374513 4.681454021718579 0.31931458891923775 123 133 125
-2.511860878071475 4.733952506858244 0.32664104220904333 134 138 137
-2.4819628203833166 4.799964242142183 0.3358133862261492 139 143 142
-2.4867314771235094 4.770762396849503 0.3320305316755809 142 146 147
-2.2915919279819548 5.192490401471217 0.3907639018015842 165 164 162
-2.2534692227992466 5.2567732965903495 0.3999886453311597 167 167 165
-2.452992588567115 4.645750542377518 0.31759551026485805 176 174 175
-2.424281625308119 4.7037166057048125 0.32572972283856283 176 174 175
-2.436618271590812 4.6580728797365305 0.31965833070302124 175 175 175
-2.4273874152558133 4.5417187424192464 0.3055027504729955 180 182 181
-2.4199569663861595 4.546094334423161 0.3062877441832978 181 183 182
-1.5780693803345325 5.3276840009793816 0.43073931281468014 177 182 202
-1.6536681705746226 5.180644847874856 0.4100157623523707 179 184 204
-1.655669122782088 5.164108205200338 0.40789630194218596 185 190 212
-1.653085595895633 5.155713028406373 0.40693724111658675 193 198 220
-1.633720944287462 5.176648251049082 0.4101672415434354 197 202 224
-1.614211903388712 5.197662641813098 0.4134117681682733 196 201 222
-1.5679756979478752 5.264788582109508 0.4232532963892542 199 201 222
-1.4089961240288678 5.511798995783785 0.45910564310161545 192 194 210
-1.4122859963766896 5.492154048179076 0.4565581454790086 185 187 200
-1.3736817208222294 5.544109041230788 0.46426695551742064 179 182 192
-1.32681356785067 5.4310891900329334 0.45174829655281656 180 180 188
-1.3059223444695114 5.451672270494574 0.45498414002454685 182 181 189
-1.2965158805171004 5.453614043107279 0.4555309566571369 182 182 188
-1.304093080898042 5.428297132407424 0.45213951551077236 187 188 193
-1.2998541329564648 5.422024205452818 0.4514978937823216 207 208 212
-1.2968261881742666 5.413853919019802 0.4505812098956337 228 231 234
-1.2828058802981552 5.423165031321587 0.45219345365404906 240 245 246
-1.2608218135940026 5.444984957641756 0.4556184607333271 249 253 253
-1.2267302279231074 5.485708389494803 0.4617853001136221 253 254 254
-1.2050345541521195 5.5066746897719225 0.4650948868227849 254 247 250
-1.1656869280035511 5.555089478170499 0.4723880219551896 255 239 244
-1.0838603756592498 5.65572700955403 0.4875491029162788 255 241 245
-1.0508250837031647 5.693305298067464 0.4932908854756749 252 235 237
-1.0039626686638663 5.751935117217391 0.5020972267097638 237 219 224
-0.8857894581748155 5.779733683071876 0.5093897888869159 181 177 178
-0.8764768615222644 5.779953365352165 0.5097196093579817 182 177 180
-0.8707534911188854 5.774861633859972 0.5092729582080112 194 191 194
-0.8661334338729022 5.7681671593836334 0.5085913454815738 217 215 220
-0.8615351657489244 5.761470972608668 0.5079088121860821 236 235 240
-0.8589285088561325 5.751896211400767 0.5068039550978131 249 248 251
-0.8601924284497509 5.736736690611972 0.5048795269012151 254 254 255
-0.8051520333200686 5.803348580891408 0.5149432030762794 252 252 252
-0.7313339279017491 5.8966548646029935 0.5289333126810364 244 244 244
-0.7252477178343629 5.8917152159455695 0.5285173429636122 226 225 227
-0.7216990075943721 5.883148443127916 0.5275683184442779 205 203 206
-0.7185561510627909 5.87404226674151 0.5265390956981096 191 189 193
-0.7114291855070978 5.870666248859595 0.5263511961451159 198 196 201
-0.7017984016001323 5.870858624834319 0.5266879607633084 219 218 221
-0.36319431891044957 6.322404549141297 0.5937863817163178 245 245 245
-0.3626051036521686 6.080574464034157 0.5637613539736734 210 209 215
-0.33233694815487574 6.10733129821713 0.5680688220284821 212 212 219
-0.2525914384147587 6.185751715577379 0.5804021178239466 207 210 223
-0.11495853597114342 6.35371370493588 0.6057402847299695 204 209 225
0.03491763626364021 6.477617322655222 0.6260025188094509 207 216 229
0.040202646019872244 6.469878223410665 0.6252127269268904 210 217 230
0.06515620155989267 6.487593302626321 0.6282242278456446 215 221 232
0.08502774616681325 6.484064398632275 0.6284313530595111 223 227 236
0.4215049808617405 6.446531570264931 0.6346991569147258 170 172 187
0.42865472281692046 6.441301189696194 0.6342816173938395 170 173 188
0.43646649865639714 6.436854091528513 0.6339828970360284 171 174 189
-1.2346588885948273 4.162158285977503 0.2970942488890997 38 39 46
-3.9356225718975106 5.915875666039572 0.42045068499875293 141 118 98
-3.929650314751032 5.920583293889601 0.42121884679862803 132 112 96
-3.9231361294836837 5.918775499781726 0.4212057899574818 112 98 87
-3.916744435711595 5.918528922308456 0.42138016341230655 86 79 74
-3.9102243485605124 5.916679586404309 0.4213622038995709 61 59 61
-3.9037190349264366 5.915026332415404 0.42136780435815613 43 45 50
-3.8971260369436385 5.912195869309197 0.4212319264074348 37 40 48
-3.8895006828201986 5.895067043840122 0.4193766087295795 38 39 49
-3.8813366181026816 5.869673103442267 0.41652551753969685 38 38 47
-3.7429298903208568 5.600666775550105 0.3879849790459311 34 35 42
-3.7248221022598713 5.600096544254062 0.3884947107976875 93 88 93
-3.7180605448981874 5.578528527996683 0.3860676520140192 116 111 115
-3.705394550898511 5.55746580253268 0.38389152285768063 116 112 115
-3.699100331252856 5.546833710918962 0.38278987115415275 107 105 107
-3.6879182943803475 5.57721240250827 0.38687118081451 97 97 98
-3.671624060464509 5.665018320595443 0.39815472264569285 97 97 99
-3.664979594143589 5.641516684300277 0.39548692084861153 97 97 99
-3.658286378747145 5.611350767518034 0.3920038690540399 97 97 99
-3.6522316052138173 5.615271353476915 0.3926782080360396 96 96 98
-3.6460855453628787 5.614137653707194 0.39273598832637807 96 96 98
-3.6398322342940586 5.604841505273064 0.3917967676135427 92 92 94
-3.633445819606255 5.581642917598108 0.3891578489820694 82 82 85
-3.627158692742835 5.561622289334662 0.38690526016702564 73 72 77
-3.6209975477182725 5.5499360666867625 0.38567014877459455 67 66 71
-3.614949286174896 5.550696962918902 0.3859570105661043 71 70 75
-3.608633541335453 5.498635308595812 0.3797782155162416 84 83 89
-3.6025915517451463 5.480563152125847 0.37775659525615535 92 91 96
-3.5965934959567276 5.457502481516247 0.37512214929074295 100 99 104
-3.590665754117495 5.451397535285789 0.3745636383338226 107 106 111
-3.584728309429641 5.461205742763358 0.3759558405607969 110 109 113
-3.578791926969646 5.458783502856544 0.3758489786874081 112 112 115
-3.5728393811175616 5.460285935203483 0.37622366335756013 116 114 118
-3.566916092033638 5.4555379842638585 0.3758313305874438 118 116 118
-3.5609270254830165 5.460316332055868 0.37660869826943744 121 119 120
-3.555032322112996 5.453029466142109 0.3759042672658911 122 120 120
-3.549045949411785 5.455569504242466 0.3764072093188327 123 121 122
-3.543073692421139 5.455934896470117 0.3766431631175652 121 119 122
-3.5369889310892604 5.46365069363858 0.3777836237071857 117 115 118
-3.5309805057569 5.464698495437156 0.3781043750643918 112 110 113
-3.5249249703074703 5.467912282310168 0.3786921092978653 106 105 110
-3.51879468679832 5.4741791646248625 0.3796564401537885 100 100 102
-3.5126841907654387 5.4782594008601455 0.3803521303942062 89 87 92
-3.5065645416163713 5.481910702531991 0.3809955410707019 79 78 83
-3.500491962567475 5.4828892196287695 0.3813098540508083 66 65 70
-3.4942902603683748 5.488539584320263 0.38220090723742767 53 52 57
-3.4879795068068002 5.497294914313802 0.3834760125322348 40 41 46
-3.4818869934643235 5.49735394700546 0.3836782665946713 36 37 42
-3.476270162273519 5.481706657019042 0.38194024201402554 37 37 45
-3.470266453202638 5.479449920486965 0.3818558202291387 36 36 46
-3.4643336243608704 5.4751560284228615 0.3815194447459185 34 37 46
-3.4586346715763 5.464523010165693 0.3803986252353273 37 40 49
-3.452739945110503 5.4599381822597435 0.38002537143377607 38 41 50
-3.439065217454594 5.217478818398926 0.3507459561996784 36 39 48
-3.4241522765500796 5.420625971597227 0.37612213205168854 35 38 47
-2.934871595253633 4.558016841169939 0.28605773031384685 37 39 51
-2.9497168768597892 4.3529609047043625 0.26044976935577435 172 168 169
-2.9501307387351665 4.332168586913153 0.2578881023514043 173 171 172
-2.855221904979831 4.567529741413834 0.28977323491402857 125 125 127
-2.8759317002879463 4.469352638875964 0.27707720415903864 113 114 119
-2.8842830926482184 4.4190256163570485 0.2706415263452142 106 107 112
-2.818924583665519 4.605252250127578 0.295558572013103 116 119 126
-2.812647042564535 4.608837755631749 0.29619897240623183 122 125 132
-2.8038444177566175 4.621534598904395 0.29803693470084053 128 129 134
-2.796191075573515 4.629891688950761 0.2993062052196745 131 132 137
-2.792419752609806 4.62419534673052 0.2987287489631287 134 135 140
-2.788169463541993 4.620262395734805 0.29838275501446926 135 136 141
-2.7837242241672215 4.617052757322288 0.29813165446121576 136 135 140
-2.7792852210531853 4.613844896266847 0.29788057213051833 136 135 140
-2.7744196318594976 4.61215044860175 0.29782863680408483 137 136 141
-2.775777824714606 4.552442918085187 0.29046708221701595 136 136 138
-2.771183814067387 4.550189105795531 0.29033789501145113 136 136 138
-2.7664214536965424 4.548515661137402 0.290285229618097 135 135 137
-2.7488799872975207 4.571945432583768 0.29371840442676217 136 136 138
-2.7391518799554033 4.534302300400898 0.2894160500446355 138 137 142
-2.7348378575609593 4.531228594559403 0.2891774099277125 139 138 143
-2.729626001531489 4.531063519434045 0.28932400666165803 140 139 144
-2.7247845465040412 4.529699531941543 0.2893118018057582 142 141 146
-2.7193425128662296 4.530243768273703 0.2895527034916091 146 145 150
-2.7124608868770843 4.4382915704536785 0.27850282025076367 154 140 140
-2.6717367988352203 4.530008676934113 0.2910477275629695 138 129 124
-2.6687916070374573 4.522882588858307 0.2902685897859649 131 129 117
-2.66441852318993 4.520074782092275 0.2900644302361378 125 131 117
-2.6607524251625536 4.515189779255518 0.2895830479394101 126 139 121
-2.673363735544826 4.462419160929486 0.28271151162554053 130 147 128
-2.6783075725794143 4.432677416029716 0.2789079516691061 133 152 132
-2.6779265435607496 4.418756803259346 0.277213962287836 135 152 134
-2.648175188175786 4.48999975742228 0.2868982138366162 135 152 134
-2.541042838346911 4.717109098811642 0.31816322875748404 133 156 140
-2.5465973686635577 4.653863143721836 0.3102336626928575 120 131 123
-2.509058138785286 4.74173225879957 0.3222049933457027 132 138 136
-2.4842899088364847 4.777476144331208 0.3273787784482121 142 146 147
-2.4811206719324947 4.754148207844541 0.32462102566568474 153 153 155
-2.4529740693966025 4.64585432504573 0.3122488993282999 175 173 174
-2.442109589713317 4.658806776047184 0.3141841893705862 176 174 175
-2.428091996720916 4.679528709561472 0.3171726791954456 175 175 175
-2.4168290282443885 4.553589104096865 0.3020973594281713 181 183 182
-2.332676525581542 4.642976578721971 0.31574685901091276 175 176 178
-2.2638808777760677 4.758698329509269 0.3321324643698128 171 171 173
-1.6830839961851478 5.128800541717497 0.3960852577255856 183 188 208
-1.6556196259935918 5.1642672082442465 0.40131136763357067 190 195 217
-1.6227340275829611 5.208946230215991 0.40784012504118033 196 201 223
-1.6076570090151412 5.222199145614984 0.40994708316538414 197 202 224
-1.5705775283379058 5.273584779391419 0.4174320837057214 195 200 222
-1.5395010149238881 5.314173740648426 0.4234016330225902 199 202 222
-1.4452789660457612 5.44951681338612 0.44300602224256175 193 195 210
-1.3977250769308474 5.517166732570495 0.4528197432380628 186 188 200
-1.34720293442683 5.589361408778703 0.4632855068497245 180 183 192
-1.3167611781520712 5.460753140131354 0.448497005852541 178 181 190
-1.3252991945436037 5.433622464127478 0.4448984245764148 180 180 188
-1.3046980921158042 5.453728730469518 0.4480221901524655 182 181 189
-1.2965071392810545 5.453707629261416 0.4482817927015949 183 182 188
-1.3034998734494472 5.429327301819689 0.4450697729022754 192 191 197
-1.29982538727188 5.42214908749452 0.44430759064388997 213 212 218
-1.30087545346109 5.394579223722313 0.44089486614828255 242 247 248
-1.2632603929617994 5.441209777239308 0.44781420188662363 248 254 254
-1.231868263798404 5.477695579708118 0.4532909484859062 252 254 254
-1.199644159967212 5.515216807058794 0.45892123353208325 253 245 248
-1.1670427909359062 5.55305089651781 0.46460194075305306 252 233 238
-1.0822396926871793 5.6583288021846245 0.48021988320321984 254 232 236
-1.0365411256494321 5.715499770308024 0.4886898589573547 247 227 231
-0.9858563369077249 5.779949963241208 0.4982116228458609 229 211 217
-2.320255502893678 3.7014594187377146 0.2007469906412948 156 149 154
-0.8845381781653023 5.781680254976674 0.5016668468772343 181 177 178
-0.8753115086284196 5.781766529322234 0.5019727627976847 185 180 183
-0.86991394832777 5.776188259575315 0.5014618332930395 198 195 199
-0.8652935054721287 5.7694901043065565 0.5007887693422317 222 220 224
-0.8607811390201481 5.762663807407965 0.5000965401783294 239 238 243
-0.8599793387203699 5.750449146371665 0.49862511021793215 249 249 252
-0.86222562345935 5.733864492294218 0.49652050228857514 254 254 255
-0.8015131135881359 5.808716919277152 0.507638203494014 254 254 254
-0.7320991542478663 5.895639443595044 0.52051381102736 253 253 253
-0.7205417669065428 5.898588422718439 0.5212452008634223 251 250 252
-0.7082846438877912 5.902508018849926 0.5221179530287576 249 247 250
-0.6968471111332615 5.905213376683131 0.5228156468224617 245 243 247
-0.6774470042324457 5.9192482269792315 0.5251568233092362 248 247 250
-1.2913140610879572 4.907545750596525 0.381507452853925 66 92 111
-0.348588637943295 6.099422170610363 0.5577665338903435 214 214 220
-0.3442158690969896 6.091587422706056 0.5569462350321874 211 213 220
-0.17614616837022073 6.287156165119147 0.5862960407575276 201 205 218
-0.1204693565703613 6.346536818606356 0.5953562468215509 202 209 224
-0.8270782556161769 5.084685079042233 0.41807859729127167 158 157 171
0.3903999607132929 6.423835328061351 0.6211830762638972 171 173 188
0.42824970186318906 6.45451451983435 0.6261548384430362 171 173 188
0.4303052916542396 6.443330930488742 0.6248499154872962 170 173 188
0.4417138282874077 6.443053338950692 0.6251810746417503 171 174 189
-3.9357178652622427 5.917130636602427 0.41382323426155143 141 118 98
-3.92970018964183 5.921304039720322 0.4145175316688352 131 112 96
-3.9234898766266064 5.9233027533471345 0.4149549961166352 111 97 86
-3.916793270542728 5.919261534832458 0.4146776019325419 85 78 74
-3.910259640089481 5.917249392313837 0.414640372206635 61 59 61
-3.903697994993128 5.9148598749101735 0.4145584034218244 43 45 52
-3.897519949442301 5.9176357806399285 0.4150888084242601 38 41 50
-3.889638299627354 5.897080878739596 0.4128523732415852 39 40 50
-3.749558684394581 5.61556334420983 0.38323569136307073 35 40 46
-3.73151497940994 5.618225808318952 0.38412654495722715 61 57 64
-3.724708688999872 5.597003157179366 0.38177547313636906 97 92 97
-3.6818819271806564 5.5773711864961735 0.38075254864471025 97 99 98
-3.6592640348019208 5.666890308167033 0.39228811144516224 97 97 97
-3.6530985270628977 5.669407846692893 0.39278688598110345 98 96 97
-3.6467385228534392 5.659444861105994 0.3917829700744601 97 95 98
-3.6401941434772995 5.633164257225887 0.38881216195971985 90 89 92
-3.633681479036535 5.602777898699595 0.3853439916572413 77 76 81
-3.6273035545055614 5.576863619176673 0.3824122211840381 69 68 73
-3.6210957940407527 5.562415274934011 0.38086125048177943 64 63 69
-3.615035791414408 5.564418452540577 0.3812945148211185 71 70 76
-3.6088283454098833 5.538840696534012 0.3783980523594464 79 79 87
-3.6025639424918525 5.473000956985406 0.3706359437932789 87 88 93
-3.5965974643983887 5.4612544013057756 0.3694039953602353 94 95 100
-3.590664214186326 5.45892216896615 0.36930913666511683 99 100 105
-3.5847314955635197 5.4576073977925175 0.3693372664077329 102 103 108
-3.578795347528748 5.457007157844206 0.369451887004637 105 105 110
-3.57294763247622 5.436915819363563 0.367207357360039 105 105 110
-3.566996209644808 5.442579725266037 0.3680797588105846 104 103 105
-3.561039071112693 5.445980846384444 0.36867878283556227 103 101 99
-3.5550661570357533 5.449315328624783 0.36927024805812136 108 104 101
-3.5491675135277365 5.444545870324716 0.36887965150571217 115 111 110
-3.5432255208698535 5.4439461928650195 0.36899452440432606 122 118 119
-3.537333902929903 5.439603338013739 0.3686552802150647 124 122 123
-3.531479003488328 5.433504458793282 0.3681025849294738 123 121 122
-3.5256027202000406 5.4294281624805745 0.36779508258204807 119 117 119
-3.519617492288007 5.431410562411327 0.36822347712875464 114 112 114
-3.5135433258948194 5.437081327112132 0.3691005782743057 111 109 112
-3.5074800187492334 5.441207311342362 0.3697905819220785 105 104 106
-3.5013185021579822 5.448618432288908 0.37088083656099696 98 98 100
-3.495160162782942 5.454755665021604 0.3718169852568196 86 86 88
-3.488895412881262 5.46384542429543 0.3731134328943446 73 72 77
-3.4827935931957743 5.4661087752278466 0.37357946932031294 62 61 67
-3.476605843778152 5.470752388547132 0.3743359754181472 51 50 57
-3.4705244777560758 5.47145859102142 0.374613116584513 41 41 49
-3.4643209048947616 5.4755339530345974 0.3753014233340719 35 38 47
-3.4589592696612255 5.455401652969713 0.3730366139839401 34 37 46
-3.4530182887345076 5.452465100751492 0.37286894026747 34 37 46
-3.4493208975571625 5.391868882102051 0.36565979693494133 35 38 47
-3.431675097344751 5.25500371141934 0.3496700150886606 36 39 48
-3.428056084655406 5.209645158871906 0.34430054638015695 35 38 47
-2.934410854735447 4.560031505619056 0.28133224141935576 36 38 50
-2.947298937161965 4.362784883976726 0.257079856452657 173 169 170
-2.8732806799837673 4.578173674789559 0.2854531595268424 152 150 153
-2.8505604207870032 4.585367998753497 0.28703935594306795 125 125 127
-2.883727294416904 4.421165251198083 0.2661423286403078 106 107 112
-2.818551988647962 4.606677372540323 0.29062486712067337 117 120 127
-2.8073170858585224 4.628397614071723 0.2936049925551851 122 125 132
-2.803667983196351 4.622228474281827 0.29297424718780246 128 128 136
-2.7961417859170608 4.630122388379009 0.29416590158388295 130 130 138
-2.7924027843761503 4.624308901570169 0.29358098742100436 134 135 140
-2.7883749172202714 4.619583154044342 0.2931366835557184 136 137 142
-2.7837480555880982 4.617021130622446 0.2929728497384531 136 137 141
-2.781720581077587 4.6053358262936674 0.2916240965816728 137 136 141
-2.7786656439359283 4.5973737001285135 0.29075785349719735 137 137 139
-2.774630738388766 4.538510663459505 0.283768884824766 137 135 138
-2.76899035444669 4.539881035757931 0.2841124146946694 136 134 137
-2.7366649446546782 4.542452776240855 0.2854426491640595 140 138 141
-2.7338122113610033 4.53460002330558 0.28458325252540767 141 139 144
-2.727668469991604 4.537412197001882 0.2851169603933314 142 140 145
-2.723164071926654 4.534932364083669 0.28495920125842683 143 141 146
-2.7188049403415673 4.532004217746041 0.28474266288372957 146 145 150
-2.6700305880010236 4.535201777067787 0.2866672441800791 140 129 125
-2.667037284158322 4.528190101213378 0.2859139615698712 134 130 119
-2.6628784910863206 4.5247139645165975 0.2856248569856709 129 133 119
-2.6690977228144472 4.475031495233646 0.2794224196159207 131 146 127
-2.6811700170804817 4.424348248713641 0.2729144278411565 132 149 130
-2.6784317689273447 4.4173369710573365 0.2721531506311366 134 151 133
-2.5191194191693698 4.746163679804713 0.3169300468264182 120 137 127
-2.511438417440269 4.703531493730116 0.3120182679300341 142 146 147
-2.322145360022599 5.111932067851894 0.3673605762996083 164 162 163
-2.4422281202706366 4.658564944834275 0.30876449782565807 176 174 175
-2.4256143986597554 4.685804543520402 0.3125814935225658 176 174 175
-2.395757080101481 4.617419653840486 0.30525565270597504 181 183 182
-2.414723615725794 4.558652232664429 0.29755293276438516 181 183 182
-2.3429671173460296 4.6062435150657155 0.3055691619323856 174 175 177
-2.3102036180128684 4.667475744895206 0.31400492642578526 174 175 177
-1.6822474793639082 5.130348132908424 0.3897650446085267 186 191 211
-1.6725270139894326 5.134612031544606 0.3905870434686621 193 198 219
-1.625748711452981 5.203738823112845 0.400419147610384 197 202 224
-1.6181155875376163 5.204023070551305 0.40069420883994156 198 202 226
-1.56870476720368 5.276914716669595 0.41106447412561714 197 201 224
-1.5102737393209003 5.36486431665725 0.4235395960215708 199 202 221
-1.432563938973555 5.4854000523028015 0.44056211693576003 198 200 216
-1.4003097863296254 5.4574393880866054 0.43819891239012493 178 179 183
-1.315453968634929 5.462958928820223 0.44154197443175025 180 180 190
-1.3237829988379595 5.4361587972717365 0.4380393511859135 181 180 189
-1.3041564017894645 5.454682985163334 0.4408977096780366 182 181 189
-1.296875881544438 5.453193786576353 0.44094725274116275 184 184 190
-1.3026719867329253 5.430733799954579 0.43804919944957227 196 197 202
-1.2997222112127729 5.422392889272819 0.43713384740687045 219 219 223
-1.3031178436421262 5.3911003786290195 0.43324368753675935 248 248 251
-1.2675912004439516 5.434443208441509 0.43960385746279107 252 252 254
-1.2335352779753312 5.475150051496769 0.44559897512497737 251 244 247
-1.2009554424821416 5.5132397678530864 0.45123115138056935 241 224 229
-1.162707676808516 5.559913938757975 0.45807986716311344 232 200 209
-1.1119002994641232 5.6258241389811205 0.46765015381930997 236 196 207
-1.0592402435478117 5.6941376761633 0.4775694110968145 243 206 216
-1.0046237024231193 5.764989358710235 0.48785720991878156 239 207 216
-2.332548776656374 3.689379352209031 0.19505408463286383 166 155 161
-0.8832860562979354 5.783628158585819 0.4939367062121398 181 177 178
-0.874553703296134 5.782976455915548 0.49413327874550933 187 183 186
-0.8693478112213999 5.77711156716975 0.4935884062380317 203 200 203
-0.8644527289913744 5.770814350282339 0.49298146689541145 225 223 227
-0.8611107968553905 5.76226858313856 0.4920537148652599 243 241 246
-0.8600478297637244 5.750436784359871 0.4906568373005159 251 251 254
-0.86277762720923 5.733148317726395 0.48848068172543424 254 254 255
-0.7861064735089458 5.8311585650229185 0.5027472487860977 254 253 253
-0.7531626224422142 5.865272371314049 0.5079102389932595 246 244 245
-0.7360220611794877 5.876369086999683 0.5097922659982674 234 232 235
-0.7226164211663095 5.882012455749391 0.5108972404608682 227 225 228
-0.7059386688755286 5.892288382619044 0.5126654449410422 221 219 223
-0.6808605556586795 5.9144689596445845 0.5161377439663912 227 225 230
-0.37520838900856396 6.305630667153265 0.5730651556483607 249 249 249
-0.33807620407173095 6.113582988913712 0.5510185955709923 209 209 215
-0.33281031316035975 6.106894877073676 0.5503760920877154 210 212 219
-0.18894587880157868 6.270295232327222 0.5746667707393995 205 210 224
-0.7181239678744731 5.205577660928905 0.42926182772126703 162 160 174
0.021894121769326733 6.029569093130723 0.5522128401085085 167 169 184
0.34367317074655074 6.355874889950543 0.601808078688802 172 174 189
0.4231445399286226 6.43510279357925 0.6138922684219896 171 174 189
0.4549504563082698 6.444986343113019 0.6160900772078459 173 176 191
-4.031426922554145 5.926778809256842 0.4052231318251011 152 123 105
-3.9357518389861568 5.917648196519071 0.4071059320381758 142 117 99
-3.9298284531222722 5.922985253121342 0.40792619514308226 131 111 96
-3.923435823933524 5.922738222869937 0.4080952792633546 110 96 87
-3.9170315147735257 5.922405417758189 0.4082544997817247 85 78 74
-3.9102933517923306 5.917798712262548 0.4079145410466513 61 59 61
-3.9038220902438225 5.916616175575107 0.40797453325309985 44 46 52
-3.897613578569077 5.91901507931096 0.4084533557490422 38 41 50
-3.8898160557699355 5.899649182759695 0.40638666070049484 39 41 50
-3.7317391160832005 5.624483629947873 0.37848995864797264 69 66 72
-3.6876714182325467 5.567898987698958 0.3731123710834745 101 103 102
-3.6815152377762557 5.562272709191391 0.37263278104323294 101 103 102
-3.6760589539676936 5.58730116864688 0.37578620789811407 101 102 102
-3.646817550688532 5.665142670706036 0.38597486488472793 99 98 100
-3.6402597803173444 5.638516353803199 0.38300405686886907 89 89 92
-3.6337769399050495 5.611511046194548 0.3799857372984659 75 74 79
-3.627360717665359 5.583072387507059 0.37679446017666374 68 67 73
-3.62108303689379 5.561208979984941 0.37438280234883237 66 65 71
-3.614875907777569 5.540303039263611 0.3720831055804605 73 73 81
-3.602552241703307 5.470241208647865 0.36411285137205984 89 90 95
-3.590665398191225 5.492837035049876 0.3671759659642666 95 96 101
-3.5846846465993054 5.487323641167574 0.3667043860885701 96 97 102
-3.5787541940833156 5.469568102026913 0.364771697290701 95 96 101
-3.5670786143179942 5.429262114834694 0.3603289000369124 84 82 86
-3.5611459200874696 5.432301647004873 0.3608755341948166 82 80 78
-3.5551454224275005 5.440845491099538 0.36208051537833846 86 82 79
-3.5492222771637345 5.439505230933093 0.36210468045565697 96 92 91
-3.5432891451158333 5.438858582967723 0.362211850304893 107 104 103
-3.537426716779645 5.433068191637753 0.36170357116406093 114 112 113
-3.5316339646548705 5.423757430882115 0.3607734186542593 120 118 119
-3.5259140249826038 5.4117197162493635 0.3595158888524318 122 120 121
-3.5201274823525552 5.404883858413624 0.3588806091484605 122 120 121
-3.5145491091660093 5.388882287812703 0.3571460994315415 120 118 119
-3.508436186985358 5.398696886269115 0.35850607548555724 116 115 116
-3.5023151600284463 5.407299718869227 0.35972183274038994 112 112 114
-3.496168131231739 5.415613140779514 0.36090389308803816 106 106 108
-3.4899557511859407 5.4251235829523 0.36223069554237775 99 99 101
-3.483749265954856 5.433172969069709 0.36338312325639 93 92 96
-3.4776110296431098 5.437959068067885 0.364144372084152 81 80 85
-3.4713938043739625 5.444535724737576 0.36512154994805296 68 67 73
-3.465242621236324 5.448368147652824 0.3657695006248059 56 57 64
-3.4591145806542407 5.4510405426351705 0.3662784304109999 44 47 54
-3.453527712513784 5.438780293756934 0.3649902365799611 37 38 45
-3.4473541055788024 5.442517690140597 0.3656275543126066 35 37 44
-3.4414228927843817 5.439826531590181 0.3654909116196114 37 37 45
-3.43807298808291 5.375935520896642 0.3579776637892278 35 38 47
-3.4325280075346396 5.366868190737854 0.3570688387952526 37 37 47
-3.4276336331387665 5.3440113129396725 0.3544957750029253 36 39 48
-3.422534027026866 5.326998633153193 0.3526258486261338 38 38 48
-2.735540915068264 6.193369104701198 0.4772531815894411 34 38 49
-2.9339495674598757 4.562048571490507 0.276600077703019 35 37 49
-2.919820979763027 4.600191652943415 0.28158640642196164 43 46 55
-2.9424682663540476 4.401984722987219 0.2572522007111055 165 163 166
-2.8739252367200216 4.575693538176048 0.280091048441118 153 151 152
-2.851702421376624 4.581061595882687 0.2814212188572434 124 123 128
-2.8825297724587116 4.425719501044758 0.26194344443243234 105 106 111
-2.8113358109608306 4.613741349617771 0.28657106666695636 122 125 132
-2.8032631773547267 4.623752559436951 0.2880153460850476 127 127 135
-2.7993561918099994 4.618568745988176 0.2875186548807206 129 129 137
-2.79496716867466 4.6151643582720085 0.28724908300648544 133 134 139
-2.7907587323833023 4.611143204760244 0.2869003699039314 135 136 141
-2.7844104023302956 4.614729789466771 0.28752513377212024 136 137 141
-2.7818837869874367 4.604814610919023 0.2864214842995599 137 138 142
-2.779867027890577 4.5932301879359745 0.2851029876914387 137 136 141
-2.7711337819145347 4.605083818428883 0.28678744288882785 138 136 139
-2.762909384918155 4.6150114186646745 0.28822646742582175 138 136 139
-2.771228116775226 4.532365827359195 0.2781148471724876 136 134 137
-2.7357532974033574 4.545473710255922 0.2807793511082864 139 137 140
-2.7312327511005163 4.543000393071909 0.2806248690842442 141 139 144
-2.7268415106282093 4.540124463969196 0.2804183705598498 141 139 144
-2.7224467387402718 4.537277981436729 0.2802154924226573 143 141 146
-2.7188269977198547 4.531986383107881 0.2796970298172652 146 145 150
-2.717361817118009 4.503414349993663 0.2763360869157191 148 149 153
-2.6715977549758056 4.546653588550971 0.2829124980972163 145 129 129
-2.665425297797263 4.533071457539562 0.2814848919851427 135 128 118
-2.662636285831443 4.494108525499468 0.27692622788882454 129 144 125
-2.6769223778086686 4.436835318886102 0.26965425430461953 131 148 129
-2.6783511609785453 4.417622601413089 0.2673192804267362 134 151 133
-2.5038099947345467 4.740268109481764 0.31120680909828735 139 143 142
-2.509907738409042 4.707761177663013 0.307141853602133 142 146 147
-2.4636757837551744 4.801315367496845 0.319731501718969 151 151 153
-2.445999864917977 4.66364850209826 0.30386738904029204 174 172 173
-2.4404426380050275 4.663125824293754 0.30397766451616537 176 174 175
-2.426702859818605 4.683130426216456 0.30678939181347864 177 175 176
-2.4212663560192165 4.5431466977367325 0.2902689360600215 181 183 182
-2.3374094036225643 4.605798156366895 0.30034278334927356 174 175 177
-1.6202045783983825 5.253256441033446 0.39980900679231723 178 183 203
-1.6856588092913838 5.12439835963392 0.3824133323923436 185 190 210
-1.6753694048815078 5.129685685837491 0.38336326189004916 192 197 217
-1.634666639442198 5.188191110359753 0.39160256677649746 196 201 223
-1.6158188985803845 5.208103626106374 0.394561953232002 198 203 225
-1.5600642228835697 5.292009674005396 0.40629706681892663 200 202 223
-1.4382991362519975 5.475584137833853 0.43196504502245675 197 199 214
-1.4035535896862075 5.452045502224226 0.43023778757193226 177 178 182
-1.3917605728170175 5.458261557994242 0.4313451407897422 178 179 184
-1.3311376544995204 5.437527013929452 0.4307558692352612 181 181 190
-1.3233679421949394 5.436910535429488 0.4309236746420372 182 181 189
-1.3155933613118282 5.436292174195543 0.4310914067867971 183 182 190
-1.3100139869704457 5.4321315977830205 0.43076864846370777 186 186 192
-1.3025735668870522 5.4309706929281 0.4308613188343419 201 202 207
-1.2996237690051813 5.42262913450617 0.4299584240438888 223 224 228
-1.2980124522222858 5.399278132907092 0.4272244873727039 250 250 253
-1.2719058293442744 5.427701918931578 0.43142405309337445 253 250 252
-1.2369974401252541 5.469776590492498 0.4375244764061778 247 234 238
-1.2080404074689017 5.502199579105931 0.44228936470287 230 208 213
-1.1577106169183944 5.567812699871493 0.45167505777825623 221 185 195
-1.0987816392509488 5.646356527837639 0.46286945503431043 230 188 200
-1.037301222672405 5.728300934579152 0.4745485199300631 241 202 213
-0.9730990147808825 5.813873179468575 0.4867446376708382 232 203 211
-2.345629344683975 3.669383679467965 0.18844523878365177 159 149 154
-0.8820325331812764 5.785578224900228 0.48619947589188534 179 177 179
-0.8737120300639459 5.784310588023838 0.48630675407002805 189 185 188
-0.8684531334117105 5.778519638219716 0.4857796644670463 206 203 207
-0.8636458000851234 5.772088879712852 0.4851622706737842 228 226 230
-0.8600634284589034 5.763891372683475 0.4842961959783314 245 245 248
-0.8599934927292654 5.750603820217461 0.4827141844760312 253 253 254
-0.8575539013084792 5.74083996007917 0.4816258729554276 253 253 252
-0.7741574052969274 5.848584702096266 0.4970615819044873 248 247 248
-0.731543719501358 5.896624749810357 0.5041125193290389 238 236 238
-0.6926425513983214 5.938980625835464 0.5103704724208818 219 217 220
-0.6704221839095529 5.957079493242227 0.5132183736987564 202 199 204
-0.3424387740727865 6.352035564209469 0.5704924481136496 244 245 246
-0.3658607062066381 6.090174043015521 0.5385450851112268 215 214 222
-0.34642387575818606 6.102512636131518 0.5406197802119325 213 212 220
-0.33851547775018936 6.09938374609422 0.5404923552310352 211 212 222
-0.1855619823574486 6.274880985372501 0.5661659596863132 203 208 222
-0.6736635403908596 5.269281872640411 0.43111632691893864 159 158 172
-0.009331585011949237 5.992781791961045 0.5380063991534467 167 169 185
0.34398117315992033 6.356340680644007 0.5923238568447943 171 173 188
0.4582433616251405 6.448906324402303 0.6069084618882497 173 176 192
0.4520686148928751 6.428290347851603 0.6042587917255826 174 177 193
-4.186186108428668 6.1488044953351935 0.41984183141096687 149 118 100
-4.040744593801617 5.955124843892688 0.4015220970048939 151 122 106
-3.929857554577421 5.923451564796454 0.4011898448286472 131 110 98
-3.9233705916058184 5.9220340593002385 0.4012215902271512 110 95 88
-3.917063436800841 5.922922853963999 0.4015189473042654 86 78 77
-3.910750447143279 5.923845391113435 0.40182044931430316 61 59 62
-3.9043243637747165 5.923382861709118 0.40196259238067844 44 46 52
-3.8977072622015285 5.920395185926936 0.4018137407549863 38 41 49
-3.8901251057428126 5.904030967650249 0.40012196103471964 37 39 48
-3.8818737300437216 5.877592702297164 0.39726642150186936 39 39 47
-3.7609378740907893 5.740353700855993 0.3848320009550797 35 40 46
-3.752789698812007 5.693986331070654 0.37963059811354793 35 39 45
-3.7317366794605453 5.624556431438924 0.3721127868994091 74 72 77
-3.6873065933040676 5.5538102038608 0.3651551265031417 105 105 105
-3.6811598867811264 5.5476450695914865 0.36461837304694944 104 104 104
-3.6756387851534433 5.568746615248853 0.3672677426429192 104 104 104
-3.6725889265701515 5.711886916946975 0.38418744749708583 103 103 105
-3.640410096856759 5.650436110838549 0.37794783065557136 87 88 91
-3.6340739726140274 5.638082194685007 0.3766893656470032 76 77 81
-3.627590845083134 5.607103230296667 0.3732459832409233 69 70 75
-3.6213713140862454 5.597126730396031 0.3722634229132293 71 72 77
-3.602553195547311 5.4713037923612555 0.3580481487179243 92 93 97
-3.5966600345960638 5.500771351114246 0.3616923382701178 95 96 101
-3.5906645809677995 5.507726063752221 0.3626932244753764 96 97 101
-3.5846368451932644 5.517650089446315 0.364044146771444 96 97 101
-3.578649479288441 5.502564373447714 0.36245388776575366 91 92 96
-3.572851571217374 5.45643825925967 0.35720897211901764 79 79 84
-3.5669737091562483 5.445545995971035 0.3561083134275473 65 63 67
-3.5610693754894 5.441722571951335 0.35583942090490683 60 55 56
-3.5551642048197287 5.438708035101637 0.35566564033497905 64 59 59
-3.5491739177505965 5.443699589695641 0.3564355952626122 82 78 79
-3.543296900083584 5.438141904153265 0.3559620013747393 96 92 93
-3.5376001919395663 5.4209320050564225 0.35411315173311897 107 103 104
-3.5321679310043788 5.390351330089406 0.3506844527977822 115 112 113
-3.52615662754931 5.397906636624603 0.3517564247547677 116 114 115
-3.5202309444102227 5.39946370661146 0.35212067329164964 120 119 119
-3.5146353953974208 5.384711500935835 0.350557637064317 124 124 124
-3.509476902274208 5.352431151081857 0.34692076581661196 128 128 128
-3.5034332291298185 5.3609512531221295 0.34810714136565624 125 125 125
-3.497373598806328 5.368805245520833 0.34921570233360577 118 118 118
-3.491016232814747 5.386396792056661 0.35147803786635073 115 115 115
-3.4849067415334263 5.393284340878709 0.3524745161816553 113 113 114
-3.478780937566678 5.3997926361156265 0.3534269113090769 106 106 107
-3.4724832890964765 5.4107947453384435 0.35491281867796315 99 99 101
-3.4664393797748665 5.413095059386941 0.35536805253206505 91 90 95
-3.4602908855714514 5.417969475537745 0.35612907568435037 79 80 84
-3.4541273178411296 5.422671234145665 0.3568702635455992 67 66 72
-3.448118930903912 5.4228380337474835 0.3570736120718367 54 55 60
-3.442179470960478 5.421151455742994 0.35705698439655076 43 43 49
-3.4362283350341007 5.41974157488408 0.35707324010203 35 35 43
-3.4303431765930186 5.416803057291535 0.35690778376404125 35 34 42
-3.4263995815711517 5.3712036959585205 0.35166808274677175 38 38 46
-3.4214308477573376 5.350460675091798 0.34938164535789534 38 36 47
-2.718423059892343 6.1598566091363 0.46602630303940984 31 38 48
-2.9334017598673294 4.564434729123738 0.27190696109390733 37 39 51
-2.9407176306590332 4.409164386336749 0.25343088708185396 167 167 169
-2.8750274355123984 4.571416233119681 0.2745127810441429 152 152 150
-2.8276923603897544 4.714449052532691 0.2927741256054497 140 140 140
-2.8657424553657806 4.527537002573823 0.26963862843468295 124 123 128
-2.882417502388498 4.426190489854333 0.25721520146928023 103 103 111
-2.810897961693701 4.615396222670051 0.2816438460448095 121 124 131
-2.8030844037530884 4.624454999813387 0.2829476683421027 125 128 133
-2.8126502556255644 4.570619007659293 0.2763266055540976 127 130 135
-2.8111112462268983 4.557314592179006 0.2748097080898011 133 134 139
-2.7904428475327054 4.6123211322432445 0.2819078952431406 135 136 141
-2.785821659485598 4.609787912296328 0.28175142933634506 137 138 143
-2.7820408702885424 4.604314899617236 0.281223684710985 139 140 144
-2.776081094230372 4.606505740679249 0.2816634769325156 138 137 142
-2.7643987804478276 4.609929764378503 0.2824232317283127 138 137 142
-2.7371916315417355 4.5408420164391545 0.2751338389569837 140 139 144
-2.730562500758747 4.545221928743675 0.2758514303812493 141 139 144
-2.7256411511244796 4.544037948533829 0.27586274955262347 142 140 145
-2.7229040241659046 4.535868271616262 0.2749860905211854 145 143 148
-2.7185753517596143 4.53283831517854 0.27476228687122795 147 146 151
-2.770490618022013 4.291113277391951 0.24475940270659416 157 151 155
-2.709133693158613 4.432958484950125 0.2633099395140779 149 133 133
-2.5228730423798718 4.688081835828607 0.2989962036426849 140 144 143
-2.4420010023805414 4.673843516753832 0.2997955862690078 174 174 174
-2.4344469710007925 4.67830695087772 0.30055127999560255 175 175 175
-2.459987158814357 4.59964857677705 0.2905237880367417 175 175 175
-2.386339059521207 4.585673828538019 0.29113324054244677 181 182 184
-1.6635022160056712 5.202953307661192 0.38580059947446016 175 182 200
-1.6514071950598788 5.211253113299432 0.3871461333902432 175 182 200
-1.646662207558695 5.206452581795584 0.38672692620800975 178 183 202
-1.6783406079825571 5.137386297034693 0.37763929309793953 187 192 211
-1.6477279370284996 5.178359175011237 0.38339189745916413 196 200 219
-1.644301722730141 5.171386544959709 0.3826770265551246 196 199 219
-1.6043570800790925 5.22817745514752 0.3905744518081474 198 200 221
-1.4915821001093923 5.397388396764741 0.4139142890607116 199 201 217
-1.444881428374295 5.46430627142587 0.4232087642269132 193 195 208
-1.40030760691937 5.527052304919703 0.4319477902075077 185 187 199
-1.3956395659213225 5.451820096601142 0.4232468409489311 178 179 184
-1.3293310461875574 5.440544742391328 0.423949163057349 180 181 189
-1.3222386219726798 5.438819989004306 0.423963306281899 181 181 189
-1.3160000827650262 5.435714402352103 0.42378901727465934 183 182 190
-1.3091878145808156 5.433540145990557 0.42374175311934936 187 186 194
-1.3024748846036316 5.431208013332747 0.423672892444138 208 207 213
-1.2976272175999684 5.425898139837194 0.42319695107404376 227 228 232
-1.2911228865769335 5.4102867686250775 0.4215607093862259 250 252 252
-1.3026007111549038 5.379256804150777 0.41756207269789053 250 248 247
-1.263133711934185 5.428684576131096 0.42457933916834983 244 230 232
-1.2076382321196706 5.502911870919631 0.4350020034540406 241 218 222
-1.1492956825289082 5.5810582043158785 0.44597242430417566 244 212 218
-1.0792353015237721 5.676909114205567 0.45938239456448815 248 214 221
-1.0117987464835903 5.768000916412056 0.47215268336628435 248 221 227
-0.9351096474258789 5.872765980865541 0.486813241966494 229 211 214
-2.3489383564121753 3.6643561221497407 0.18397418334908294 156 149 154
-2.344849564475203 3.664040532080088 0.1840621233476638 155 149 153
-0.8807778885052923 5.78753003859636 0.4784550861293046 181 180 183
-0.8727836837592851 5.785773086630126 0.4784930214558584 189 187 190
-0.8675578910622034 5.779928599928082 0.4779657985614135 211 210 212
-0.8627500145762458 5.773494121710666 0.47735644076156014 231 231 233
-0.8619570941415554 5.761204042313 0.47593596464868676 248 248 249
-0.8592552313370743 5.751769819969437 0.4749095772883771 254 254 253
-0.8547412725587525 5.74502197422693 0.4742543942695609 252 252 250
-0.7119989361274364 5.92497916137445 0.49977389865352534 243 241 245
-0.6879666687940523 5.94581197969212 0.5029577638490793 231 227 233
-0.6589403875275691 5.9736658070338 0.5071196837649793 217 212 218
-0.62955730072113 6.001831419611069 0.51132916605458 212 210 216
-0.6253863667085942 5.993817113583313 0.5105146180655236 221 221 226
-1.318305142305548 4.8808221183796485 0.35848979346152293 61 83 101
-0.98002608645249 5.288293403585932 0.4167337063107501 223 225 237
-0.3927831245817715 6.05413815517973 0.5247186591295512 211 209 221
-0.3397013889173655 6.111603693361523 0.5330971302560195 212 211 223
-0.3386223036603517 6.099338519855188 0.5316883330126821 215 216 228
-0.23717306360183357 6.220573397202379 0.5490421354264162 209 212 225
-0.18274605049729142 6.278714223334633 0.5575411276183059 203 210 222
0.3387541617357903 6.3503437341777635 0.5819091842719203 171 172 190
-4.268434345111547 6.44822615396051 0.4450178257765995 146 113 94
-4.2650135290324815 6.472617844116888 0.4479473428999689 148 115 96
-4.184200765434493 6.231947153508667 0.42249099300967474 148 120 100
-4.044036341624739 5.98586331102874 0.3981941130913534 151 122 106
-4.028731833607963 5.901542296514277 0.3888836381159384 152 122 106
-3.9593008898087145 6.120948877760012 0.41639889130447244 145 117 102
-3.936053462855022 5.999478912829311 0.40302267373682027 131 110 98
