ply
format ascii 1.0
element vertex 826
property float x
property float y
property float z
property float nx
property float ny
property float nz
property uchar diffuse_red
property uchar diffuse_green
property uchar diffuse_blue
property uchar class
property uchar detection
end_header
-3.2683 5.3055 0.1680 -0.848 -0.318 -0.423 147 138 139 0 0
-3.2000 5.1840 0.1561 0.602 -0.798 0.039 108 90 93 0 0
-3.1926 5.2020 0.1582 0.755 -0.654 -0.046 116 98 99 0 0
-3.1853 5.2188 0.1601 0.876 -0.482 0.028 121 106 106 0 0
-3.1795 5.2209 0.1604 0.049 -0.567 0.822 126 112 113 0 0
-3.1745 5.2146 0.1598 -0.428 -0.315 0.847 131 116 119 0 0
-3.1565 5.0307 0.1405 -0.452 0.013 -0.892 127 121 121 0 0
-2.9066 4.6495 0.1039 -0.505 -0.844 -0.179 193 181 181 0 0
-2.9018 4.6487 0.1039 -0.408 -0.886 -0.223 210 202 199 0 0
-2.9356 4.4795 0.0854 -0.993 0.117 -0.002 213 210 205 0 0
-2.8245 4.8253 0.1239 -0.983 0.176 0.060 173 164 165 0 0
-2.7932 4.6419 0.1049 0.049 -0.946 -0.320 163 157 159 0 0
-2.7881 4.6421 0.1050 0.049 -0.946 -0.320 163 157 159 0 0
-2.7823 4.6447 0.1054 -0.387 -0.815 -0.431 164 158 160 0 0
-2.7778 4.6427 0.1052 -0.605 -0.658 -0.449 165 159 161 0 0
-2.7739 4.6384 0.1049 -0.762 -0.611 -0.215 167 161 163 0 0
-2.7691 4.6376 0.1048 -0.711 -0.622 -0.328 167 161 163 0 0
-2.7529 4.4870 0.0891 -0.766 0.003 0.643 179 170 175 0 0
-2.7133 4.5855 0.1002 -0.453 -0.824 -0.340 186 179 186 0 0
-2.7099 4.5803 0.0997 -0.889 -0.453 -0.060 188 181 188 0 0
-2.7021 4.5727 0.0990 -0.767 -0.634 -0.095 189 180 185 0 0
-2.6982 4.5691 0.0987 -0.952 -0.306 -0.021 181 177 178 0 0
-2.6957 4.5612 0.0979 -0.952 -0.306 -0.021 172 160 162 0 0
-2.6931 4.5534 0.0971 -0.947 -0.319 -0.032 160 127 134 0 0
-2.6901 4.5471 0.0965 -0.911 -0.410 -0.029 159 112 120 0 0
-2.6814 4.5586 0.0978 0.539 -0.826 -0.164 166 113 123 0 0
-2.6542 4.5961 0.1022 0.742 -0.671 -0.019 175 122 128 0 0
-2.4508 4.8409 0.1315 -0.937 0.050 -0.346 170 171 157 0 0
-2.4530 4.8194 0.1292 -1.000 -0.002 0.021 175 172 167 0 0
-2.4896 4.5516 0.1001 0.887 -0.420 -0.190 197 188 181 0 0
-2.2981 4.7653 0.1259 -0.828 -0.344 0.442 205 200 196 0 0
-2.2973 4.7147 0.1205 0.323 -0.810 -0.490 214 212 217 0 0
-2.2898 4.7189 0.1211 0.401 -0.813 -0.421 214 213 221 0 0
-2.2830 4.7216 0.1215 0.373 -0.831 -0.413 211 211 221 0 0
-1.6007 5.4130 0.2058 -0.820 0.063 0.568 215 213 226 0 0
-1.5974 5.3392 0.1980 0.440 -0.337 -0.832 198 195 203 0 0
-1.3574 5.4531 0.2139 0.653 -0.744 -0.139 201 195 197 0 0
-1.3414 5.4665 0.2156 0.686 -0.709 -0.162 202 196 198 0 0
-1.3229 5.4840 0.2177 0.686 -0.709 -0.162 208 203 206 0 0
-1.3064 5.4980 0.2195 0.582 -0.794 -0.179 235 230 234 0 0
-1.2995 5.4965 0.2194 -0.065 -0.990 -0.123 252 249 252 0 0
-1.2973 5.4873 0.2185 -0.730 -0.683 0.038 255 252 255 0 0
-1.2766 5.5078 0.2210 0.581 -0.743 -0.333 254 252 255 0 0
-1.1665 5.6185 0.2345 0.702 -0.535 -0.470 251 255 253 0 0
-0.9083 5.8192 0.2599 0.580 -0.791 -0.195 193 183 184 0 0
-0.8660 5.8427 0.2631 0.046 -0.973 -0.226 243 240 239 0 0
-0.8613 5.8367 0.2625 -0.434 -0.877 -0.209 253 252 252 0 0
-0.7296 5.8978 0.2711 0.422 -0.867 -0.266 254 253 252 0 0
-0.7127 5.8831 0.2698 -0.557 -0.792 -0.251 179 175 182 0 0
-0.7074 5.8777 0.2693 -0.300 -0.928 -0.221 116 115 124 0 0
-0.6997 5.8759 0.2692 -0.141 -0.950 -0.278 89 92 106 0 0
-0.5959 5.9693 0.2808 -0.044 -0.945 -0.323 74 91 114 0 0
-0.5869 5.9689 0.2809 -0.044 -0.945 -0.323 75 93 114 0 0
-0.5763 5.9706 0.2813 -0.546 -0.829 -0.116 75 92 110 0 0
-0.5712 5.9647 0.2807 -0.589 -0.793 -0.158 108 123 138 0 0
-0.5661 5.9590 0.2802 -0.533 -0.833 -0.147 182 194 205 0 0
-0.5012 6.0088 0.2865 0.560 -0.786 -0.264 237 234 237 0 0
-0.3980 6.0831 0.2960 0.612 -0.746 -0.261 228 227 233 0 0
-0.1134 6.4345 0.3379 0.195 -0.981 -0.021 218 221 229 0 0
-0.0948 6.4452 0.3393 0.506 -0.860 -0.059 230 235 245 0 0
-0.0840 6.4455 0.3395 0.481 -0.869 -0.117 227 233 245 0 0
0.1371 6.5779 0.3571 0.256 -0.772 -0.582 242 238 241 0 0
0.5495 6.4834 0.3536 -0.769 -0.615 -0.173 111 100 111 0 0
-4.3445 5.3844 0.1539 -0.959 -0.263 -0.111 137 83 48 0 0
-4.0788 6.6215 0.2875 -0.437 -0.472 0.766 166 129 111 0 0
-4.0703 6.6098 0.2864 -0.214 -0.338 0.916 167 130 111 0 0
-4.0624 6.6033 0.2859 -0.214 -0.338 0.916 167 130 112 0 0
-3.9394 6.0243 0.2271 -0.990 -0.143 0.016 137 116 103 0 0
-3.7222 5.7670 0.2035 -0.643 -0.732 -0.223 148 141 135 0 0
-3.7158 5.7616 0.2031 -0.643 -0.732 -0.223 145 138 132 0 0
-3.7104 5.7734 0.2044 0.013 -0.941 -0.338 144 137 132 0 0
-3.6812 5.8037 0.2080 -0.585 -0.409 -0.700 142 137 131 0 0
-3.6256 5.8040 0.2089 0.061 -0.994 -0.095 139 133 134 0 0
-3.6195 5.8050 0.2091 -0.264 -0.964 -0.035 148 142 143 0 0
-3.6127 5.7816 0.2067 -0.343 -0.898 -0.277 150 146 147 0 0
-3.6002 5.7758 0.2063 -0.893 -0.446 -0.068 148 145 146 0 0
-3.5937 5.7573 0.2045 -0.774 -0.622 -0.118 138 135 136 0 0
-3.4836 5.6213 0.1919 -0.529 -0.846 -0.072 54 40 28 0 0
-3.4776 5.6183 0.1917 -0.740 -0.670 -0.054 108 84 54 0 0
-3.4717 5.6094 0.1909 -0.834 -0.550 -0.047 143 114 66 0 0
-3.4659 5.6005 0.1900 -0.834 -0.550 -0.047 154 121 56 0 0
-3.4598 5.6049 0.1906 -0.396 -0.914 -0.086 151 111 41 0 0
-3.4538 5.6003 0.1902 -0.388 -0.922 0.013 152 100 34 0 0
-3.4427 5.5604 0.1862 -0.512 -0.841 0.172 152 93 27 0 0
-3.4368 5.5573 0.1860 -0.419 -0.894 -0.160 154 93 29 0 0
-3.4312 5.5418 0.1844 -0.862 -0.484 -0.150 153 91 30 0 0
-3.4198 5.5247 0.1828 -0.517 -0.812 -0.271 141 60 21 0 0
-3.4141 5.5170 0.1821 -0.504 -0.858 -0.098 134 41 17 0 0
-3.4084 5.5119 0.1817 -0.351 -0.925 0.148 134 29 20 0 0
-3.4025 5.5098 0.1815 -0.072 -0.972 0.223 130 28 27 0 0
-3.3967 5.5069 0.1813 -0.658 -0.744 0.119 144 61 60 0 0
-3.3911 5.4983 0.1805 -0.850 -0.521 -0.081 158 100 99 0 0
-3.3742 5.4792 0.1788 -0.426 -0.905 0.005 158 144 144 0 0
-3.3687 5.4697 0.1778 -0.585 -0.805 0.096 154 142 144 0 0
-3.3631 5.4634 0.1773 -0.755 -0.652 -0.075 151 143 141 0 0
-3.2449 5.3131 0.1634 0.736 -0.635 0.237 146 136 135 0 0
-3.2452 5.1744 0.1488 -0.854 -0.466 -0.233 143 133 132 0 0
-3.2276 5.1867 0.1504 0.033 -0.316 0.948 131 119 121 0 0
-3.2227 5.1795 0.1497 -0.113 -0.294 0.949 122 107 112 0 0
-3.2175 5.1764 0.1495 -0.134 -0.302 0.944 107 92 97 0 0
-3.2122 5.1734 0.1492 -0.134 -0.302 0.944 98 83 88 0 0
-3.2004 5.1803 0.1501 0.094 -0.719 0.688 107 91 92 0 0
-3.1930 5.1992 0.1522 0.715 -0.699 -0.007 115 99 100 0 0
-3.1806 5.2110 0.1537 0.049 -0.567 0.822 128 114 115 0 0
-3.1764 5.1970 0.1523 -0.408 -0.316 0.856 131 119 121 0 0
-3.1493 5.0470 0.1370 -0.043 -0.055 -0.998 130 122 123 0 0
-3.1365 5.0192 0.1343 -0.061 -0.049 -0.997 125 115 114 0 0
-3.1287 5.0390 0.1364 0.066 -0.080 -0.995 151 142 137 0 0
-2.9392 4.6595 0.0996 0.438 -0.748 -0.499 48 50 63 0 0
-2.9131 4.6651 0.1006 -0.806 -0.589 -0.060 153 142 146 0 0
-2.9065 4.6504 0.0992 -0.505 -0.844 -0.179 193 183 182 0 0
-2.9016 4.6498 0.0992 -0.408 -0.886 -0.223 211 203 200 0 0
-2.9355 4.4802 0.0809 -0.993 0.117 -0.002 213 210 205 0 0
-2.8999 4.5517 0.0889 -0.417 -0.502 -0.758 192 180 180 0 0
-2.8539 4.6409 0.0990 -0.977 0.187 0.103 130 126 127 0 0
-2.8921 4.4471 0.0781 -0.978 0.183 0.104 118 116 119 0 0
-2.7925 4.6447 0.1003 -0.006 -0.926 -0.378 163 157 159 0 0
-2.7875 4.6446 0.1004 -0.006 -0.926 -0.378 164 158 160 0 0
-2.7816 4.6476 0.1008 -0.310 -0.742 -0.595 164 158 160 0 0
-2.7779 4.6426 0.1003 -0.528 -0.591 -0.610 165 159 161 0 0
-2.7737 4.6392 0.1001 -0.528 -0.591 -0.610 166 160 162 0 0
-2.7566 4.6641 0.1029 -0.962 -0.229 -0.151 166 160 162 0 0
-2.7464 4.6105 0.0975 -0.638 -0.637 -0.433 169 163 165 0 0
-2.7444 4.6001 0.0964 -0.969 -0.236 -0.069 170 164 166 0 0
-2.7097 4.5813 0.0950 -0.890 -0.444 -0.108 187 180 187 0 0
-2.7020 4.5733 0.0943 -0.767 -0.634 -0.095 189 180 185 0 0
-2.6956 4.5616 0.0931 -0.925 -0.375 -0.058 173 158 161 0 0
-2.6928 4.5547 0.0924 -0.925 -0.375 -0.058 161 126 133 0 0
-2.6900 4.5475 0.0917 -0.912 -0.401 -0.082 159 112 120 0 0
-2.6813 4.5591 0.0931 0.533 -0.821 -0.205 168 112 121 0 0
-2.6723 4.5716 0.0945 0.685 -0.722 -0.095 168 111 118 0 0
-2.6551 4.5935 0.0971 0.752 -0.659 0.003 174 121 127 0 0
-2.4487 4.8467 0.1268 -0.937 0.050 -0.346 174 172 159 0 0
-2.2985 4.7645 0.1205 -0.062 -0.483 0.873 205 200 196 0 0
-2.2889 4.7735 0.1216 -0.501 -0.685 0.529 203 198 195 0 0
-2.3099 4.7119 0.1148 0.475 -0.788 -0.393 202 198 197 0 0
-2.3221 4.6709 0.1103 -0.999 -0.041 -0.031 204 202 203 0 0
-2.2956 4.7188 0.1157 0.401 -0.813 -0.421 215 213 218 0 0
-2.2885 4.7221 0.1162 0.401 -0.813 -0.421 214 213 221 0 0
-2.2817 4.7247 0.1166 0.373 -0.831 -0.413 211 211 223 0 0
-1.5614 5.5405 0.2130 0.396 -0.585 -0.708 201 200 216 0 0
-1.3577 5.4527 0.2069 0.686 -0.709 -0.162 201 195 197 0 0
-1.3394 5.4700 0.2090 0.686 -0.709 -0.162 202 198 199 0 0
-1.3208 5.4875 0.2112 0.686 -0.709 -0.162 210 206 209 0 0
-1.3058 5.4991 0.2126 0.546 -0.832 -0.101 239 235 238 0 0
-1.2996 5.4964 0.2124 -0.471 -0.882 -0.020 253 250 253 0 0
-1.2788 5.5171 0.2149 0.624 -0.762 -0.171 255 252 255 0 0
-0.8649 5.8445 0.2555 0.047 -0.971 -0.236 247 244 243 0 0
-0.8604 5.8381 0.2549 -0.312 -0.920 -0.237 255 254 254 0 0
-0.8433 5.8373 0.2551 -0.428 -0.839 -0.336 253 253 253 0 0
-0.7260 5.9030 0.2638 0.385 -0.872 -0.301 255 253 253 0 0
-0.7165 5.9035 0.2640 -0.716 -0.674 -0.184 253 250 251 0 0
-0.7134 5.8823 0.2618 -0.238 -0.956 -0.173 164 161 166 0 0
-0.7060 5.8798 0.2617 -0.229 -0.951 -0.206 106 107 118 0 0
-0.6987 5.8774 0.2615 -0.105 -0.964 -0.245 84 89 106 0 0
-0.5941 5.9719 0.2730 -0.044 -0.945 -0.323 73 91 110 0 0
-0.5851 5.9715 0.2731 -0.044 -0.945 -0.323 76 95 114 0 0
-0.5761 5.9710 0.2732 -0.044 -0.945 -0.323 80 98 117 0 0
-0.5700 5.9665 0.2728 -0.779 -0.615 -0.118 121 137 152 0 0
-0.5654 5.9600 0.2722 -0.533 -0.833 -0.147 197 209 218 0 0
-0.3931 6.0898 0.2885 0.612 -0.746 -0.261 224 224 231 0 0
-0.1081 6.4418 0.3297 0.324 -0.946 0.020 222 225 233 0 0
-0.0941 6.4462 0.3303 0.506 -0.860 -0.059 230 235 245 0 0
-0.0821 6.4481 0.3307 0.462 -0.874 -0.149 219 225 237 0 0
-0.0326 6.4992 0.3368 0.647 -0.761 0.047 216 221 232 0 0
-0.0016 6.5258 0.3401 0.647 -0.761 0.047 225 229 240 0 0
0.5505 6.4847 0.3443 -0.769 -0.615 -0.173 99 89 98 0 0
-4.3478 5.3982 0.1499 -0.958 -0.278 0.069 138 82 47 0 0
-4.1207 5.0716 0.1196 0.687 -0.665 -0.295 149 100 68 0 0
-4.0663 6.5743 0.2752 -0.062 -0.282 0.957 166 129 111 0 0
-3.9480 6.1086 0.2290 -0.991 -0.131 -0.011 138 117 104 0 0
-3.7160 5.7634 0.1969 -0.641 -0.742 -0.196 148 139 134 0 0
-3.7097 5.7581 0.1965 -0.641 -0.742 -0.196 146 138 133 0 0
-3.6919 5.7662 0.1976 0.091 -0.505 0.858 144 137 133 0 0
-3.6860 5.7715 0.1982 0.786 -0.541 -0.299 143 138 134 0 0
-3.6617 5.7740 0.1988 0.834 -0.541 -0.108 147 143 139 0 0
-3.6381 5.8030 0.2021 0.067 -0.991 -0.114 105 101 100 0 0
-3.6257 5.8046 0.2025 0.083 -0.996 -0.018 139 133 135 0 0
-3.6193 5.7951 0.2016 -0.086 -0.976 -0.200 148 142 144 0 0
-3.6128 5.7836 0.2005 -0.343 -0.898 -0.277 151 145 147 0 0
-3.6003 5.7748 0.1998 -0.872 -0.476 -0.117 152 148 149 0 0
-3.5939 5.7610 0.1985 -0.814 -0.552 -0.180 140 137 138 0 0
-3.4958 5.6081 0.1842 0.890 -0.455 0.001 39 30 33 0 0
-3.4837 5.6219 0.1858 -0.529 -0.846 -0.072 59 45 33 0 0
-3.4777 5.6189 0.1856 -0.740 -0.670 -0.054 110 88 54 0 0
-3.4718 5.6100 0.1848 -0.834 -0.550 -0.047 143 114 64 0 0
-3.4659 5.6012 0.1839 -0.834 -0.550 -0.047 153 118 54 0 0
-3.4598 5.6055 0.1845 -0.396 -0.914 -0.086 151 109 39 0 0
-3.4539 5.6009 0.1841 -0.426 -0.905 0.014 152 101 32 0 0
-3.4428 5.5592 0.1799 -0.512 -0.841 0.172 152 94 31 0 0
-3.4367 5.5633 0.1805 -0.692 -0.704 0.160 154 95 33 0 0
-3.4313 5.5427 0.1784 -0.846 -0.528 -0.070 154 91 33 0 0
-3.4258 5.5269 0.1769 0.016 -0.978 -0.206 152 81 30 0 0
-3.4198 5.5278 0.1771 -0.622 -0.744 -0.244 145 61 23 0 0
-3.4140 5.5220 0.1765 -0.697 -0.717 0.017 138 42 18 0 0
-3.4085 5.5110 0.1755 -0.351 -0.925 0.148 138 27 19 0 0
-3.4026 5.5088 0.1754 -0.326 -0.926 0.188 132 23 25 0 0
-3.3968 5.5061 0.1752 -0.658 -0.744 0.119 136 39 44 0 0
-3.3911 5.4998 0.1746 -0.816 -0.578 0.002 158 86 90 0 0
-3.3743 5.4784 0.1726 -0.567 -0.823 -0.047 164 145 147 0 0
-3.3688 5.4691 0.1718 -0.585 -0.805 0.096 155 143 145 0 0
-3.3631 5.4650 0.1714 -0.629 -0.778 0.004 154 146 144 0 0
-3.2729 5.3230 0.1581 -0.887 -0.375 -0.269 149 141 139 0 0
-3.2574 5.3010 0.1561 0.021 -0.828 0.561 147 137 136 0 0
-3.2520 5.2974 0.1558 0.529 -0.733 0.428 147 137 135 0 0
-3.2391 5.1825 0.1442 0.190 -0.820 0.540 139 129 127 0 0
-3.2329 5.1905 0.1451 0.467 -0.601 0.649 139 129 128 0 0
-3.2269 5.1957 0.1457 0.538 -0.652 0.534 131 121 121 0 0
-3.2062 5.1785 0.1443 0.405 -0.492 -0.771 111 96 98 0 0
-3.1755 5.2063 0.1476 -0.455 -0.516 0.725 135 123 123 0 0
-3.1714 5.1917 0.1461 -0.383 -0.281 0.880 136 124 124 0 0
-3.1453 4.9490 0.1215 -0.535 0.050 -0.843 95 88 86 0 0
-2.9388 4.6618 0.0950 0.441 -0.782 -0.441 48 50 62 0 0
-2.9131 4.6656 0.0958 -0.806 -0.589 -0.060 156 147 148 0 0
-2.9014 4.6509 0.0945 -0.408 -0.886 -0.223 211 206 203 0 0
-2.9354 4.4808 0.0764 -0.993 0.117 -0.002 212 207 204 0 0
-2.8561 4.6321 0.0932 -0.978 0.191 0.083 129 125 126 0 0
-2.7802 4.6159 0.0927 -0.467 -0.209 -0.859 166 160 162 0 0
-2.7765 4.6113 0.0922 -0.284 -0.244 -0.927 166 160 162 0 0
-2.7569 4.6452 0.0960 -0.709 -0.501 -0.496 167 161 163 0 0
-2.7458 4.6128 0.0929 -0.690 -0.618 -0.377 170 164 168 0 0
-2.7095 4.5820 0.0902 -0.890 -0.444 -0.108 186 181 185 0 0
-2.7022 4.5730 0.0894 -0.704 -0.694 -0.147 190 181 186 0 0
-2.6955 4.5621 0.0884 -0.928 -0.354 -0.116 174 155 157 0 0
-2.6927 4.5549 0.0877 -0.935 -0.336 -0.115 164 124 132 0 0
-2.6900 4.5479 0.0870 -0.928 -0.355 -0.111 164 113 122 0 0
-2.6808 4.5609 0.0885 0.535 -0.812 -0.232 165 109 118 0 0
-2.4143 4.8623 0.1235 0.818 -0.346 -0.460 184 177 171 0 0
-2.3866 4.9204 0.1299 0.845 -0.322 -0.426 189 182 174 0 0
-2.3320 4.7529 0.1135 0.082 -0.236 0.968 203 194 189 0 0
-2.3002 4.8011 0.1189 0.043 -0.253 0.967 206 198 195 0 0
-2.3011 4.7854 0.1173 0.201 -0.298 0.933 204 199 195 0 0
-2.3034 4.7533 0.1139 -0.062 -0.483 0.873 204 199 195 0 0
-2.2762 4.8032 0.1195 -0.312 -0.394 0.864 201 197 194 0 0
-2.3089 4.7143 0.1098 0.391 -0.853 -0.345 202 198 197 0 0
-2.3017 4.7180 0.1103 0.463 -0.807 -0.366 207 205 206 0 0
-2.2872 4.7252 0.1113 0.463 -0.796 -0.391 215 214 222 0 0
-2.2804 4.7277 0.1116 0.373 -0.831 -0.413 210 210 222 0 0
-2.2511 4.7422 0.1136 0.721 -0.645 -0.252 198 197 211 0 0
-1.4534 5.5541 0.2091 0.364 -0.872 -0.326 198 194 196 0 0
-1.4433 5.5581 0.2096 0.364 -0.872 -0.326 199 195 196 0 0
-1.4257 5.5752 0.2117 0.240 -0.688 0.685 197 194 195 0 0
-1.3548 5.4577 0.2006 0.678 -0.710 -0.191 202 198 199 0 0
-1.3368 5.4743 0.2026 0.678 -0.710 -0.191 204 200 201 0 0
-1.3175 5.4930 0.2048 0.691 -0.695 -0.196 216 212 213 0 0
-1.3045 5.5013 0.2059 0.431 -0.879 -0.204 243 241 242 0 0
-1.2992 5.4971 0.2055 -0.360 -0.917 -0.171 253 251 252 0 0
-1.2822 5.5118 0.2073 0.601 -0.761 -0.245 255 253 254 0 0
-1.2531 5.5329 0.2099 0.675 -0.736 -0.046 255 253 255 0 0
-1.2045 5.5845 0.2159 0.734 -0.614 -0.291 249 255 254 0 0
-0.8591 5.8402 0.2474 -0.451 -0.836 -0.313 255 254 255 0 0
-0.8433 5.8373 0.2474 0.224 -0.934 -0.278 255 253 254 0 0
-0.7421 5.8931 0.2546 0.468 -0.865 -0.179 247 246 244 0 0
-0.7277 5.9006 0.2556 0.468 -0.865 -0.179 255 253 253 0 0
-0.7166 5.9035 0.2561 -0.785 -0.616 -0.068 250 248 249 0 0
-0.7126 5.8835 0.2541 -0.238 -0.956 -0.173 147 145 149 0 0
-0.7056 5.8806 0.2539 -0.145 -0.975 -0.166 96 100 112 0 0
-0.5933 5.9861 0.2664 -0.705 -0.676 -0.214 73 93 107 0 0
-0.5923 5.9745 0.2652 -0.044 -0.945 -0.323 72 93 106 0 0
-0.5833 5.9740 0.2653 -0.044 -0.945 -0.323 72 93 112 0 0
-0.5750 5.9725 0.2653 -0.066 -0.922 -0.382 82 102 124 0 0
-0.5694 5.9674 0.2648 -0.779 -0.615 -0.118 138 154 169 0 0
-0.5648 5.9610 0.2642 -0.533 -0.833 -0.147 211 222 228 0 0
-0.4108 6.0792 0.2787 0.603 -0.762 -0.236 230 230 237 0 0
-0.1298 6.4270 0.3187 -0.721 -0.681 -0.129 212 215 223 0 0
-0.1084 6.4415 0.3205 0.324 -0.946 0.020 223 227 236 0 0
-0.0799 6.4512 0.3220 0.464 -0.865 -0.188 220 224 235 0 0
-0.0333 6.4984 0.3275 0.642 -0.760 0.105 218 222 232 0 0
0.1217 6.5867 0.3389 0.501 -0.864 -0.058 225 223 224 0 0
0.1391 6.5947 0.3400 0.495 -0.863 -0.097 242 238 239 0 0
0.1467 6.5904 0.3397 -0.726 -0.654 0.211 242 237 238 0 0
0.3370 6.4192 0.3249 -0.731 -0.209 0.650 197 189 202 0 0
0.5476 6.4943 0.3358 -0.833 -0.502 -0.233 127 120 130 0 0
0.5518 6.4862 0.3350 -0.762 -0.603 -0.236 89 79 86 0 0
0.5258 6.4446 0.3303 -0.968 -0.239 -0.077 75 65 70 0 0
-4.2300 4.9739 0.1031 0.003 -0.530 -0.848 138 83 53 0 0
-4.1099 4.6045 0.0674 0.302 -0.428 0.852 141 88 57 0 0
-4.1294 5.0686 0.1142 -0.615 -0.178 -0.768 149 98 67 0 0
-4.1255 5.0723 0.1146 -0.328 -0.570 -0.753 150 99 68 0 0
-3.9487 6.1141 0.2227 -0.991 -0.131 -0.011 139 118 105 0 0
-3.7719 5.8833 0.2019 -0.976 -0.202 -0.078 48 46 50 0 0
-3.7162 5.7652 0.1907 -0.641 -0.742 -0.196 149 140 137 0 0
-3.7099 5.7598 0.1903 -0.641 -0.742 -0.196 147 138 133 0 0
-3.7039 5.7621 0.1906 0.137 -0.813 -0.566 147 139 134 0 0
-3.6862 5.7744 0.1921 0.711 -0.659 0.245 144 139 135 0 0
-3.6382 5.8033 0.1957 0.130 -0.990 -0.045 109 105 104 0 0
-3.6320 5.8048 0.1960 0.239 -0.968 -0.078 121 117 117 0 0
-3.6258 5.8035 0.1959 0.064 -0.997 -0.037 139 133 135 0 0
-3.6194 5.7965 0.1953 -0.063 -0.944 -0.323 148 142 144 0 0
-3.6004 5.7766 0.1936 -0.872 -0.476 -0.117 150 146 147 0 0
-3.5940 5.7632 0.1923 -0.814 -0.552 -0.180 141 137 138 0 0
-3.4959 5.6129 0.1785 0.815 -0.544 -0.199 40 31 34 0 0
-3.4838 5.6216 0.1796 -0.286 -0.954 -0.086 59 45 32 0 0
-3.4778 5.6195 0.1794 -0.740 -0.670 -0.054 109 88 52 0 0
-3.4719 5.6107 0.1786 -0.834 -0.550 -0.047 143 114 62 0 0
-3.4660 5.6018 0.1778 -0.834 -0.550 -0.047 154 119 55 0 0
-3.4599 5.6061 0.1783 -0.396 -0.914 -0.086 154 109 40 0 0
-3.4427 5.5681 0.1747 -0.704 -0.679 0.211 152 96 33 0 0
-3.4368 5.5619 0.1742 -0.704 -0.679 0.211 155 96 36 0 0
-3.4313 5.5437 0.1724 -0.871 -0.491 0.001 154 92 35 0 0
-3.4258 5.5283 0.1709 0.080 -0.997 -0.007 153 82 32 0 0
-3.4199 5.5274 0.1709 -0.698 -0.716 -0.015 145 61 23 0 0
-3.4141 5.5220 0.1705 -0.697 -0.717 0.017 137 39 16 0 0
-3.4084 5.5164 0.1700 -0.697 -0.717 0.017 136 24 17 0 0
-3.4027 5.5088 0.1693 -0.215 -0.911 0.351 134 19 23 0 0
-3.3969 5.5058 0.1691 -0.570 -0.798 0.192 132 28 36 0 0
-3.3912 5.4999 0.1686 -0.816 -0.578 0.002 151 70 76 0 0
-3.3856 5.4928 0.1679 -0.817 -0.576 -0.012 160 110 109 0 0
-3.3800 5.4841 0.1671 -0.816 -0.578 0.002 163 134 132 0 0
-3.3743 5.4786 0.1666 -0.749 -0.659 -0.074 161 142 143 0 0
-3.3686 5.4749 0.1663 -0.567 -0.823 -0.047 157 145 147 0 0
-3.3632 5.4642 0.1653 -0.585 -0.805 0.096 154 146 144 0 0
-3.2729 5.3236 0.1524 -0.896 -0.355 -0.266 149 141 139 0 0
-3.2680 5.3121 0.1513 -0.896 -0.355 -0.266 150 140 139 0 0
-3.2578 5.2972 0.1499 -0.069 -0.840 0.538 149 138 136 0 0
-3.2520 5.2985 0.1502 0.078 -0.831 0.551 148 137 135 0 0
-3.2406 5.1658 0.1369 -0.478 -0.666 -0.573 139 129 127 0 0
-3.2341 5.1773 0.1381 -0.645 -0.762 0.058 137 127 126 0 0
-3.2285 5.1777 0.1383 -0.338 -0.716 -0.611 134 124 123 0 0
-3.1797 5.2211 0.1434 -0.827 -0.551 0.113 138 126 126 0 0
-3.1496 5.0917 0.1307 -0.225 -0.082 -0.971 134 129 126 0 0
-3.1442 5.0904 0.1306 -0.242 -0.086 -0.966 131 125 125 0 0
-2.9382 4.6646 0.0905 0.441 -0.782 -0.441 47 49 61 0 0
-2.9170 4.6706 0.0914 -0.799 -0.584 -0.142 131 127 128 0 0
-2.9012 4.6520 0.0897 -0.408 -0.886 -0.223 211 206 203 0 0
-2.9363 4.4771 0.0715 -0.994 0.103 0.025 212 207 204 0 0
-2.8139 4.6799 0.0938 0.043 -0.895 -0.445 149 147 152 0 0
-2.7560 4.6487 0.0915 -0.613 -0.552 -0.565 168 162 164 0 0
-2.7495 4.6176 0.0884 -0.931 -0.342 -0.123 170 164 166 0 0
-2.7469 4.6092 0.0876 -0.953 -0.286 -0.099 170 164 168 0 0
-2.7446 4.5998 0.0867 -0.965 -0.256 -0.056 170 164 168 0 0
-2.7022 4.5731 0.0846 -0.649 -0.711 -0.269 188 179 182 0 0
-2.6983 4.5694 0.0843 -0.896 -0.409 -0.170 183 172 176 0 0
-2.6953 4.5630 0.0837 -0.896 -0.409 -0.170 171 151 153 0 0
-2.6923 4.5567 0.0831 -0.896 -0.409 -0.170 163 122 130 0 0
-2.6885 4.5528 0.0827 -0.585 -0.709 -0.394 165 112 122 0 0
-2.6502 4.6249 0.0906 -0.129 -0.860 -0.494 171 116 121 0 0
-2.4774 4.7995 0.1108 0.884 -0.398 0.245 194 203 172 0 0
-2.4434 4.8616 0.1176 -0.815 0.012 -0.580 182 180 159 0 0
-2.4158 4.8584 0.1177 0.794 -0.352 -0.495 181 177 168 0 0
-2.3241 4.7992 0.1130 0.409 -0.848 -0.339 202 193 188 0 0
-2.3431 4.7132 0.1040 0.124 -0.269 0.955 205 196 191 0 0
-2.3041 4.7651 0.1098 0.077 -0.376 0.924 205 200 196 0 0
-2.3004 4.7605 0.1094 0.470 -0.400 0.787 205 200 197 0 0
-2.2755 4.8050 0.1143 0.303 -0.409 0.861 203 199 196 0 0
-2.3079 4.7167 0.1049 0.391 -0.853 -0.345 204 200 199 0 0
-2.3010 4.7197 0.1053 0.391 -0.853 -0.345 208 206 209 0 0
-2.2857 4.7286 0.1064 0.505 -0.823 -0.259 214 213 221 0 0
-2.2791 4.7307 0.1067 0.373 -0.831 -0.413 210 208 221 0 0
-1.6540 5.3832 0.1819 -0.719 -0.080 -0.690 202 201 219 0 0
-1.6247 5.3966 0.1836 -0.925 -0.116 -0.362 208 207 221 0 0
-1.4412 5.5618 0.2030 -0.118 -0.990 -0.079 200 196 197 0 0
-1.4296 5.5684 0.2039 0.195 -0.788 0.584 196 194 195 0 0
-1.4231 5.5661 0.2037 0.013 -0.758 0.653 195 193 194 0 0
-1.4152 5.5661 0.2038 0.012 -0.652 0.758 196 194 197 0 0
-1.3517 5.4629 0.1943 0.676 -0.697 -0.241 201 197 198 0 0
-1.3335 5.4798 0.1963 0.676 -0.697 -0.241 204 200 201 0 0
-1.3152 5.4968 0.1983 0.660 -0.710 -0.244 219 216 217 0 0
-1.3031 5.5037 0.1991 0.401 -0.869 -0.291 245 243 244 0 0
-1.2989 5.4977 0.1986 -0.350 -0.867 -0.355 254 252 253 0 0
-1.2039 5.5857 0.2089 0.747 -0.617 -0.247 246 254 254 0 0
-0.8416 5.8400 0.2399 0.224 -0.934 -0.278 255 253 254 0 0
-0.7418 5.8936 0.2468 0.513 -0.841 -0.175 249 248 246 0 0
-0.7261 5.9031 0.2480 0.468 -0.865 -0.179 255 253 253 0 0
-0.7163 5.9040 0.2482 -0.785 -0.616 -0.068 245 243 244 0 0
-0.7167 5.8907 0.2468 -0.628 -0.778 -0.022 201 197 200 0 0
-0.7124 5.8839 0.2462 -0.302 -0.948 -0.104 134 132 138 0 0
-0.7041 5.8829 0.2462 0.048 -0.990 -0.134 90 94 108 0 0
-0.5905 5.9771 0.2574 -0.044 -0.945 -0.323 70 91 104 0 0
-0.5815 5.9766 0.2575 -0.044 -0.945 -0.323 69 91 109 0 0
-0.5729 5.9756 0.2575 -0.066 -0.922 -0.382 89 109 131 0 0
-0.4066 6.0849 0.2710 0.603 -0.762 -0.236 230 232 237 0 0
-0.1274 6.4304 0.3101 -0.709 -0.686 0.163 211 214 223 0 0
-0.1084 6.4416 0.3115 0.402 -0.915 0.026 225 229 240 0 0
-0.0928 6.4482 0.3124 0.506 -0.860 -0.059 233 237 248 0 0
0.1054 6.5800 0.3286 0.453 -0.841 -0.295 216 214 215 0 0
0.1220 6.5872 0.3295 0.470 -0.859 -0.203 219 216 218 0 0
0.1374 6.5928 0.3303 0.468 -0.854 -0.226 239 235 236 0 0
0.1454 6.5888 0.3300 -0.726 -0.654 0.211 240 235 236 0 0
0.3355 6.4304 0.3167 -0.803 -0.264 0.535 196 188 201 0 0
0.3296 6.4107 0.3147 -0.810 -0.145 0.568 199 188 202 0 0
0.5489 6.4959 0.3265 -0.806 -0.554 -0.209 115 107 116 0 0
0.5532 6.4880 0.3257 -0.762 -0.603 -0.236 84 74 80 0 0
0.5229 6.4414 0.3206 -0.981 -0.082 -0.176 75 65 69 0 0
-4.1393 5.0955 0.1117 -0.327 -0.185 -0.927 150 99 68 0 0
-4.1352 5.0984 0.1121 -0.624 -0.198 -0.756 150 99 68 0 0
-4.1266 5.0776 0.1101 -0.246 -0.606 -0.757 150 99 68 0 0
-4.1201 5.0920 0.1116 0.794 -0.601 -0.090 149 100 70 0 0
-3.9514 6.1402 0.2185 -0.991 -0.130 -0.001 140 119 105 0 0
-3.8999 5.7482 0.1801 -0.991 -0.130 -0.001 66 62 58 0 0
-3.7165 5.7695 0.1848 -0.631 -0.755 -0.175 151 141 138 0 0
-3.6975 5.7521 0.1833 0.259 -0.824 -0.504 148 140 137 0 0
-3.6919 5.7622 0.1844 0.173 -0.890 0.421 146 139 136 0 0
-3.6861 5.7700 0.1853 0.529 -0.749 0.400 145 140 136 0 0
-3.6568 5.8031 0.1890 -0.181 -0.983 -0.015 148 145 141 0 0
-3.6383 5.8038 0.1893 -0.007 -0.994 -0.112 112 108 107 0 0
-3.6321 5.8045 0.1895 0.185 -0.978 -0.100 118 113 113 0 0
-3.6258 5.8024 0.1894 -0.086 -0.995 -0.041 137 131 133 0 0
-3.6131 5.7853 0.1878 -0.213 -0.975 -0.056 152 146 148 0 0
-3.6005 5.7783 0.1873 -0.872 -0.476 -0.117 150 146 147 0 0
-3.5941 5.7654 0.1861 -0.814 -0.552 -0.180 140 136 137 0 0
-3.4960 5.6140 0.1724 0.835 -0.491 -0.247 41 32 35 0 0
-3.4899 5.6240 0.1735 -0.199 -0.970 -0.142 43 34 32 0 0
-3.4839 5.6222 0.1734 -0.286 -0.954 -0.086 61 48 33 0 0
-3.4779 5.6201 0.1733 -0.740 -0.670 -0.054 110 89 53 0 0
-3.4720 5.6113 0.1725 -0.834 -0.550 -0.047 144 115 63 0 0
-3.4661 5.6024 0.1717 -0.834 -0.550 -0.047 154 119 55 0 0
-3.4600 5.6067 0.1722 -0.396 -0.914 -0.086 154 109 40 0 0
-3.4541 5.6018 0.1718 -0.419 -0.890 -0.180 153 98 31 0 0
-3.4428 5.5650 0.1683 -0.567 -0.732 0.376 153 98 33 0 0
-3.4370 5.5601 0.1679 -0.704 -0.679 0.211 153 98 34 0 0
-3.4317 5.5309 0.1650 -0.488 -0.871 0.055 155 94 35 0 0
-3.4259 5.5261 0.1646 0.428 -0.899 0.091 154 86 34 0 0
-3.4199 5.5301 0.1651 -0.598 -0.801 0.003 144 64 25 0 0
-3.4141 5.5250 0.1647 -0.764 -0.632 0.131 133 40 15 0 0
-3.4085 5.5155 0.1638 -0.699 -0.706 0.117 135 23 18 0 0
-3.4029 5.5067 0.1630 -0.286 -0.895 0.343 134 19 23 0 0
-3.3970 5.5044 0.1629 -0.570 -0.798 0.192 128 20 29 0 0
-3.3913 5.5002 0.1625 -0.570 -0.798 0.192 138 48 55 0 0
-3.3856 5.4930 0.1619 -0.817 -0.576 -0.012 160 99 100 0 0
-3.3801 5.4851 0.1612 -0.817 -0.576 -0.012 165 127 127 0 0
-3.3744 5.4794 0.1607 -0.749 -0.659 -0.074 159 138 140 0 0
-3.3686 5.4761 0.1605 -0.668 -0.731 -0.142 157 147 146 0 0
-3.3631 5.4684 0.1598 0.293 -0.950 0.108 156 146 145 0 0
-3.3572 5.4693 0.1599 0.483 -0.825 0.293 155 145 144 0 0
-3.2685 5.3075 0.1451 -0.886 -0.214 -0.411 151 141 140 0 0
-3.2602 5.3411 0.1485 -0.795 -0.525 0.304 151 141 140 0 0
-3.2550 5.3332 0.1478 -0.850 -0.491 0.191 150 139 137 0 0
-3.2515 5.3052 0.1451 -0.002 -0.722 0.692 149 138 136 0 0
-3.2450 5.3150 0.1461 0.349 -0.803 0.483 149 138 136 0 0
-3.2281 5.1834 0.1332 -0.545 -0.509 0.666 139 129 128 0 0
-3.1472 5.1126 0.1273 -0.098 -0.190 -0.977 137 131 131 0 0
-3.1426 5.1051 0.1266 -0.158 -0.149 -0.976 131 125 125 0 0
-3.1362 5.0239 0.1186 -0.459 0.013 -0.889 46 40 38 0 0
-3.1861 4.4465 0.0604 -0.878 0.143 -0.457 94 92 95 0 0
-2.9208 4.6764 0.0870 -0.684 -0.638 -0.352 85 80 84 0 0
-2.9171 4.6706 0.0865 -0.818 -0.544 -0.186 134 130 131 0 0
-2.9008 4.6544 0.0851 -0.057 -0.961 -0.270 213 208 204 0 0
-2.9365 4.4766 0.0669 -0.994 0.103 0.025 213 208 204 0 0
-2.7485 4.6391 0.0857 -0.480 -0.588 -0.650 168 162 164 0 0
-2.7467 4.6101 0.0829 -0.953 -0.286 -0.099 170 164 168 0 0
-2.7445 4.6001 0.0819 -0.964 -0.260 -0.050 170 164 168 0 0
-2.7583 4.4696 0.0687 -0.634 -0.026 -0.773 180 174 178 0 0
-2.7495 4.4671 0.0686 -0.356 -0.237 -0.904 187 182 188 0 0
-2.6983 4.5696 0.0795 -0.813 -0.483 -0.326 183 172 176 0 0
-2.6950 4.5641 0.0790 -0.824 -0.473 -0.313 170 148 151 0 0
-2.6917 4.5587 0.0785 -0.824 -0.473 -0.313 160 119 127 0 0
-2.6877 4.5555 0.0782 -0.569 -0.692 -0.444 164 111 121 0 0
-2.6494 4.6274 0.0860 -0.129 -0.860 -0.494 171 116 122 0 0
-2.4379 4.8925 0.1153 0.905 -0.380 0.189 192 195 168 0 0
-2.3319 4.8085 0.1085 0.574 -0.769 -0.282 201 192 185 0 0
-2.3943 4.6305 0.0898 -0.034 -0.693 0.720 203 194 189 0 0
-2.3816 4.6480 0.0918 -0.583 -0.474 0.660 203 194 189 0 0
-2.3351 4.7059 0.0982 0.349 -0.356 0.867 205 197 195 0 0
-2.2889 4.7741 0.1056 0.145 -0.368 0.919 204 200 199 0 0
-2.2971 4.7418 0.1023 -0.611 -0.326 0.721 206 202 203 0 0
-2.3103 4.6984 0.0978 -0.987 -0.002 -0.158 209 207 212 0 0
-2.2846 4.7313 0.1014 0.565 -0.794 -0.225 213 211 222 0 0
-2.2794 4.7303 0.1014 0.338 -0.907 -0.251 209 207 220 0 0
-2.2725 4.7330 0.1018 0.411 -0.878 -0.247 203 202 216 0 0
-1.4498 5.5607 0.1958 -0.613 -0.597 -0.518 199 194 198 0 0
-1.4411 5.5622 0.1961 -0.178 -0.979 -0.094 200 195 199 0 0
-1.4340 5.5609 0.1960 -0.178 -0.979 -0.094 198 195 197 0 0
-1.4297 5.5547 0.1955 -0.583 -0.788 -0.196 197 195 196 0 0
-1.4223 5.5405 0.1941 -0.355 -0.675 0.647 196 194 197 0 0
-1.3489 5.4676 0.1879 0.665 -0.688 -0.289 201 197 198 0 0
-1.3309 5.4841 0.1898 0.665 -0.688 -0.289 204 200 201 0 0
-1.3124 5.5015 0.1918 0.652 -0.714 -0.256 226 223 224 0 0
-1.3021 5.5054 0.1923 0.309 -0.875 -0.372 249 247 248 0 0
-1.2976 5.5000 0.1919 -0.350 -0.867 -0.355 255 253 254 0 0
-1.1977 5.5956 0.2028 0.747 -0.617 -0.247 245 254 253 0 0
-0.9331 5.8219 0.2291 0.489 -0.834 -0.255 190 178 178 0 0
-0.7704 5.8786 0.2370 0.567 -0.824 -0.018 210 208 209 0 0
-0.7549 5.8880 0.2381 0.483 -0.865 -0.135 235 233 234 0 0
-0.7401 5.8962 0.2392 0.513 -0.841 -0.175 250 248 249 0 0
-0.7244 5.9056 0.2403 0.468 -0.865 -0.179 254 253 254 0 0
-0.7161 5.9046 0.2403 -0.785 -0.616 -0.068 239 238 240 0 0
-0.7175 5.8897 0.2388 -0.673 -0.734 -0.090 186 184 188 0 0
-0.7119 5.8847 0.2384 -0.283 -0.949 -0.138 121 120 129 0 0
-0.7030 5.8845 0.2385 0.155 -0.961 -0.229 86 90 107 0 0
-0.5962 5.9823 0.2498 -0.150 -0.933 -0.327 71 90 104 0 0
-0.5888 5.9797 0.2496 -0.044 -0.945 -0.323 70 90 104 0 0
-0.5797 5.9792 0.2497 -0.044 -0.945 -0.323 69 90 109 0 0
-0.5708 5.9787 0.2498 -0.066 -0.922 -0.382 98 118 139 0 0
-0.1256 6.4328 0.3013 -0.629 -0.758 0.172 214 217 226 0 0
-0.1082 6.4419 0.3024 0.384 -0.922 -0.055 232 236 247 0 0
0.0852 6.5824 0.3191 -0.603 -0.780 0.171 250 248 252 0 0
0.1094 6.5852 0.3197 0.453 -0.841 -0.295 233 231 234 0 0
0.1248 6.5908 0.3205 0.470 -0.859 -0.203 231 229 231 0 0
0.1405 6.5969 0.3213 0.468 -0.854 -0.226 240 236 237 0 0
0.1583 6.6054 0.3224 0.286 -0.925 -0.250 235 229 231 0 0
0.3314 6.4258 0.3070 -0.858 -0.254 0.445 196 188 201 0 0
0.3339 6.4158 0.3060 -0.858 -0.254 0.445 199 188 202 0 0
0.5464 6.5059 0.3180 -0.728 -0.664 -0.169 151 144 156 0 0
0.5547 6.4898 0.3165 -0.762 -0.603 -0.236 79 70 76 0 0
0.5251 6.4439 0.3115 -0.955 -0.129 -0.266 74 65 69 0 0
0.5273 6.4339 0.3105 -0.957 -0.180 -0.228 72 63 66 0 0
-4.2100 4.9241 0.0889 -0.605 -0.479 0.636 138 84 53 0 0
-4.1317 5.0800 0.1053 0.064 -0.341 0.938 147 96 66 0 0
-4.1249 5.1418 0.1114 0.821 -0.345 0.455 149 100 70 0 0
-3.9977 6.3931 0.2358 -0.847 -0.177 0.501 165 127 108 0 0
-3.7450 5.8439 0.1854 -0.990 -0.064 -0.122 80 73 75 0 0
-3.7232 5.7806 0.1795 -0.722 -0.688 -0.078 152 142 141 0 0
-3.7167 5.7713 0.1786 -0.676 -0.710 -0.196 152 142 139 0 0
-3.6861 5.7678 0.1787 0.414 -0.892 0.181 146 141 137 0 0
-3.6622 5.7808 0.1803 0.765 -0.642 -0.046 149 144 140 0 0
-3.6569 5.8032 0.1826 -0.181 -0.983 -0.015 149 145 141 0 0
-3.6446 5.8055 0.1830 -0.193 -0.958 -0.211 133 131 129 0 0
-3.6383 5.8035 0.1829 -0.258 -0.938 -0.233 117 113 112 0 0
-3.6321 5.8023 0.1828 -0.265 -0.935 -0.237 115 111 111 0 0
-3.6259 5.8006 0.1827 -0.265 -0.935 -0.237 134 128 130 0 0
-3.6195 5.7913 0.1819 -0.424 -0.860 -0.284 145 139 141 0 0
-3.6131 5.7857 0.1814 -0.213 -0.975 -0.056 151 145 147 0 0
-3.6007 5.7801 0.1811 -0.872 -0.476 -0.117 151 147 148 0 0
-3.5942 5.7669 0.1799 -0.840 -0.525 -0.136 139 135 136 0 0
-3.5879 5.7570 0.1790 -0.840 -0.525 -0.136 105 101 102 0 0
-3.5753 5.7369 0.1772 -0.871 -0.484 -0.086 42 38 39 0 0
-3.4960 5.6158 0.1664 0.842 -0.494 -0.217 41 32 33 0 0
-3.4899 5.6249 0.1674 -0.199 -0.970 -0.142 44 36 32 0 0
-3.4839 5.6228 0.1672 -0.286 -0.954 -0.086 65 52 37 0 0
-3.4779 5.6207 0.1671 -0.740 -0.670 -0.054 114 93 57 0 0
-3.4720 5.6119 0.1663 -0.834 -0.550 -0.047 146 117 65 0 0
-3.4661 5.6031 0.1655 -0.834 -0.550 -0.047 153 118 54 0 0
-3.4600 5.6101 0.1663 -0.300 -0.940 -0.161 153 108 40 0 0
-3.4541 5.6037 0.1658 -0.434 -0.837 -0.334 155 99 32 0 0
-3.4370 5.5631 0.1620 -0.784 -0.616 0.078 154 98 35 0 0
-3.4318 5.5323 0.1591 -0.526 -0.831 -0.183 156 95 34 0 0
-3.4260 5.5254 0.1585 0.190 -0.966 -0.178 157 89 37 0 0
-3.4201 5.5265 0.1587 0.190 -0.966 -0.178 146 68 27 0 0
-3.4086 5.5160 0.1578 -0.778 -0.627 0.020 135 25 19 0 0
-3.3972 5.5034 0.1567 -0.625 -0.777 0.073 132 19 28 0 0
-3.3914 5.4987 0.1563 -0.625 -0.777 0.073 129 29 40 0 0
-3.3857 5.4928 0.1558 -0.749 -0.659 -0.074 156 81 87 0 0
-3.3801 5.4860 0.1552 -0.775 -0.622 -0.114 165 116 118 0 0
-3.3745 5.4791 0.1546 -0.775 -0.622 -0.114 160 138 138 0 0
-3.3687 5.4773 0.1545 -0.668 -0.731 -0.142 155 145 144 0 0
-3.3631 5.4708 0.1540 0.052 -0.999 0.013 156 146 145 0 0
-3.3574 5.4667 0.1537 0.532 -0.847 0.016 156 146 145 0 0
-3.2725 5.3312 0.1415 -0.874 -0.192 -0.447 150 142 140 0 0
-3.2603 5.3404 0.1426 -0.884 -0.447 0.141 152 142 141 0 0
-3.2553 5.3313 0.1418 -0.850 -0.491 0.191 151 140 138 0 0
-3.2509 5.3143 0.1402 -0.161 -0.836 0.524 150 139 137 0 0
-3.2450 5.3164 0.1405 0.241 -0.826 0.509 150 139 137 0 0
-3.2510 5.1749 0.1265 -0.491 -0.518 -0.700 147 136 134 0 0
-3.1704 5.2036 0.1304 -0.878 -0.477 0.049 142 134 132 0 0
-3.1649 5.2024 0.1304 -0.904 -0.426 0.039 142 133 134 0 0
-3.1602 5.1938 0.1296 -0.885 -0.466 -0.022 139 130 131 0 0
-3.1413 5.1161 0.1222 -0.082 -0.190 -0.978 113 107 107 0 0
-3.1376 5.1011 0.1208 -0.367 -0.177 -0.913 79 73 73 0 0
-2.9365 4.6735 0.0817 0.441 -0.796 -0.414 47 47 59 0 0
-2.9310 4.6758 0.0819 0.263 -0.891 -0.370 48 46 57 0 0
-2.9257 4.6773 0.0822 0.263 -0.891 -0.370 49 46 53 0 0
-2.9206 4.6778 0.0823 -0.810 -0.515 -0.280 90 85 89 0 0
-2.9167 4.6728 0.0819 -0.821 -0.520 -0.234 137 133 132 0 0
-2.9005 4.6557 0.0804 -0.057 -0.961 -0.270 214 209 205 0 0
-2.9366 4.4761 0.0623 -0.994 0.103 0.025 213 208 204 0 0
-2.8141 4.6998 0.0859 0.424 -0.784 -0.453 144 142 145 0 0
-2.7473 4.6437 0.0813 -0.624 -0.533 -0.572 168 162 164 0 0
-2.7459 4.5957 0.0766 -0.875 -0.454 -0.171 171 165 169 0 0
-2.7592 4.5326 0.0702 -0.945 -0.021 -0.326 172 166 170 0 0
-2.7273 4.5904 0.0763 -0.354 -0.923 -0.152 176 169 176 0 0
-2.7217 4.5922 0.0766 -0.290 -0.956 0.051 179 173 177 0 0
-2.6980 4.5707 0.0748 -0.718 -0.557 -0.416 183 171 175 0 0
-2.6945 4.5660 0.0744 -0.678 -0.558 -0.479 168 146 149 0 0
-2.6908 4.5618 0.0740 -0.678 -0.558 -0.479 158 115 125 0 0
-2.6863 4.5599 0.0739 -0.395 -0.674 -0.624 164 111 121 0 0
-2.6487 4.6300 0.0813 -0.129 -0.860 -0.494 171 116 122 0 0
-2.3877 4.6465 0.0865 -0.512 -0.438 0.739 203 194 189 0 0
-2.3759 4.6618 0.0881 0.003 -0.624 0.781 203 194 189 0 0
-2.3802 4.6384 0.0858 -0.267 -0.562 0.783 203 194 189 0 0
-2.3649 4.6489 0.0870 0.070 -0.409 0.910 202 194 192 0 0
-2.3382 4.6856 0.0910 0.290 -0.352 0.890 204 199 196 0 0
-2.3311 4.6892 0.0914 0.473 -0.402 0.784 204 198 198 0 0
-2.3155 4.7124 0.0939 0.473 -0.402 0.784 203 199 200 0 0
-2.3081 4.7037 0.0931 -0.998 0.020 -0.063 210 207 214 0 0
-2.2787 4.7319 0.0963 0.338 -0.907 -0.251 208 206 220 0 0
-2.2720 4.7344 0.0966 0.338 -0.907 -0.251 203 202 218 0 0
-2.2546 4.7477 0.0982 0.772 -0.631 0.076 199 198 214 0 0
-1.6346 5.3922 0.1697 -0.935 -0.075 -0.347 207 206 222 0 0
-1.5902 5.4191 0.1730 0.800 -0.479 -0.362 229 226 236 0 0
-1.4536 5.5679 0.1894 -0.644 -0.592 -0.484 191 186 190 0 0
-1.4478 5.5642 0.1891 -0.528 -0.779 -0.339 195 190 194 0 0
-1.4408 5.5629 0.1891 -0.178 -0.979 -0.094 197 192 196 0 0
-1.4337 5.5616 0.1891 -0.178 -0.979 -0.094 197 194 196 0 0
-1.4291 5.5559 0.1886 -0.491 -0.818 -0.299 198 196 197 0 0
-1.4234 5.5523 0.1883 -0.581 -0.730 -0.360 198 196 199 0 0
-1.4248 5.5363 0.1867 -0.540 -0.695 0.475 196 194 197 0 0
-1.3451 5.4738 0.1817 0.665 -0.688 -0.289 201 197 198 0 0
-1.3271 5.4904 0.1835 0.665 -0.688 -0.289 207 203 204 0 0
-1.3091 5.5069 0.1854 0.524 -0.766 -0.373 233 231 232 0 0
-1.3004 5.5084 0.1857 0.299 -0.877 -0.376 252 250 251 0 0
-1.2963 5.5022 0.1851 -0.350 -0.867 -0.355 255 253 254 0 0
-1.2640 5.5286 0.1881 0.547 -0.815 -0.188 252 250 255 0 0
-1.1942 5.6013 0.1962 0.763 -0.621 -0.178 239 249 248 0 0
-0.8604 5.8517 0.2253 -0.148 -0.942 -0.300 254 252 253 0 0
-0.7692 5.8805 0.2293 0.513 -0.841 -0.175 199 197 198 0 0
-0.7383 5.8989 0.2316 0.513 -0.841 -0.175 250 248 249 0 0
-0.7228 5.9081 0.2327 0.468 -0.865 -0.179 254 252 254 0 0
-0.7154 5.9056 0.2325 -0.804 -0.586 -0.101 234 232 234 0 0
-0.7171 5.8903 0.2310 -0.673 -0.734 -0.090 173 170 177 0 0
-0.7114 5.8855 0.2306 0.075 -0.967 -0.245 111 111 123 0 0
-0.7019 5.8862 0.2308 0.075 -0.967 -0.245 84 90 109 0 0
-0.5777 5.9822 0.2419 -0.169 -0.926 -0.338 73 93 112 0 0
-0.5694 5.9807 0.2419 0.442 -0.855 -0.271 110 129 148 0 0
-0.1291 6.4284 0.2917 -0.776 -0.612 0.151 218 221 231 0 0
0.0787 6.5883 0.3102 -0.817 -0.561 0.136 246 245 250 0 0
0.0858 6.5833 0.3098 -0.349 -0.905 0.242 252 250 254 0 0
0.1082 6.5839 0.3102 0.495 -0.848 -0.188 246 244 247 0 0
0.1280 6.5951 0.3115 0.495 -0.848 -0.188 244 241 244 0 0
0.1436 6.6009 0.3123 0.468 -0.854 -0.226 245 240 244 0 0
0.1607 6.6086 0.3133 0.286 -0.925 -0.250 233 227 229 0 0
-0.9196 4.7644 0.1179 0.605 -0.560 -0.566 63 62 64 0 0
-4.2143 4.9240 0.0841 -0.707 -0.455 -0.541 138 83 53 0 0
-4.2073 4.9120 0.0831 -0.884 -0.414 -0.219 139 84 53 0 0
-4.2031 4.9123 0.0832 -0.712 -0.663 0.231 140 85 53 0 0
-4.1287 5.0639 0.0987 0.152 -0.359 0.921 145 94 65 0 0
-4.1236 5.1097 0.1032 0.848 -0.493 0.193 148 99 69 0 0
-3.9252 5.9408 0.1859 -0.991 -0.130 -0.001 100 89 78 0 0
-3.7234 5.7819 0.1732 -0.796 -0.588 -0.143 155 145 143 0 0
-3.7169 5.7747 0.1726 -0.722 -0.688 -0.078 154 145 142 0 0
-3.7105 5.7672 0.1720 -0.676 -0.710 -0.196 152 143 138 0 0
-3.7041 5.7613 0.1715 -0.676 -0.710 -0.196 152 143 138 0 0
-3.6920 5.7607 0.1716 -0.167 -0.963 0.214 149 142 138 0 0
-3.6861 5.7647 0.1720 0.343 -0.906 -0.248 147 142 138 0 0
-3.6623 5.7810 0.1739 0.733 -0.675 0.085 150 145 141 0 0
-3.6570 5.8043 0.1762 -0.062 -0.998 -0.020 151 147 143 0 0
-3.6133 5.7865 0.1751 -0.263 -0.962 -0.071 150 144 146 0 0
-3.6071 5.7874 0.1753 0.041 -0.987 -0.155 150 145 147 0 0
-3.6008 5.7820 0.1748 -0.861 -0.502 -0.075 150 146 147 0 0
-3.5944 5.7685 0.1736 -0.826 -0.559 -0.070 139 135 136 0 0
-3.5880 5.7587 0.1727 -0.791 -0.598 -0.130 103 99 100 0 0
-3.5817 5.7484 0.1718 -0.847 -0.520 -0.113 60 56 57 0 0
-3.5754 5.7381 0.1709 -0.861 -0.502 -0.085 43 37 39 0 0
-3.5691 5.7271 0.1700 -0.871 -0.484 -0.086 44 38 40 0 0
-3.4961 5.6188 0.1605 0.814 -0.494 -0.306 41 32 33 0 0
-3.4840 5.6229 0.1610 -0.261 -0.928 -0.267 68 54 39 0 0
-3.4780 5.6211 0.1609 -0.602 -0.773 -0.199 118 94 57 0 0
-3.4720 5.6177 0.1607 -0.520 -0.828 -0.210 150 119 65 0 0
-3.4660 5.6182 0.1608 -0.084 -0.942 -0.326 154 117 53 0 0
-3.4600 5.6140 0.1605 -0.121 -0.924 -0.362 154 107 39 0 0
-3.4541 5.6100 0.1602 -0.339 -0.833 -0.438 157 100 33 0 0
-3.4486 5.5838 0.1577 -0.542 -0.772 -0.333 159 98 33 0 0
-3.4429 5.5700 0.1565 -0.686 -0.644 -0.340 155 100 33 0 0
-3.4371 5.5632 0.1559 -0.791 -0.558 -0.249 154 97 33 0 0
-3.4315 5.5453 0.1542 -0.760 -0.622 -0.185 157 94 34 0 0
-3.4261 5.5267 0.1525 0.299 -0.905 -0.302 157 89 35 0 0
-3.4201 5.5286 0.1528 0.108 -0.953 -0.283 145 69 28 0 0
-3.4143 5.5242 0.1524 -0.761 -0.616 -0.205 131 42 16 0 0
-3.4086 5.5169 0.1518 -0.668 -0.719 -0.193 133 25 19 0 0
-3.3858 5.4935 0.1499 -0.716 -0.690 -0.108 149 59 68 0 0
-3.3801 5.4877 0.1494 -0.716 -0.690 -0.108 166 104 108 0 0
-3.3745 5.4819 0.1489 -0.716 -0.690 -0.108 162 134 134 0 0
-3.3687 5.4784 0.1486 -0.668 -0.731 -0.142 155 144 142 0 0
-3.3631 5.4730 0.1482 -0.598 -0.800 -0.052 156 146 145 0 0
-3.3575 5.4651 0.1475 0.271 -0.959 0.082 156 146 145 0 0
-3.2712 5.3504 0.1376 -0.882 -0.232 -0.409 151 143 141 0 0
-3.2667 5.3327 0.1359 -0.925 -0.281 -0.254 152 142 141 0 0
-3.2605 5.3386 0.1366 -0.895 -0.430 0.118 153 143 142 0 0
-3.2555 5.3293 0.1358 -0.857 -0.477 0.194 152 140 140 0 0
-3.2508 5.3165 0.1346 0.185 -0.912 0.367 151 139 139 0 0
-3.2449 5.3184 0.1348 0.260 -0.881 0.395 151 139 139 0 0
-3.1943 5.1902 0.1232 0.204 -0.229 0.952 127 117 118 0 0
-3.1416 5.1141 0.1165 -0.437 -0.406 -0.802 72 66 68 0 0
-3.1365 5.1114 0.1163 -0.621 -0.323 -0.714 47 41 43 0 0
-2.9306 4.6778 0.0773 0.263 -0.891 -0.370 47 45 56 0 0
-2.9253 4.6794 0.0775 0.320 -0.877 -0.359 45 42 49 0 0
-2.9202 4.6798 0.0776 -0.810 -0.515 -0.280 95 90 94 0 0
-2.9164 4.6744 0.0771 -0.840 -0.503 -0.204 142 136 136 0 0
-2.9004 4.6565 0.0756 0.176 -0.966 -0.191 216 209 203 0 0
-2.9386 4.4679 0.0570 -0.986 0.122 0.113 214 206 203 0 0
-2.7702 4.6348 0.0752 0.320 -0.630 -0.707 167 161 163 0 0
-2.7576 4.6619 0.0780 -0.325 -0.433 -0.841 168 162 164 0 0
-2.7264 4.5935 0.0718 -0.375 -0.927 0.023 176 169 176 0 0
-2.7218 4.5920 0.0717 -0.290 -0.956 0.051 180 174 178 0 0
-2.7586 4.4532 0.0579 -0.769 -0.007 -0.640 185 179 183 0 0
-2.6971 4.5739 0.0703 -0.661 -0.530 -0.531 181 169 173 0 0
-2.6935 4.5694 0.0699 -0.692 -0.522 -0.499 166 141 145 0 0
-2.6896 4.5657 0.0696 -0.395 -0.674 -0.624 156 113 123 0 0
-2.6851 4.5639 0.0695 -0.313 -0.680 -0.663 162 109 119 0 0
-2.6479 4.6325 0.0766 0.144 -0.891 -0.430 170 115 121 0 0
-2.3892 4.9774 0.1132 0.851 -0.471 -0.231 184 175 166 0 0
-2.3876 4.9657 0.1121 0.760 -0.633 -0.145 181 174 168 0 0
-2.3603 4.6468 0.0818 0.787 -0.610 -0.092 204 196 194 0 0
-2.3359 4.6783 0.0851 0.782 -0.614 0.109 202 196 196 0 0
-2.3282 4.6832 0.0857 0.793 -0.550 0.262 202 198 199 0 0
-2.3427 4.6368 0.0810 -0.997 0.074 -0.018 207 202 206 0 0
-2.3419 4.6262 0.0800 -0.971 0.074 0.227 211 208 215 0 0
-2.2781 4.7336 0.0912 0.338 -0.907 -0.251 208 206 220 0 0
-2.2705 4.7378 0.0917 -0.602 -0.774 -0.195 203 202 218 0 0
-2.2670 4.7328 0.0913 -0.893 -0.386 -0.231 200 199 217 0 0
-1.6396 5.3831 0.1621 -0.898 -0.177 -0.402 209 208 224 0 0
-1.5759 5.4453 0.1690 0.809 -0.493 -0.321 220 218 227 0 0
-1.4498 5.6309 0.1885 0.376 -0.698 0.609 180 173 180 0 0
-1.4511 5.5725 0.1829 -0.601 -0.778 -0.181 175 170 174 0 0
-1.4468 5.5662 0.1823 -0.547 -0.768 -0.334 181 176 180 0 0
-1.4405 5.5635 0.1821 -0.178 -0.979 -0.094 185 180 184 0 0
-1.4334 5.5622 0.1821 -0.178 -0.979 -0.094 188 185 188 0 0
-1.4263 5.5609 0.1821 -0.178 -0.979 -0.094 193 191 194 0 0
-1.4229 5.5532 0.1814 -0.583 -0.788 -0.196 196 194 197 0 0
-1.4164 5.5510 0.1812 -0.063 -0.981 0.185 196 194 197 0 0
-1.3414 5.4801 0.1754 0.659 -0.673 -0.337 202 198 199 0 0
-1.3238 5.4959 0.1771 0.655 -0.690 -0.307 211 207 208 0 0
-1.3078 5.5093 0.1786 0.108 -0.899 -0.424 240 238 239 0 0
-1.3012 5.5072 0.1785 -0.251 -0.893 -0.373 254 252 253 0 0
-1.2953 5.5040 0.1783 -0.470 -0.845 -0.256 255 254 255 0 0
-1.2590 5.5367 0.1819 0.322 -0.940 0.112 248 249 252 0 0
-1.1935 5.6026 0.1891 0.755 -0.652 -0.065 235 245 245 0 0
-1.1243 5.6856 0.1980 0.793 -0.596 -0.125 241 237 240 0 0
-0.8592 5.8537 0.2177 -0.131 -0.956 -0.263 255 253 254 0 0
-0.7365 5.9016 0.2239 0.513 -0.841 -0.175 251 251 252 0 0
-0.7208 5.9111 0.2251 0.272 -0.950 -0.154 252 251 252 0 0
-0.7167 5.8910 0.2232 -0.451 -0.867 -0.212 157 155 165 0 0
-0.7093 5.8886 0.2230 0.232 -0.923 -0.305 102 102 119 0 0
-0.5828 5.9753 0.2330 0.536 -0.805 -0.253 77 95 114 0 0
-0.5690 5.9685 0.2326 -0.812 -0.548 -0.200 197 207 219 0 0
-0.3946 6.1014 0.2477 0.597 -0.766 -0.240 222 224 230 0 0
-0.1292 6.4283 0.2826 -0.619 -0.785 0.024 219 223 232 0 0
0.0464 6.5607 0.2977 0.413 -0.883 0.223 239 238 243 0 0
0.0713 6.5788 0.2998 -0.190 -0.875 0.446 248 247 252 0 0
0.1307 6.5987 0.3025 0.495 -0.848 -0.188 243 241 244 0 0
0.1467 6.6050 0.3033 0.468 -0.854 -0.226 242 237 241 0 0
0.1628 6.6113 0.3041 0.251 -0.937 -0.244 227 221 225 0 0
0.4595 6.5495 0.3020 0.621 -0.772 0.136 196 190 202 0 0
0.5443 6.5166 0.3000 -0.749 -0.641 -0.166 183 171 185 0 0
0.5539 6.5146 0.2999 0.130 -0.954 -0.269 130 115 128 0 0
0.5517 6.4866 0.2972 -0.947 -0.322 0.010 75 66 71 0 0
-4.2147 4.9255 0.0795 -0.779 -0.552 0.298 138 83 52 0 0
-4.2083 4.9159 0.0787 -0.779 -0.552 0.298 139 84 53 0 0
-4.1264 5.0515 0.0926 0.124 -0.408 0.905 146 95 66 0 0
-3.9512 6.1347 0.1973 -0.991 -0.130 -0.024 139 118 103 0 0
-3.9010 5.7573 0.1622 -0.991 -0.130 -0.026 63 59 53 0 0
-3.7235 5.7836 0.1670 -0.796 -0.588 -0.143 157 147 146 0 0
-3.7171 5.7756 0.1663 -0.722 -0.688 -0.078 157 147 144 0 0
-3.7107 5.7691 0.1658 -0.676 -0.710 -0.196 154 145 140 0 0
-3.6920 5.7592 0.1651 -0.167 -0.963 0.214 150 143 140 0 0
-3.6862 5.7664 0.1658 0.188 -0.836 -0.516 149 144 140 0 0
-3.6682 5.9415 0.1826 -0.912 -0.041 -0.408 152 146 142 0 0
-3.6515 5.8217 0.1715 -0.875 -0.466 -0.134 151 147 144 0 0
-3.6133 5.7868 0.1687 -0.279 -0.959 -0.043 149 143 145 0 0
-3.6072 5.7892 0.1690 0.048 -0.995 -0.082 150 145 146 0 0
-3.5945 5.7724 0.1676 -0.860 -0.510 -0.033 139 135 136 0 0
-3.5881 5.7602 0.1665 -0.826 -0.559 -0.070 103 99 100 0 0
-3.5818 5.7510 0.1657 -0.826 -0.559 -0.070 60 55 56 0 0
-3.5755 5.7393 0.1647 -0.861 -0.502 -0.085 45 39 41 0 0
-3.5692 5.7280 0.1637 -0.912 -0.407 -0.045 44 38 40 0 0
-3.5630 5.7170 0.1627 -0.855 -0.519 0.018 43 37 39 0 0
-3.4962 5.6180 0.1542 0.839 -0.485 -0.247 41 32 33 0 0
-3.4841 5.6247 0.1550 -0.261 -0.928 -0.267 69 56 40 0 0
-3.4781 5.6230 0.1549 -0.520 -0.828 -0.210 119 95 58 0 0
-3.4721 5.6193 0.1546 -0.520 -0.828 -0.210 152 121 67 0 0
-3.4661 5.6202 0.1548 0.060 -0.942 -0.331 154 117 53 0 0
-3.4601 5.6164 0.1545 -0.121 -0.924 -0.362 154 107 39 0 0
-3.4486 5.5880 0.1520 -0.575 -0.648 -0.500 160 97 33 0 0
-3.4425 5.5905 0.1523 -0.032 -0.841 -0.541 156 99 32 0 0
-3.4371 5.5663 0.1501 -0.752 -0.569 -0.334 153 97 30 0 0
-3.4314 5.5538 0.1489 -0.805 -0.491 -0.332 156 94 32 0 0
-3.4260 5.5311 0.1469 0.012 -0.920 -0.392 156 88 34 0 0
-3.4201 5.5312 0.1469 0.012 -0.920 -0.392 143 69 27 0 0
-3.4142 5.5290 0.1468 -0.654 -0.660 -0.371 131 42 16 0 0
-3.4086 5.5197 0.1460 -0.746 -0.610 -0.269 133 25 18 0 0
-3.3915 5.4995 0.1443 -0.567 -0.813 -0.134 135 20 31 0 0
-3.3860 5.4911 0.1436 0.274 -0.947 0.168 141 40 50 0 0
-3.3801 5.4906 0.1436 -0.586 -0.792 -0.171 165 90 96 0 0
-3.3744 5.4858 0.1432 -0.648 -0.740 -0.182 164 126 129 0 0
-3.3688 5.4785 0.1426 -0.748 -0.623 -0.231 159 143 143 0 0
-3.3632 5.4720 0.1421 -0.758 -0.605 -0.245 157 146 144 0 0
-3.3577 5.4639 0.1414 0.186 -0.975 0.121 156 146 145 0 0
-3.3517 5.4647 0.1415 0.168 -0.949 0.267 158 146 146 0 0
-3.3456 5.4699 0.1421 -0.082 -0.736 0.672 157 145 145 0 0
-3.2665 5.3366 0.1305 -0.907 -0.405 0.117 153 143 142 0 0
-3.2607 5.3374 0.1306 -0.895 -0.430 0.118 153 143 142 0 0
-3.2557 5.3272 0.1297 -0.884 -0.447 0.141 153 141 141 0 0
-3.2490 5.3401 0.1310 -0.142 -0.928 0.346 152 140 140 0 0
-3.2432 5.3399 0.1311 -0.067 -0.923 0.378 152 140 140 0 0
-3.2175 5.3684 0.1341 -0.994 0.017 0.112 145 135 136 0 0
-3.2113 5.1304 0.1117 0.195 -0.256 0.947 73 61 63 0 0
-3.1935 5.1435 0.1131 0.022 -0.165 0.986 107 98 99 0 0
-3.1877 5.1463 0.1135 0.026 -0.159 0.987 114 105 106 0 0
-3.1595 5.1025 0.1097 -0.298 -0.124 0.946 77 71 71 0 0
-3.1557 5.0886 0.1084 -0.294 -0.161 0.942 65 59 61 0 0
-3.1361 5.1151 0.1112 -0.726 -0.608 -0.321 34 28 30 0 0
-2.9302 4.6799 0.0726 0.263 -0.891 -0.370 48 46 57 0 0
-2.9244 4.6837 0.0730 -0.140 -0.918 -0.371 45 42 49 0 0
-2.9198 4.6818 0.0729 -0.818 -0.521 -0.246 101 96 100 0 0
-2.9161 4.6759 0.0724 -0.840 -0.503 -0.204 144 138 138 0 0
-2.9002 4.6577 0.0709 -0.039 -0.987 -0.159 216 209 203 0 0
-2.9398 4.4630 0.0519 -0.986 0.122 0.113 213 205 202 0 0
-2.8875 4.4859 0.0548 -0.966 0.135 0.221 124 119 123 0 0
-2.8173 4.7078 0.0767 0.000 -0.850 -0.526 142 140 143 0 0
-2.7530 4.6600 0.0730 -0.290 -0.557 -0.778 169 163 165 0 0
-2.7314 4.5941 0.0670 -0.518 -0.838 -0.170 174 167 174 0 0
-2.7266 4.5932 0.0670 -0.376 -0.895 -0.238 176 169 176 0 0
-2.7221 4.5913 0.0668 -0.101 -0.988 -0.120 181 175 179 0 0
-2.6965 4.5760 0.0657 -0.443 -0.662 -0.604 181 166 171 0 0
-2.6924 4.5729 0.0655 -0.457 -0.643 -0.615 164 137 142 0 0
-2.6885 4.5692 0.0652 -0.395 -0.674 -0.624 157 111 121 0 0
-2.6842 4.5669 0.0650 -0.395 -0.674 -0.624 164 108 119 0 0
-2.6131 4.6279 0.0717 0.905 -0.339 -0.257 164 136 132 0 0
-2.5525 4.7599 0.0849 0.811 -0.378 -0.446 153 150 135 0 0
-2.3744 5.0013 0.1101 0.813 -0.581 0.032 182 173 168 0 0
-2.3339 4.6830 0.0804 0.780 -0.611 0.135 200 194 194 0 0
-2.3430 4.6364 0.0759 -0.991 0.065 0.114 207 202 208 0 0
-2.2774 4.7352 0.0861 0.338 -0.907 -0.251 207 205 219 0 0
-2.2689 4.7415 0.0868 -0.424 -0.743 -0.518 203 202 218 0 0
-2.2667 4.7337 0.0861 -0.893 -0.305 -0.332 200 199 217 0 0
-1.6117 5.3940 0.1569 0.800 -0.468 -0.375 233 232 241 0 0
-1.4521 5.6269 0.1810 -0.028 -1.000 -0.005 181 175 181 0 0
-1.4451 5.6253 0.1809 -0.118 -0.992 0.035 183 178 182 0 0
-1.4505 5.5737 0.1759 -0.601 -0.778 -0.181 163 158 162 0 0
-1.4455 5.5687 0.1755 -0.522 -0.765 -0.377 164 159 163 0 0
-1.4403 5.5641 0.1752 -0.178 -0.979 -0.094 162 157 161 0 0
-1.4332 5.5628 0.1751 -0.178 -0.979 -0.094 175 172 176 0 0
-1.4278 5.5585 0.1748 -0.583 -0.788 -0.196 187 185 188 0 0
-1.4223 5.5545 0.1745 -0.583 -0.788 -0.196 193 191 194 0 0
-1.4164 5.5511 0.1742 -0.036 -0.988 0.151 195 193 196 0 0
-1.3550 5.4707 0.1674 0.655 -0.690 -0.307 200 196 197 0 0
-1.3369 5.4874 0.1692 0.652 -0.682 -0.332 202 198 199 0 0
-1.3201 5.5022 0.1708 0.662 -0.688 -0.298 215 211 212 0 0
-1.3064 5.5116 0.1719 0.024 -0.926 -0.377 245 242 243 0 0
-1.3016 5.5066 0.1715 -0.763 -0.615 -0.197 254 252 253 0 0
-1.2951 5.5043 0.1713 -0.338 -0.936 -0.097 255 253 254 0 0
-1.2444 5.5475 0.1761 0.747 -0.634 -0.201 238 245 248 0 0
-1.2161 5.5798 0.1795 0.747 -0.634 -0.201 233 243 245 0 0
-1.1934 5.6029 0.1820 0.760 -0.627 -0.171 236 247 248 0 0
-0.8576 5.8562 0.2102 -0.298 -0.934 -0.197 255 253 254 0 0
-0.8380 5.8588 0.2107 -0.146 -0.860 -0.490 255 254 255 0 0
