ply
format ascii 1.0
element vertex 685
property float x
property float y
property float z
property uchar diffuse_red
property uchar diffuse_green
property uchar diffuse_blue
end_header
-2.7514097360957828 4.633286591954541 -0.012676953346270442 173 167 171
-2.753444744033635 4.608355199052377 -0.014337928832937925 175 169 173
-2.7349592091552934 4.535174702675502 -0.019089053242490266 188 183 187
-2.7071300230956252 4.610805351032423 -0.013940348213429701 191 182 185
-2.724629542196735 4.536607150937139 -0.018941721515432063 186 176 177
-2.741460846142329 4.465490636392227 -0.02373566976123009 174 158 161
-2.631541554207768 4.6543524508568295 -0.010673095931343895 169 116 124
-2.6242362371159196 4.644738088673328 -0.011272510132229836 170 119 126
-2.609859824683487 4.437256102195076 -0.024936221618815597 168 184 157
-2.502844145318482 4.688146944093411 -0.007781644625532745 204 208 173
-2.3205780241384426 4.783473794857285 -0.0005440907540019069 205 197 194
-2.321207432800388 4.754868548676005 -0.002441158213038981 205 198 192
-2.31902146389913 4.7466301664810535 -0.0029754884700794234 203 198 194
-2.320679715160193 4.7294573417442365 -0.004120877448388097 210 204 206
-2.253139812712947 4.819206441514599 0.0021643714710459657 203 202 210
-2.283826249572963 4.723108025880802 -0.004353964061486251 201 200 206
-1.7090519368278567 5.337710470655657 0.03925795191764013 222 220 235
-1.7126631386280227 5.317368530109678 0.037892820583861536 235 233 246
-1.710071540326632 5.308785041460145 0.03733770318459743 232 230 241
-1.7067923470134176 5.301537993023336 0.036874561784261926 219 218 227
-1.7297089459155015 5.24568344579323 0.03306013894339285 203 200 207
-1.7531728913432298 5.1892405977937806 0.02920398492604305 198 195 201
-1.6412731938382705 5.3557685283989205 0.04079796230304848 199 193 197
-1.4635056879876815 5.608929069630233 0.058462357763324396 199 194 198
-1.4639646221227345 5.594020590614921 0.05747297915078921 197 192 196
-1.458592114251493 5.589590878951438 0.05720700315964584 198 193 197
-1.4537397126977365 5.584258708641358 0.05687863495623963 197 192 196
-1.4546595538228875 5.568756864365273 0.055847629132755185 198 193 197
-1.4533654014974136 5.557254321379425 0.055092656369250946 197 192 196
-1.452392070708879 5.545262217514643 0.05430364086622079 197 192 196
-1.4482622682167279 5.538859473307624 0.053900721003445694 198 194 195
-1.3633187484928946 5.510671527623494 0.05246614839279254 201 192 195
-1.349680162806803 5.520306421031694 0.05317335514622688 201 194 200
-1.3361856194016704 5.529620811367547 0.05385861033967113 204 197 204
-1.322607508283965 5.5389928732310985 0.05454810847119253 221 215 220
-1.3144687141477722 5.539359050724529 0.05461371192658801 249 244 246
-1.3058869027353677 5.540433977668023 0.05472849092713386 255 253 254
-1.2976767059828427 5.540882802068905 0.05479992904589362 255 253 254
-1.281247476405284 5.554658750077465 0.05579548436396054 250 252 255
-1.2660018184305755 5.566409331884878 0.056650931460880294 241 247 253
-1.2453330297630174 5.586805714084881 0.05810635088076528 233 244 253
-1.211609854029193 5.628014120858243 0.061006013121689996 233 246 254
-1.1784743321375835 5.667978640969395 0.06382033494456844 244 253 255
-1.1441950508432848 5.70947353346608 0.06674179059053326 232 235 236
-0.8979827014536379 6.015468675352865 0.08825203369752427 158 152 152
-0.9151037831393182 5.974664493735008 0.08546350294124858 164 156 157
-0.9048574578732081 5.976579648709679 0.08564236972709073 169 160 161
-0.9312511899273527 5.90809619012764 0.08097415376193191 178 166 168
-0.9183576303535818 5.914241562310953 0.08144654352316297 180 169 169
-0.9139361145977036 5.907368351229458 0.08101395787296703 182 172 171
-0.9133614100376533 5.881155292378627 0.07928138916819595 188 178 177
-0.9055700121557329 5.87952656883522 0.07921315070752073 190 180 181
-0.8962709613237483 5.8801709386669785 0.07930306867752877 197 190 191
-0.8870192169568878 5.880726225692892 0.07938684833475144 218 214 216
-0.8764315352706773 5.883267170751407 0.07960888154833905 241 240 242
-0.8693543065841514 5.880532044941753 0.07946376217682051 251 250 251
-0.8621895640114983 5.877932047163782 0.07932803396363876 254 252 253
-0.8437292266720214 5.892101702406615 0.08035997720899742 255 254 255
-0.82385423420906 5.908256235601442 0.08153052239396154 252 252 254
-0.8201489962719017 5.9004490197459685 0.08103245904636 240 243 248
-0.8071143797719419 5.906389820171097 0.0814920215418833 223 231 238
-0.7918589176823831 5.915530642345864 0.08217473397963235 218 229 235
-0.7767325659607888 5.9244091891135415 0.08283942582059846 223 234 239
-0.7609287648495887 5.9342014972767565 0.08356805778536971 238 245 248
-0.7424792631742688 5.947752875541873 0.08455901167207758 250 252 254
-0.7291307287707245 5.9538285739692585 0.08502910064187823 254 254 255
-0.725135369883999 5.94637542986311 0.08455595368345828 247 246 248
-0.7173835671169153 5.944351891194365 0.08446137446329395 195 190 197
-0.7053155901903152 5.948506144328778 0.08479774264332818 120 116 128
-0.691762961276357 5.954738173322606 0.08527921897099455 79 86 105
-0.676310574930732 5.963618024757415 0.08594565404089963 70 85 110
-0.6341753007455418 5.997033524122682 0.08837211969393038 70 85 108
-0.5824337276766715 6.01705078078711 0.08996034477194716 102 124 143
-0.571578065387028 6.019050074840433 0.09014787870171848 181 195 206
-0.5636601368493018 6.016951551088089 0.09004917916253616 233 238 244
-0.555891906241259 6.014646122157227 0.08993602030358865 237 238 243
-0.5178683382177109 6.054009207978087 0.09273536313055473 228 228 234
-0.42819359181978117 6.164017906534876 0.10047442567964023 220 218 224
-0.4085735170520535 6.137361944369563 0.09880931888495732 223 223 228
-0.10135965501634332 6.510472808850419 0.1250730948659715 236 239 244
-0.08686792580908678 6.515572619883973 0.1254843827274843 248 250 254
-0.0593653958448315 6.53799028242171 0.12710835302701437 251 252 255
-0.030856379062939473 6.561593292409782 0.1288159164718905 246 247 250
-0.005503562031267984 6.580849212305517 0.1302196326596094 237 237 239
0.010213547301888875 6.58723045816477 0.13072198770536975 231 230 232
0.012594123561245752 6.575977437567835 0.1299890560986062 236 234 235
0.0396984355429825 6.597268994426672 0.13153644659115254 238 236 238
0.058237911856762796 6.607194240052678 0.1322877821745344 236 234 237
0.09169616086732679 6.622103755319805 0.13344492612500217 231 228 235
0.12285504721208189 6.648199665971217 0.13533100333680279 235 233 239
0.3870913899381935 6.467285796070364 0.12469603277198552 194 192 205
0.44611591883771806 6.522884366898719 0.1286770023384863 195 191 205
0.4802411030391677 6.549332576407111 0.13060147842319206 199 193 207
0.5290630705506313 6.540128752130649 0.1302402250615513 89 73 84
0.5385939214341458 6.538011732661764 0.13014849756405739 76 66 74
0.5451110479730237 6.532472433589571 0.1298148758171145 71 66 69
-4.046994925598552 6.634083981738005 0.10554713740283356 161 123 100
-4.0373172521150025 6.611348352404655 0.1041247705672874 160 123 99
-3.9555077270054397 6.16070440434704 0.07542206815882567 143 122 109
-3.9113254674287647 5.845535911949719 0.05528774655020069 69 63 62
-3.716914403024394 5.741889655684559 0.04950012410764367 39 38 44
-3.7107788362971106 5.739573438681788 0.049379087456044767 41 40 46
-3.7059629278307904 5.764901899500242 0.05103595779669351 39 38 43
-3.6995681510499607 5.757812539575208 0.05060809223777571 40 39 44
-3.6934660162558086 5.7569124994748 0.050578292289778885 41 40 44
-3.6876751981435487 5.763319480125242 0.05101860118618382 43 42 45
-3.681307088163612 5.756378461219369 0.050600185076837646 45 43 46
-3.6748942775571365 5.747891603355084 0.0500822168738434 46 44 48
-3.668385250648173 5.736316678807738 0.04936540911881894 48 47 50
-3.6621262413357476 5.730713293136976 0.04903281024706221 51 49 52
-3.655673419575144 5.719213867509937 0.048320614234665986 53 51 54
-3.649123300326212 5.703865679008902 0.047360492859876153 64 62 63
-3.6428999670196993 5.697413894931016 0.04697297802771704 82 78 79
-3.636474396017572 5.683766684033484 0.0461220503823175 98 94 95
-3.6301197798821003 5.671259778690979 0.045344382421297035 110 104 106
-3.6239509406086956 5.6643364319570475 0.04492618315240281 120 114 116
-3.618025433409758 5.666303987969632 0.045080622187979036 133 124 125
-3.6140961699662792 5.75238856034261 0.050654222130900664 143 134 135
-3.6080695561377345 5.756873019985796 0.05097155583062421 148 140 139
-3.602011129877626 5.760766579819389 0.051250903810498266 151 143 141
-3.589062734427242 5.724005033040208 0.04893854717644847 157 148 143
-3.582714568192983 5.708498216214355 0.04796725282095876 157 147 142
-3.576319017273281 5.686550831792855 0.046580542049254485 156 145 138
-3.5702805383856067 5.687656456597219 0.046679880777524975 156 142 135
-3.5511862255722724 5.572768493616359 0.03935419472432399 149 136 127
-3.545220925000286 5.560686769561511 0.0386021609707097 147 134 125
-3.539289304060817 5.548562935776391 0.03784725360019978 148 133 126
-3.5335957437704586 5.604452495222141 0.04148042393843037 148 132 125
-3.5276326318770317 5.599691017767151 0.04120078535075378 147 130 123
-3.5216785078720734 5.600364409982453 0.04127183936701566 146 129 122
-3.5157277070023003 5.595281072472754 0.04097137277845494 146 129 121
-3.5097853150122185 5.591033713325861 0.040724816301496373 146 130 122
-3.5038521925885324 5.586657486910669 0.04046990053085399 142 127 120
-3.4929057528499468 5.470797474543243 0.03304371890436918 145 127 122
-3.486603698439159 5.5236675505600354 0.03648485004713742 148 131 122
-3.480832412304211 5.515449065005161 0.03598122754537671 150 132 117
-3.475177353541076 5.500073797745144 0.03501521007610552 149 131 107
-3.4692710783154195 5.504657798660369 0.03533840981167923 146 129 96
-3.46251125893635 5.559844838120725 0.03893118577051637 146 122 85
-3.4565321868423715 5.561676619680078 0.039077111000436295 144 111 72
-3.450611143927818 5.560003559702024 0.038996585574980085 140 97 57
-3.4447601636100016 5.555066129209368 0.03870507229338665 138 85 45
-3.4389554312433983 5.548595794696347 0.038314420117054396 140 80 36
-3.4331520101037265 5.542722038942911 0.03796226151895741 148 81 33
-3.427338901812156 5.537752506355275 0.037668501022228094 154 84 32
-3.402124769962042 5.5809770178646 0.040574821820225766 137 63 24
-3.3972459539695437 5.547533131322276 0.03843916492605812 134 40 19
-3.392083413102651 5.524841369346672 0.03699870145765242 137 29 22
-3.386493761725945 5.51529180074276 0.03640833687413079 139 23 27
-3.3806581227617833 5.512645615304654 0.03626461585556304 143 21 32
-3.3583543924822985 5.480281089448727 0.03427937871667342 144 24 33
-3.352666006085136 5.4756791521285235 0.0340087625547503 144 24 34
-3.3473329849862727 5.4640850343151515 0.03328526541083501 142 22 32
-3.3417486795208995 5.458067356559007 0.03292280334219641 144 26 37
-3.336045379565258 5.454589209015356 0.032724779033103196 149 46 55
-3.330405275462552 5.450066579734127 0.03245905715405025 165 95 99
-3.3249284814772246 5.442805910140164 0.0320158814483729 172 126 124
-3.319424451578409 5.436347256789444 0.031624589353560405 167 142 137
-3.314046271991214 5.428044652686786 0.03111371629654545 163 147 142
-3.308554529501259 5.421972447542859 0.030747306325613396 165 150 147
-3.297330022556531 5.414277963933993 0.03030277539913483 161 151 150
-3.2555385510212567 5.347557896375637 0.026190760697348364 160 150 149
-3.2499502038780133 5.345100462804232 0.026058074411176153 160 150 149
-3.258976127900961 5.162655435234725 0.014242319110127086 159 149 148
-3.2527210622326455 5.171987948894668 0.014873576340593563 158 148 147
-3.2329895136049416 5.2731153412050835 0.02149119404147664 147 137 138
-3.227392055226769 5.272139749863539 0.021454179296729662 139 129 130
-3.2214853747555003 5.27459474866586 0.02163998773808126 117 107 108
-3.2306825934017307 5.111528584211536 0.011074035408239395 71 62 65
-3.1537320855066464 5.023768265583538 0.005767169266456157 41 32 35
-3.1316881535322016 5.028649152104432 0.006184326035854124 133 123 124
-3.1338542989770217 4.969382908875879 0.002349594063150319 150 142 140
-3.1330166190578446 4.934949231410283 0.0001313313265794695 153 144 145
-3.1332303515456847 4.893350063893242 -0.0025542229311609427 143 139 138
-3.1386733475951583 4.813333845661252 -0.007743223407844488 105 103 106
-3.1483148564133545 4.704070370529117 -0.014839128468129596 52 52 54
-2.926090731140461 4.704534387270659 -0.01377917808840923 66 63 70
-2.921777733435261 4.7011609424989445 -0.013976889531529797 126 121 125
-2.91837960955138 4.693616305954534 -0.014448025385188868 154 148 148
-2.9140485783404118 4.690428887081012 -0.014633648234844634 166 158 155
-2.9097296292677384 4.687218278503485 -0.014820823611024282 190 181 176
-2.905185016027498 4.685051468810265 -0.014939592446341627 212 203 196
-2.8993972317032473 4.688430221266369 -0.014694721503396926 214 205 198
-2.8956347918382743 4.682795704896222 -0.015040900927881242 210 201 194
-2.8720263691161105 4.719401494906467 -0.012569155607722189 186 178 176
-2.8856399341890624 4.639323383992389 -0.017800020736104517 177 169 167
-2.8863983211310384 4.61500798884679 -0.019372707273698785 168 159 160
-2.838539535698106 4.7306417897587485 -0.011688562655769294 123 118 122
-2.832845030732837 4.73281251011323 -0.0115220832901138 132 127 131
-2.856535997215182 4.576157226661587 -0.021741493677148952 151 149 152
-2.8444940222501836 4.604484976550942 -0.019857574294097038 154 152 155
-2.837829301543742 4.611217493303672 -0.019392206702475975 155 153 154
-2.8309578190563625 4.618643095583831 -0.018881153142782697 158 156 157
-2.6958321024172998 5.0559612109534 0.009967070633722942 168 162 164
-2.700420140621749 4.973909191072716 0.004650654306641473 169 163 167
-2.6915347752225487 4.985741770734933 0.005455442372685418 170 164 168
-2.758883075138724 4.607166412023681 -0.01928772489118278 173 167 171
-2.7605809277012052 4.5835846021870434 -0.020817424591775997 175 169 173
-2.7634569675121288 4.556195970247127 -0.02259825489874866 176 170 174
-2.773146285015279 4.505602302366179 -0.025908180071979914 178 172 176
-2.767037171073571 4.509886228623754 -0.02560340522112022 181 174 181
-2.7621336858376964 4.509987002077683 -0.025574174319346995 183 176 183
-2.73793399376518 4.525477743945068 -0.02446232848087146 187 182 186
-2.7074073726200116 4.61008982353401 -0.018860476136757884 191 182 185
-2.745447363705353 4.452665355940119 -0.02919603262149887 174 155 157
-2.631725931152228 4.653975763335057 -0.01567755545490586 169 116 124
-2.625900350675341 4.639869863326256 -0.016560865122860684 170 119 126
-2.251326481551843 5.711489160390374 0.05433123445399785 178 127 132
-2.240262289214805 5.722702512264367 0.05510616006048446 180 134 137
-2.4624635591748003 4.975612298706749 0.005863487964035169 152 153 139
-2.451786787358301 4.989301203766118 0.006796375406099977 154 158 141
-2.434058039386066 5.0229522453309245 0.009050186577300865 154 161 143
-2.5140200022519554 4.65793239661404 -0.014876652587168832 203 209 173
-2.368286816505004 4.988856513869168 0.0071546988705730175 191 179 163
-2.317268725434558 4.791523192587882 -0.005343555516867915 204 196 193
-2.3185587556603187 4.774804256829348 -0.006428475767192788 206 199 193
-2.310386960695117 4.780590850491643 -0.006017167176407516 206 199 193
-2.313792989876045 4.7590779378586285 -0.007421269891955784 204 199 195
-2.315862607118992 4.740882723921129 -0.008605073756557969 210 206 207
-2.3287103808956586 4.697730918164655 -0.011449384672013141 216 213 220
-2.3376039870649454 4.66413930879272 -0.013658409692025848 215 212 223
-2.2520347626306485 4.8218834038170035 -0.0030819290638035334 202 201 209
-2.248439852180286 4.816720992119383 -0.0033984181483760188 201 200 206
-1.7219432509833938 5.300070803744675 0.03023441654647192 235 233 244
-1.7145014843862938 5.300634726479512 0.030305301252681754 229 227 238
-1.7490274470128757 5.209942023290515 0.024292504628412065 202 199 206
-1.7658747471113776 5.165877697980835 0.021370767367174588 198 196 201
-1.694707143709075 5.271227586962571 0.02849928530919689 196 191 195
-1.6998796940283487 5.248747402945679 0.027024572834927523 199 193 197
-1.4496779515681781 5.5777013732474074 0.0494129928851035 199 194 198
-1.4474557680952287 5.567797791856824 0.048784174252163394 198 193 197
-1.4418141579505852 5.563949992231864 0.04856200885823097 197 192 196
-1.3605387642377085 5.515433642301315 0.04580776154151211 202 193 196
-1.3470373808047558 5.524824073419931 0.046476342995594326 204 196 202
-1.3335834694739497 5.53405535165051 0.04713443363349149 207 200 207
-1.3209164509381304 5.5419113041149 0.04770012166506785 227 222 226
-1.3128782849399783 5.542101883364377 0.04774967729874542 250 248 250
-1.3050225679956722 5.541979752958632 0.047778206856844495 255 254 255
-1.294921264692262 5.545504274561715 0.04805247797203241 255 253 254
-1.278046766956834 5.559987165535401 0.04906533092385864 249 252 254
-1.2682552638414926 5.56289574637488 0.049298416955131756 240 246 251
-1.23864931913195 5.597712257846058 0.05168249127237672 231 243 251
-1.2100548915591554 5.630645108524631 0.05394031692439124 232 245 253
-1.1728458549319372 5.677122175702619 0.057112134583235906 244 251 254
-1.139619287075223 5.716907268089624 0.05983363318580786 224 223 226
-0.8959739527931421 6.0187492653160275 0.08044201839946252 159 153 153
-0.9153024863757238 5.974496150391963 0.07749659729591638 164 156 157
-0.9045777960217994 5.977154002717056 0.07771782810442318 170 160 161
-0.8968514883432036 5.97514418584902 0.07762393776120395 175 164 165
-0.9323332753759132 5.906566267271475 0.07303386797518054 178 166 168
-0.9172649361198296 5.9160561422584586 0.07371612976363774 180 169 169
-0.913125805459544 5.9087444036896555 0.07326345831966924 182 172 171
-0.8962514497815269 5.9072923533339825 0.0732479639852955 188 178 177
-0.8933419761991728 5.8981808935833175 0.07267344976549846 191 182 182
-0.8896637247438309 5.890277765631664 0.07218047738917305 200 193 195
-0.8858902267285469 5.882557569431953 0.07169975180980927 221 218 220
-0.8770573856142891 5.882461337584447 0.07173448166317792 242 242 244
-0.8682158253093077 5.882365245762773 0.07176926096630193 252 250 252
-0.858737492994551 5.8832046303662295 0.07186736179975503 254 252 253
-0.8424256332363795 5.89416809122555 0.0726504837817342 254 252 254
-0.8231125838584646 5.909484926948843 0.07372845723317717 251 250 253
-0.8142477908194538 5.909280913004969 0.07375637956582856 234 236 244
-0.8031062607197562 5.912410574218053 0.07400999016836868 218 226 235
-0.7906776290560875 5.917391272719986 0.07438902143833734 214 226 233
-0.7746673337657963 5.927554391600758 0.07511909634782864 223 235 240
-0.7564080757198172 5.940909485087135 0.07606558628034504 240 247 251
-0.7395745900938697 5.952095557829998 0.07686549204139981 249 252 254
-0.7280400496511907 5.9555350166555145 0.0771409167419635 253 253 254
-0.7237234943155487 5.948538811028291 0.0767094302838154 243 240 244
-0.715028767696193 5.947862254699627 0.07670606927756805 183 177 186
-0.7044859186896401 5.949822093638029 0.07688141160902158 110 106 120
-0.6895317047939636 5.958049758034692 0.07748168884087409 76 83 105
-0.581538208912791 6.018426983921505 0.08187862523025233 116 139 155
-0.5706665494826398 6.020444168789262 0.08205919235934203 195 208 218
-0.5612858776331677 6.0203685101407745 0.08209778907223574 234 238 243
-0.5516862080420015 6.020582467453153 0.08215609093322798 224 224 229
-0.5262745759298885 6.042558365241024 0.08369206760524783 206 204 210
-0.3693890229302054 6.231203550875053 0.09659327150879583 207 204 210
-0.2773478096027626 6.329239196054748 0.10334652039457609 233 232 237
-0.4049155677119442 6.142447782355954 0.0907008354798453 221 221 226
-0.09844589868328635 6.514522706354022 0.11613282719398663 239 242 247
-0.0805064503023214 6.524225865500381 0.11684216062519963 249 251 255
-0.05379634810860147 6.545559676735917 0.11834271922773013 251 252 255
-0.02273273251199687 6.572538812926456 0.12022777209850075 243 244 247
-0.0005390640337639755 6.587571140405665 0.12130073670121508 233 233 235
0.012138310678677369 6.589912360601642 0.12151058461230752 231 231 232
0.021192243327244314 6.587447709696818 0.1213934954991164 238 236 237
0.04456611644766497 6.603802158304643 0.12255725219083557 241 239 240
-1.0085126282947474 5.026496503047601 0.015886293573272724 172 164 177
0.452040599831141 6.529879429101003 0.11967535569449467 196 193 206
0.5382551537446731 6.537741507882331 0.12058233080659955 73 65 70
-3.956607859154633 6.1705524126464475 0.06912856992279952 143 121 109
-3.912236484858449 5.853849172444996 0.04940610361082561 68 62 61
-3.708750096288626 5.696638303099798 0.0403758910929566 39 40 45
-3.700080799240502 5.7670559226787 0.04483872509893538 39 40 44
-3.6932789285647756 5.7507686595390615 0.043843377717723606 40 40 44
-3.6870168660288405 5.745973538042001 0.04356817768853303 41 40 45
-3.680423406607931 5.73292573917446 0.04277559359279447 43 42 47
-3.674248843980602 5.729499498915245 0.04258607642017951 42 41 46
-3.6553349265261783 5.707105954641644 0.04125760865716936 47 46 51
-3.6490393418024354 5.698804292506471 0.040762124181469565 49 47 52
-3.642844235675293 5.692990641009217 0.04042261785999387 56 54 59
-3.636659949444809 5.687093717363932 0.040077831648297375 66 63 67
-3.6304067718162347 5.678318997996349 0.03955243268950951 78 73 77
-3.624145314414002 5.668396284584316 0.03895490429140314 90 84 88
-3.6179088823314407 5.658415818861518 0.038353640712724346 104 98 100
-3.611650491071537 5.646397890325912 0.03762439204124464 119 113 114
-3.6055381564441946 5.6394398257393625 0.03721260004802736 130 124 124
-3.599441434655665 5.632408656940072 0.036796147258233686 139 134 131
-3.593330081168602 5.623700949877913 0.036274366784951384 145 139 135
-3.5828483807090534 5.711541138948572 0.04183999247076434 156 146 141
-3.5765730183370223 5.6983817827551935 0.041039063530456894 158 146 140
-3.569213798607841 5.596842722693731 0.03468703255465828 159 146 138
-3.5633246040058424 5.599042625007053 0.034849985476744186 160 146 138
-3.5573347425007764 5.591895324516958 0.03442578498110142 157 143 135
-3.551416983004479 5.591645186879014 0.03443484544205887 152 140 132
-3.5454603203200628 5.585855720577612 0.034095860794129386 149 138 130
-3.539375477123218 5.549489666474121 0.03183533643297079 148 135 127
-3.5334841353661086 5.540009962605473 0.03126410598754262 148 132 125
-3.527610154364353 5.524705995271519 0.030326683490135422 149 132 124
-3.5217555288446944 5.6292112216094905 0.036920512175661724 148 131 123
-3.5157022097723365 5.654639437736387 0.03854430877249167 146 129 121
-3.51009345008143 5.525658317492343 0.030459909794260456 148 131 123
-3.5042584907465892 5.52279852563518 0.030304577860995767 146 129 122
-3.4985534131999345 5.501150100139708 0.02896762864317987 147 130 123
-3.4927632212599056 5.497588774328728 0.0287680100539495 147 130 123
-3.4873918630031158 5.452533656783583 0.0259582938313513 148 131 123
-3.4815862461985283 5.457272604266145 0.026280503774944494 150 134 120
-3.4757499103135676 5.46279312465253 0.026651972871057562 152 135 116
-3.4699384897470478 5.465081445676136 0.02682015815833171 151 135 109
-3.462890552595141 5.541782250432192 0.03167116933541975 152 132 102
-3.4570010624276644 5.540292165066917 0.031602166979011644 150 124 94
-3.451098023370899 5.539475660124497 0.031575563342816707 152 118 87
-3.4449417635523423 5.550404364958967 0.03228833650064026 151 107 75
-3.4391296575346453 5.544580431364592 0.03194657977947163 146 92 58
-3.4333311167071954 5.538770243119604 0.03160563029260891 141 80 43
-3.427524684553793 5.533788954307508 0.03131681934806561 144 79 37
-3.392493982158143 5.515729905663443 0.030328321824544 131 25 21
-3.3866609700902894 5.513015060282086 0.03018209322416903 137 20 26
-3.380635030111474 5.515289783041874 0.030350322146534794 140 18 29
-3.374829826963583 5.511881465244639 0.03016038467135438 142 20 33
-3.363633259893131 5.496151553628252 0.02921847857709333 140 23 32
-3.358237952339269 5.484557210440708 0.028512242216021617 139 22 30
-3.352663391515906 5.47741813039797 0.028086819130979296 140 22 30
-3.3471066684317905 5.470292702456437 0.027662179524551092 145 25 35
-3.3415673050725836 5.4631894398363885 0.02723886054872926 142 23 33
-3.3359959299292736 5.457043925974616 0.026875880739423652 144 34 44
-3.330424553049179 5.451179611036724 0.026530577398255723 153 64 72
-3.32488148210709 5.445066345280779 0.026169506197065873 168 101 103
-3.319403396180407 5.438090052842706 0.025753912062596068 167 122 122
-3.3139254713271398 5.43141623472551 0.025357331108281568 171 141 140
-3.3084688423887907 5.424674039776915 0.024956362724075653 169 148 147
-3.2972986231799535 5.415993000536991 0.024457445831634995 166 152 152
-3.261428931696356 5.347107059285266 0.0202774300443822 160 152 150
-3.2557137775143814 5.34630123573042 0.020250710964222318 161 151 150
-3.2498177395961427 5.347741627260121 0.02036594889832158 160 150 149
-3.25806204428278 5.174822070446116 0.009461514960639603 158 148 147
-3.2530072499982214 5.169420875290708 0.009143160299599334 156 146 145
-3.2273461444765346 5.273523972176905 0.01579466291912313 141 131 132
-3.2214112621104243 5.2762681452274265 0.015992020620183792 119 109 110
-3.2154613678688686 5.279019665324291 0.016189903036088055 66 57 58
-3.153263484428506 5.02830945833448 0.0006904882075459809 41 32 35
-3.131369530172548 5.075187499263304 0.003728986130287795 81 71 72
-3.132002775968469 5.026703215122759 0.0006785607862632079 136 127 127
-3.1355301581229833 4.956757430503643 -0.0037330781420469076 151 143 141
-3.132922859189227 4.936204759560644 -0.00501412098881955 154 145 146
-3.1354374738489956 4.87698191191388 -0.00874746318515339 145 141 140
-3.139924557442587 4.804382449930027 -0.013329934430108456 102 100 103
-3.1487639715264253 4.701193138414506 -0.01985354402027791 52 52 54
-2.926116375045157 4.704709140123972 -0.01870004621753112 71 69 74
-2.9216317214746943 4.702129767772812 -0.018843405948014914 130 126 127
-2.918061308326628 4.69536846914567 -0.019253474936274974 154 148 148
-2.9138403905374415 4.691664132610858 -0.01946865566265434 164 156 153
-2.9094894609773734 4.688587704071676 -0.01964382092346522 193 184 179
-2.904572305137054 4.688080688088343 -0.0196550987695189 214 205 198
-2.899097029971916 4.6900447687106785 -0.019508703398137473 214 205 198
-2.895345878706203 4.684346909077709 -0.019851166534221164 209 200 193
-2.871839858433643 4.720478386113198 -0.017481457399094923 185 177 175
-2.883028974936813 4.629563600153976 -0.02324331824132074 169 160 161
-2.838325318423666 4.731785114120376 -0.016630341130751753 123 121 124
-2.832507717416577 4.7344502555643535 -0.01643844262999657 130 128 131
-2.859146385610173 4.565969925203251 -0.02714086019254439 150 148 151
-2.8320342432280436 4.654134073460912 -0.021485219552041322 153 151 154
-2.827395911137618 4.652529823913951 -0.021566638408427406 154 152 153
-2.82382750721379 4.646748939345334 -0.021915085950079544 157 155 156
-2.770863321211114 4.565158207101969 -0.026822144241962696 174 168 172
-2.774061115607 4.536598215765227 -0.028630848207457874 175 169 173
-2.777135255714796 4.508824600969629 -0.030389601833514635 177 170 177
-2.7803754030282533 4.480821532526851 -0.03216347441839461 178 171 178
-2.7682533197438146 4.505911630446936 -0.03053551548377671 180 173 180
-2.7628347703638676 4.507795071609256 -0.030394426769137325 184 177 184
-2.7535442285778284 4.522764541866953 -0.029414520039528828 187 180 187
-2.736323596975876 4.531030099526535 -0.02882281603673186 186 181 185
-2.7074012085350754 4.610311301860344 -0.023717985188398957 189 180 183
-2.749454018535022 4.439772447639266 -0.034614360240695426 168 146 149
-2.2857466218760014 5.630241723377866 0.0421618629689401 178 123 129
-2.272701213947637 5.647921660089382 0.04332787836479535 180 127 133
-2.448099591112944 5.000084041751427 0.0018695304565452084 155 157 143
-2.5517568773732133 4.583759242434327 -0.0247352161452615 177 191 165
-2.351919606035 4.819363138184478 -0.009087961324237663 202 192 183
-2.315555305232369 4.795765827832805 -0.010419014528104542 204 197 191
-2.3115779138523216 4.791533769999572 -0.010668388293272529 204 197 191
-2.306527861477984 4.789863745103892 -0.010752217517236947 201 196 190
-2.3024085809604413 4.786007071391846 -0.010977399989839523 205 200 196
-2.308969735765899 4.757169011960254 -0.01281766981698262 210 206 207
-2.316642985446341 4.725996461967671 -0.014809345786030331 214 211 218
-2.3277949437754324 4.674164885192466 -0.01811423926443591 210 208 219
-2.256152335801585 4.826030272327846 -0.008267771969901243 205 203 214
-2.250494439077751 4.8255562454167285 -0.008273873765149178 203 202 210
-2.2459137361896753 4.822621136863603 -0.008439193180867886 201 200 206
-2.280418548516714 4.731117611329261 -0.014335712099117083 201 200 206
-1.7290999398425353 5.300170305050743 0.023744537113650443 233 231 245
-1.7306493693928406 5.283850436920609 0.022712163774219574 233 231 242
-1.7400835953640519 5.239743240675333 0.019900027096141568 208 205 214
-1.3642863019628555 5.509328313058625 0.03842031886732323 200 191 194
-1.3491474027174246 5.521457619895353 0.03924618364101987 204 196 202
-1.333279599193631 5.534691338685615 0.040144525664295286 209 204 210
-1.3234868805937798 5.537811356893425 0.04038166652783577 235 230 235
-1.3114761220651754 5.544535959323578 0.04085468480744462 252 250 251
-1.3044464295971887 5.543054381866531 0.040790992588466926 255 254 255
-1.2942552002025012 5.546721706249471 0.04106420671235281 254 253 253
-1.2758212446036128 5.563732676938223 0.042210738164608255 252 252 253
-1.2472637516533385 5.596987974651338 0.044420803885108155 235 240 245
-1.2355651458092438 5.602816813923196 0.04483620621042011 223 234 243
-1.2014576450634142 5.644588989688417 0.047604896048652375 224 234 243
-1.1658493085109891 5.688456287675044 0.050511573182127366 240 246 250
-1.132143168670308 5.728967933758618 0.05319934384169322 209 207 208
-0.9161739682813622 5.973280497946505 0.06946159744282711 166 158 158
-0.9041968825004201 5.977885471528646 0.06980123259200133 171 161 162
-0.8963531256707572 5.976054628324886 0.06971899457148245 175 163 164
-0.8878398827947959 5.975253708165945 0.06970430249760903 178 166 166
-0.9177649813922162 5.915425329295211 0.06581809715841339 181 170 171
-0.9127150288150542 5.909509195611093 0.06546735264075952 183 173 174
-0.9051132935295928 5.907510924785987 0.06537357632448018 185 175 176
-0.8966006798204897 5.906896815988917 0.06537062477476034 188 178 179
-0.8923814718930186 5.899770154484072 0.06494030593098257 191 182 184
-0.8889943146720446 5.891421957392426 0.06442971533135593 201 195 197
-0.8851618589665119 5.883786325379709 0.06396578229419218 227 225 227
-0.875985945435164 5.884200335563062 0.06403023737698496 246 246 248
-0.8665053118665296 5.885053386063845 0.06412356720577805 253 252 253
-0.8552761456892493 5.888491380682968 0.06438671243843144 255 253 254
-0.8395535726678436 5.898562808431461 0.06508566126738836 253 251 253
-0.8222799663822085 5.910848280166545 0.0659302831728814 248 248 251
-0.813424194850499 5.910626406608694 0.06595342513523231 231 236 242
-0.805473844917728 5.909061871135153 0.06588837392576492 220 229 238
-0.787913231017064 5.921570894678199 0.06674825056031397 217 229 237
-0.7711835987708552 5.932770700625331 0.06752234813280003 224 236 241
-0.7541945792921874 5.9442606874205755 0.06831577312816703 242 249 251
-0.7386246021010253 5.953603585880078 0.06896828674586222 251 253 254
-0.7261750831351457 5.958360859836243 0.069319474271174 253 253 255
-0.7220665784281444 5.951055397324895 0.06887745216754142 235 231 235
-0.7141207531544043 5.949295057963986 0.06880007356936625 166 161 170
-0.7022048674096737 5.953215724525678 0.06909643614364794 102 100 115
-0.6131459547696431 6.000591716358419 0.07244753170922583 67 87 110
-0.5953708906598354 6.012367003304681 0.07326218303407854 74 98 118
-0.580642171336612 6.01980399768706 0.0737913662101583 128 150 164
-0.5705453916976873 6.020739362960421 0.07389245093537472 205 219 226
-0.5611638556358869 6.020663939392223 0.07392700087141477 233 237 240
-0.5371080767741262 6.040850309664981 0.07529668624549148 225 223 228
-0.5197594190174577 6.0516576465368646 0.07604870536057808 217 214 221
-0.42782082223785145 6.1647885197052945 0.08354528260816517 218 215 222
-0.42157703540588726 6.159911376801447 0.08326485008573851 227 224 230
-0.3954865067871724 6.182127292347826 0.08477063662276281 239 238 243
-0.24051048065528138 6.379469941070498 0.09782486415277392 238 237 242
-0.4007299876309348 6.14824923677609 0.08261906592050906 217 217 222
-0.11532491339446378 6.506309580654101 0.10632243171849375 225 227 231
-0.09555014938571428 6.518548662840219 0.10717461271463292 242 246 249
-0.07492547631358755 6.531834655489036 0.10809616314039987 250 253 255
-0.04820921592718804 6.553153657606231 0.1095481894027396 251 252 255
-0.018186729016154313 6.578724751832029 0.11128135358218534 244 244 248
-0.003310210296540099 6.584032655004953 0.1116773188436804 234 234 236
0.01241458807307117 6.59041456717536 0.11214435015307012 232 231 233
0.02762326545739858 6.596061847890065 0.11256304017007969 238 236 237
0.04295420519955793 6.60182015898809 0.11298922172534002 242 239 241
0.09671930694310686 6.628915958069561 0.11491766773977961 247 245 250
0.4030613068821714 6.486110368592452 0.10722375950670567 196 193 207
-3.952447963663489 6.128852012323563 0.05966847915665885 142 121 108
-3.9319874960125905 5.98944991424942 0.051215291819383536 109 96 90
-3.912822126141325 5.858871581406243 0.04329716771188884 69 63 62
-3.757779006392474 5.626806290260877 0.02967761563887353 38 39 44
-3.6771135074468084 5.650878376714852 0.03145233028419701 40 39 44
-3.673539376572472 5.709519564902781 0.03505383911280828 39 38 43
-3.6671170307211827 5.698636321561677 0.03441194298181771 38 37 42
-3.65521178554362 5.7011572241910615 0.03461073276878272 41 40 46
-3.649036930225857 5.696186445712011 0.034329682607513984 45 44 50
-3.642852194662742 5.690571634411671 0.03400926233070219 46 45 51
-3.636600422777458 5.682323719835921 0.033527978532037726 48 46 52
-3.630437963793042 5.676452672025939 0.03319179631286973 52 50 55
-3.624311449212512 5.671407409518124 0.032906007766855254 60 55 61
-3.6180940961903505 5.662371759761993 0.032376395257552114 73 67 71
-3.61188143663434 5.652541422917888 0.031798139875174936 88 82 86
-3.605708079818342 5.643295332336865 0.03125548631077263 101 95 96
-3.599581750108082 5.63513992669745 0.03077939363522173 116 111 110
-3.5934889777906975 5.627642778020629 0.030343452839250173 128 123 120
-3.587440351593955 5.621587348600452 0.029995562798350472 136 131 127
-3.5813878815973177 5.6143920357244355 0.02957793994928598 145 137 131
-3.5753508946021997 5.607022857859221 0.029149620723097725 150 141 133
-3.569300046545428 5.5971024245078755 0.028565247134309798 154 143 135
-3.5633562223753117 5.5944128026528555 0.028422912033443503 160 147 139
-3.557373798658805 5.5872813776194175 0.028008936291288488 159 146 138
-3.55142680890057 5.582380347970206 0.027731301413682918 159 149 140
-3.5454805003985568 5.57588243444818 0.027355953856926463 156 146 138
-3.5395505485342174 5.569491838562155 0.02698711165699925 153 142 135
-3.5336162933597097 5.556586661879787 0.026219671387277845 152 139 131
-3.527696431509295 5.528154364268291 0.02450210379301176 151 136 129
-3.521860807289376 5.5136273611996796 0.023635058204864164 151 134 126
-3.5160614308523526 5.502263929882418 0.02296144963206072 149 132 124
-3.509747704988376 5.65042230193473 0.032050585483938604 149 132 124
-3.498694530175459 5.492106363705899 0.02240490282546557 148 131 124
-3.4922876196478643 5.564707199761837 0.02687117279547845 148 131 124
-3.4872530056473416 5.474583506611724 0.021375520136287192 149 132 124
-3.4722034060866673 5.317419603747291 0.011815279941928115 154 137 118
-3.451523415871301 5.522023240261636 0.02441193678138261 157 129 105
-3.445587090688048 5.5239885660993 0.024554400564088367 160 123 99
-3.43925691435265 5.542602705410723 0.02571704545085173 156 113 88
-3.4334197099873913 5.538490647940716 0.025487275465581303 153 104 73
-3.427691736176855 5.530532491916381 0.025021761740480344 150 96 62
-3.4193913356936707 5.615596190414546 0.030257693404162202 147 89 51
-3.4127731373897587 5.63404032754449 0.03141101376685671 142 83 44
-3.4065054826961427 5.639121411531107 0.031745364153965484 136 77 41
-3.4010665491187915 5.618271609888528 0.030489955037966913 129 60 32
-3.3950555909569515 5.615861300410399 0.030364961669542605 126 38 25
-3.3901086942452174 5.584050112079317 0.028437006379769137 128 25 22
-3.386888235250737 5.509144756108812 0.0238657460827903 133 20 26
-3.3810454353335135 5.50693489473002 0.023752388606417436 138 18 30
-3.375269618548729 5.503145117564792 0.02354210864060655 139 19 31
-3.369664325239634 5.495534500392475 0.023097401141276286 140 20 32
-3.364491494132073 5.478626108298062 0.022082163430112337 138 22 31
-3.3593341823483915 5.46248496695211 0.021113814195673333 137 22 29
-3.35250360084542 5.482455618706641 0.022361333519159195 140 20 29
-3.3471013197332673 5.472027024223835 0.021743440099730085 144 24 33
-3.341559229637166 5.46491766643857 0.02132916719916186 142 22 32
-3.336010882895042 5.458277684328665 0.020943637865243694 141 26 37
-3.330496532142882 5.451323369668649 0.020538747962904898 137 35 45
-3.324998980818526 5.444390329838456 0.020135096973572655 140 56 65
-3.319348164056419 5.44042705390202 0.019913733305484023 163 105 109
-3.3138647537320343 5.433777505909503 0.019527375709340287 172 134 135
-3.308274239524773 5.429163513817123 0.019265970412667477 173 147 148
-3.3029282716412243 5.4208104195018745 0.018774862014179394 167 149 149
-3.2973505395029545 5.416414133123469 0.018526729873493762 165 149 150
-3.2614953693393263 5.347252048004121 0.014428984264395346 161 153 151
-3.2555974016889238 5.348793850927965 0.014545390020975948 161 151 150
-3.2580894776600626 5.175390893189023 0.0039258863039622685 158 148 147
-3.2536051097249064 5.163089237100874 0.0031899498253753337 156 146 145
-3.227008559533608 5.278227324517452 0.010334524126388866 141 132 133
-3.2211682851852643 5.279827247098926 0.010454270262067213 115 105 106
-3.157977583890016 5.034381449696833 -0.004327653390338599 40 34 36
-3.152903278149812 5.03193863550126 -0.0044581399317625454 42 33 36
-3.133496855939092 5.05857987043933 -0.00275541128529578 88 78 79
-3.1342105957775144 5.009674000396403 -0.0057505339577509414 138 129 129
-3.136020955575416 4.953440341590487 -0.009198132125826918 152 144 142
-3.133220828576473 4.9344235860513646 -0.010351253318128521 153 147 147
-3.1367065279216146 4.86778480579364 -0.014441787963501892 143 139 138
-3.140570997714864 4.799994276933963 -0.018604212886745596 97 96 99
-2.939533931807659 4.713060878719642 -0.023171358693566672 44 44 54
-2.9350497217391918 4.710406589187318 -0.02331699269811467 47 47 57
-2.9306709920185643 4.707278319011691 -0.023492023261252517 49 48 56
-2.925892118154988 4.706052528585984 -0.023549147844178827 75 73 78
-2.9214868136400804 4.703093679587045 -0.023713712440745122 134 130 131
-2.9178688768019905 4.696542193091939 -0.02410104909942454 155 149 149
-2.913632109032735 4.692900063378969 -0.024308052818633824 166 158 155
-2.9092490496052994 4.689958512347081 -0.02447164221218344 197 188 183
-2.903931849083328 4.691234997339912 -0.024373643538737198 215 206 199
-2.8979535472706046 4.69541226470239 -0.024095678431929758 213 204 197
-2.8950867309858945 4.685767031897579 -0.024675125388354122 208 199 194
-2.8715268716278355 4.722100650048013 -0.02236380004721494 184 176 174
-2.881453895842538 4.63650783825116 -0.027638192742214362 167 158 159
-2.84367008770086 4.7312842177369 -0.021697656016534048 120 118 123
-2.8380642913424468 4.733121311665797 -0.02156427508711031 123 121 124
-2.8321353689985362 4.736231421629421 -0.02135179194938199 131 129 132
-2.8575672373911436 4.572517737199766 -0.031464252484674146 151 149 152
-2.830033978268028 4.6623120269233835 -0.025866909990718095 153 151 154
-2.826400850807232 4.636931893605415 -0.027406277058592138 158 156 157
-2.8048016049036146 4.701256289544461 -0.023389587200804526 164 160 161
-2.7964815202700923 4.713482455410453 -0.022610364838820503 166 162 163
-2.787440211359728 4.728276598390884 -0.02167131479479695 167 161 163
-2.775833350407607 4.752590527968985 -0.02014016961270881 167 161 163
-2.76081911216217 4.60077114367322 -0.029373521701381692 174 168 172
-2.7665602426297324 4.5630699143538385 -0.03170186366862597 175 169 173
-2.7708042550643155 4.531051936029233 -0.0336768577437285 177 170 177
-2.7691398765395863 4.503068191413381 -0.03538290021095798 181 174 181
-2.7667895959900384 4.494501533644326 -0.035898283820377824 184 177 184
-2.760512681437967 4.499340424046718 -0.035578718130619184 187 180 187
-2.753999304738302 4.504899260135319 -0.03521421573428796 189 182 189
-2.742944854520576 4.525573350439471 -0.03390785175814122 188 183 187
-2.731402386796827 4.514941105936916 -0.03451523398791434 188 173 176
-2.754386645008237 4.42385453933275 -0.04017462925593732 169 142 147
-2.7989231368475616 4.235406641588433 -0.05187200248644366 162 106 115
-2.6165291276293643 4.6527965625825765 -0.02565036184881469 173 120 128
-2.6030242394055203 4.67760513514051 -0.02408184940998125 177 122 128
-2.446605010214499 5.004574166876011 -0.003490060939667113 155 156 142
-2.54009232171781 4.615981385481567 -0.02761703778871194 174 190 163
-2.530061243041933 4.629029889323328 -0.02678109691133382 185 198 168
-2.3527127726072097 4.8318988928637845 -0.013704438915826744 201 191 181
-2.3525920906150755 4.8178574618199335 -0.014563154493782733 202 192 183
-2.3095885929254667 4.810157457934296 -0.014873414417822011 205 198 192
-2.297862410117633 4.824257945140378 -0.013966762931544297 204 197 191
-2.277624763979969 4.858328467202572 -0.011806341227295977 202 197 191
-2.2890920880263943 4.817483965399384 -0.014348437016479415 206 201 198
-2.2969812242983223 4.785387369904231 -0.01634187892993165 212 207 211
-2.328687827973174 4.6980754631514445 -0.0218029430046155 216 211 218
-2.3320933069803647 4.677208261726825 -0.02309250615873949 214 211 222
-2.327435784547083 4.675137472311862 -0.023201788548886982 210 208 219
-2.254685151515885 4.829552466021174 -0.013481263787017535 207 205 216
-2.2487084373962163 4.8297914361164445 -0.013444281153328717 205 204 212
-2.245755107734377 4.823131327373554 -0.013840750668359963 202 201 207
-2.243717726603053 4.814443332369089 -0.014364729303329112 202 201 207
-1.7956707860893852 5.254087143455303 0.014212463048548452 201 200 218
-1.7379438164377585 5.283624792037345 0.01623578516161267 235 233 246
-1.746044572605953 5.255056096352124 0.014457416653432436 231 229 240
-1.749294157764661 5.235782095318509 0.013265921486575388 217 214 223
-1.3621219211534406 5.5130657672472445 0.03168087263454644 201 194 196
-1.347842564424476 5.523756051790659 0.032388412766282404 203 198 203
-1.3309622312984484 5.5386556569465935 0.03336324377572669 213 208 214
-1.3204989528039937 5.542865964204453 0.03366001005907622 240 235 240
-1.3100717592214433 5.546973826009721 0.03395037290649317 253 251 252
-1.3035254053721805 5.544693071791106 0.03383530982782077 255 253 252
-1.2914163245249946 5.551479682181852 0.03429587234652694 254 253 251
-1.2774355755942721 5.561243934032776 0.03494563321598021 248 249 250
-1.2538836735951862 5.586410832549123 0.036573659545660796 229 233 237
-1.2260006506654282 5.618368971961324 0.03863343223790615 221 229 237
-1.1921395529153247 5.659691879036897 0.04128858195604511 228 237 246
-1.1580648301177083 5.70105253035718 0.043946840399092205 236 239 244
-1.1212206085690795 5.746527127761287 0.0468671844316679 193 188 191
-0.9798169852814403 5.929699986566993 0.05860419516313675 145 133 136
-0.904481519514088 5.977584478371694 0.06181600214645234 171 161 162
-0.9188073584494773 5.913961741057632 0.05786945719272283 180 171 171
-0.9148726462174407 5.9063438050548305 0.05741805176546621 182 173 174
-0.904234882487462 5.908986234922384 0.05761953556434389 185 175 176
-0.8955489674856836 5.908630469392392 0.057630263380308556 187 177 178
-0.8916704562428979 5.900981624591166 0.05717675644213484 190 183 185
-0.8881459908245191 5.892836312341012 0.056691547070889504 205 200 202
-0.883364700597553 5.88662315017839 0.0563292642264856 230 228 231
-0.8742194589324498 5.886981624730562 0.056385413431978185 246 246 250
-0.8648114807949909 5.887716776924128 0.05646559375839884 252 251 255
-0.8518055232309357 5.893792297839758 0.05688600159680979 254 252 254
-0.8280269980279832 5.915804768586941 0.05832186265994357 253 251 254
-0.8201602769518151 5.914115916696533 0.058247956757901835 248 248 251
-0.8125998213962883 5.911973136691331 0.05814513007882411 233 238 244
-0.800120815432422 5.9170596801131365 0.05850305289147701 222 233 241
-0.7868778902946159 5.923218061673991 0.058929417367921406 219 233 241
-0.7695558952618828 5.935277604934744 0.059732123048847806 226 240 245
-0.7519775360442292 5.947617269640999 0.060552927929709496 241 251 252
-0.7356800708289982 5.958004549932845 0.06124947813626238 250 254 255
-0.7294052385274885 5.95382127815004 0.0610169879761072 253 252 255
-0.7206338427802295 5.95324912755195 0.06101479542951014 222 219 224
-0.7129168411482683 5.951152918273308 0.060915404001980505 150 145 156
-0.6986464334026393 5.958438157158376 0.061414562719420494 94 93 110
-0.6689621168493548 5.974453098973574 0.06250554217227587 68 87 113
-0.6114525539092657 6.003096599601743 0.0644733397820442 66 85 109
-0.5936605472994305 6.0148879097908035 0.06526139126037764 83 105 125
-0.5795560825419993 6.021446218092895 0.06571544971095437 143 163 178
-0.5690546395392719 6.022939047328104 0.06584608173302108 215 226 234
-0.5605863799524238 6.021590695205842 0.0657952608518175 240 242 245
-0.5344935799952552 6.044589266146384 0.06730011775199674 238 236 241
-0.49780746838563344 6.082018802971458 0.06972760908522058 236 233 240
-0.42963624878311124 6.16242546946554 0.07490257947737165 237 234 241
-0.42359854458030805 6.157273574965494 0.07460993406896671 240 238 244
-0.23420206997782358 6.388184082832197 0.08944747052830361 237 236 241
-0.3969061804648316 6.153560571424635 0.07448260628464529 217 217 222
-0.11193708406859774 6.511010999089806 0.09742043082132462 231 233 237
-0.09181868361372722 6.523697283324319 0.09827194765081926 246 250 252
-0.06868727731918188 6.5403238476150705 0.09937583481994822 251 254 255
-0.016628627803968576 6.58093539023669 0.10205553961654318 240 241 244
-0.0006074235040581531 6.587754979740763 0.10253275639115778 231 231 233
0.015113864005281015 6.594120920471514 0.10298109323342784 235 234 236
0.02851574166394071 6.597375015657883 0.10323034492033993 239 237 238
0.045878015626120504 6.605799110580778 0.10381075548298264 241 238 240
0.057319122968779536 6.6063985812278405 0.1038902402225362 248 244 248
0.07429245878341303 6.614205669367736 0.1044314422495577 252 248 252
0.10097352718617977 6.634591651175198 0.10577864091997104 249 247 251
-3.962870484886634 6.166354763908983 0.05500977686555667 155 124 107
-3.911234998752487 5.841946587586156 0.03587276256022779 69 64 60
-3.8978907133196867 5.7667964852125495 0.031444172671594724 47 45 47
-3.7688761626733136 5.301287421651393 0.0041644701178561285 38 37 42
-3.666584024750192 5.6824729017951245 0.027187680279542877 38 37 44
-3.660421586991726 5.6771862660347665 0.02689334820712305 38 37 45
-3.654410920991727 5.675894149896293 0.026836249601534832 39 38 46
-3.6484053482560945 5.674784108117215 0.026789970355267347 39 39 47
-3.6365094302536587 5.6765226145142496 0.026932627370466696 44 42 50
-3.630398013904949 5.67211194765583 0.026690260420744166 46 43 50
-3.6241428203017807 5.662071854848654 0.026113332368805982 48 44 51
-3.618039482197467 5.656926911441852 0.025827238405473258 53 48 54
-3.611924679439251 5.6508311449881985 0.025484594065995413 60 55 60
-3.605907391800529 5.648458654508464 0.02536321889615135 67 62 66
