ply
format ascii 1.0
element vertex 841
property float x
property float y
property float z
property float nx
property float ny
property float nz
property uchar diffuse_red
property uchar diffuse_green
property uchar diffuse_blue
property uchar class
property uchar detection
end_header
1.8442 3.4869 -0.5975 0.089 -0.501 -0.861 134 184 195 0 0
1.8511 3.4945 -0.5970 0.243 -0.409 -0.880 137 185 197 0 0
1.8606 3.4880 -0.5949 0.411 -0.433 -0.802 130 175 190 0 0
1.8682 3.4918 -0.5939 0.398 -0.493 -0.774 122 164 180 0 0
1.8852 3.4897 -0.5909 0.864 -0.458 0.207 67 104 117 0 0
1.8916 3.5013 -0.5909 0.824 -0.567 -0.001 87 124 133 0 0
1.8979 3.5130 -0.5909 0.756 -0.560 -0.339 125 157 166 0 0
1.9053 3.5192 -0.5902 0.498 -0.810 0.310 107 135 142 0 0
1.9128 3.5242 -0.5894 0.412 -0.827 0.382 67 91 99 0 0
2.1270 3.7736 -0.5758 0.658 -0.350 -0.667 6 47 93 0 0
2.1453 3.7669 -0.5722 -0.640 -0.526 -0.560 5 43 88 0 0
2.8213 4.0023 -0.4812 0.511 -0.238 -0.826 195 225 235 0 0
2.8306 4.0108 -0.4804 0.478 -0.247 -0.843 195 225 235 0 0
2.8407 4.0480 -0.4820 0.533 -0.231 -0.814 196 226 236 0 0
2.8605 4.0975 -0.4830 0.506 -0.232 -0.831 195 225 235 0 0
2.8704 4.1201 -0.4834 0.484 -0.222 -0.847 195 225 235 0 0
2.9144 4.2981 -0.4917 0.836 -0.474 -0.276 193 223 233 0 0
2.9716 4.2949 -0.4820 0.650 -0.330 0.684 194 224 235 0 0
3.0038 4.3605 -0.4824 0.547 -0.308 0.778 193 223 233 0 0
3.4474 3.8917 -0.3681 -0.097 -0.994 0.051 190 219 227 0 0
3.4564 3.8929 -0.3667 -0.157 -0.935 -0.317 190 217 226 0 0
3.4726 3.8829 -0.3631 -0.264 -0.963 -0.060 190 216 229 0 0
3.4807 3.8785 -0.3614 -0.445 -0.855 0.268 182 209 223 0 0
3.5596 3.9303 -0.3529 0.488 -0.872 -0.052 208 231 237 0 0
3.5627 3.8958 -0.3494 0.360 -0.933 0.027 203 230 233 0 0
3.5673 3.8701 -0.3464 -0.530 -0.846 0.058 194 222 226 0 0
3.5754 3.8663 -0.3447 -0.456 -0.883 0.115 183 206 218 0 0
3.5838 3.8642 -0.3431 -0.329 -0.939 0.100 156 175 188 0 0
3.5920 3.8607 -0.3415 -0.055 -0.997 0.062 121 134 148 0 0
3.6006 3.8601 -0.3400 -0.269 -0.957 0.105 98 103 112 0 0
3.6205 3.8736 -0.3379 0.157 -0.955 0.254 128 122 116 0 0
3.6569 3.9287 -0.3367 0.463 -0.658 -0.594 134 123 117 0 0
3.6683 3.8478 -0.3277 0.168 -0.978 0.126 133 124 117 0 0
3.6774 3.8493 -0.3264 0.208 -0.963 0.169 134 124 119 0 0
3.6870 3.8539 -0.3252 0.070 -0.986 0.153 135 124 122 0 0
3.6957 3.8537 -0.3237 0.208 -0.963 0.169 142 131 127 0 0
3.7050 3.8568 -0.3225 0.103 -0.965 0.241 166 155 151 0 0
3.7140 3.8580 -0.3211 0.028 -0.976 0.214 189 178 172 0 0
3.7402 3.8580 -0.3168 -0.025 -1.000 0.017 136 156 177 0 0
3.7573 3.8562 -0.3138 0.189 -0.981 -0.051 56 127 180 0 0
4.2491 4.7233 -0.3085 0.800 -0.512 0.312 21 127 185 0 0
4.8778 3.2101 -0.0721 0.404 -0.562 -0.721 15 109 161 0 0
-0.8224 4.9244 -1.1748 -0.213 -0.961 -0.175 70 59 42 0 0
-0.8095 4.9211 -1.1724 -0.213 -0.961 -0.175 58 48 30 0 0
-0.8027 4.9286 -1.1720 0.542 -0.793 -0.276 48 37 20 0 0
-0.7827 4.9323 -1.1690 0.656 -0.714 0.245 45 33 19 0 0
-0.7395 5.0155 -1.1693 -0.485 -0.872 0.069 92 76 57 0 0
-0.7238 5.0070 -1.1659 -0.485 -0.872 0.069 76 60 42 0 0
-0.7116 5.0050 -1.1637 -0.288 -0.946 -0.151 64 48 31 0 0
-0.6355 4.9661 -1.1477 -0.066 -0.530 -0.846 99 83 65 0 0
-0.6151 4.9693 -1.1446 -0.262 -0.548 -0.795 100 83 64 0 0
-0.3935 5.0596 -1.1160 -0.367 -0.775 0.515 25 25 17 0 0
-0.3211 5.0483 -1.1031 -0.516 -0.610 0.601 32 31 19 0 0
-0.3089 5.0462 -1.1009 -0.304 -0.552 0.777 33 34 21 0 0
-0.1654 5.1508 -1.0865 -0.507 -0.301 0.807 20 34 20 0 0
0.3275 5.1932 -1.0088 -0.367 -0.913 0.180 20 26 19 0 0
0.3170 5.2540 -1.0160 -0.028 -0.869 0.494 20 26 19 0 0
0.3837 5.3592 -1.0144 0.540 -0.796 -0.271 21 24 19 0 0
0.9620 4.2421 -0.8191 -0.055 -0.996 0.073 113 94 87 0 0
1.6033 3.4930 -0.6462 0.267 -0.835 0.480 19 19 21 0 0
1.6109 3.4961 -0.6452 0.267 -0.835 0.480 33 33 35 0 0
1.6700 3.4534 -0.6317 0.247 -0.969 0.002 15 16 20 0 0
1.6772 3.4583 -0.6309 -0.021 -0.958 -0.285 19 22 27 0 0
1.8347 3.5015 -0.6087 -0.554 -0.449 -0.701 145 189 202 0 0
1.8484 3.4707 -0.6037 -0.727 -0.392 -0.564 149 194 207 0 0
1.8589 3.5059 -0.6051 0.301 -0.470 -0.830 141 186 199 0 0
1.8670 3.5075 -0.6040 0.289 -0.475 -0.831 142 187 201 0 0
1.8929 3.5018 -0.5992 0.816 -0.560 0.143 75 117 126 0 0
1.8996 3.5116 -0.5989 0.816 -0.560 0.143 69 103 113 0 0
1.9564 3.4674 -0.5856 -0.642 -0.173 0.747 80 107 130 0 0
2.0646 4.1803 -0.6314 -0.178 -0.176 0.968 3 53 104 0 0
2.0746 4.1750 -0.6292 -0.157 -0.176 0.972 7 53 102 0 0
2.0840 4.1755 -0.6277 -0.132 -0.177 0.975 6 53 99 0 0
2.0944 4.1671 -0.6253 -0.196 -0.197 0.961 7 51 98 0 0
2.4023 4.0413 -0.5631 0.004 -0.931 -0.365 190 220 230 0 0
2.8712 4.0997 -0.4909 0.702 -0.251 -0.667 196 226 236 0 0
3.4038 3.8208 -0.3780 0.467 -0.336 0.818 188 218 229 0 0
3.4484 3.8890 -0.3767 0.142 -0.987 0.081 185 219 229 0 0
3.4582 3.8961 -0.3757 -0.326 -0.897 -0.298 185 219 229 0 0
3.4656 3.8859 -0.3736 -0.631 -0.754 -0.186 186 218 229 0 0
3.4740 3.8831 -0.3720 -0.257 -0.957 -0.130 188 218 229 0 0
3.5362 3.8867 -0.3620 0.831 -0.556 0.005 212 231 237 0 0
3.5597 3.8693 -0.3565 -0.053 -0.986 0.159 204 228 232 0 0
3.5683 3.8681 -0.3550 -0.541 -0.833 0.120 194 219 224 0 0
3.5845 3.8607 -0.3517 -0.135 -0.985 0.105 148 164 177 0 0
3.5931 3.8597 -0.3502 -0.135 -0.985 0.105 113 121 133 0 0
3.6211 3.8696 -0.3464 0.118 -0.992 -0.046 131 123 116 0 0
3.6704 3.8521 -0.3367 0.128 -0.991 0.029 133 124 115 0 0
3.6784 3.8480 -0.3350 0.208 -0.963 0.169 133 123 120 0 0
3.6876 3.8503 -0.3337 0.168 -0.978 0.126 132 122 120 0 0
3.6966 3.8520 -0.3324 0.168 -0.978 0.126 145 134 130 0 0
3.7059 3.8548 -0.3311 0.103 -0.965 0.241 170 159 155 0 0
3.7149 3.8561 -0.3297 0.103 -0.965 0.241 191 182 177 0 0
3.7414 3.8578 -0.3255 -0.203 -0.976 0.082 120 146 172 0 0
3.7587 3.8569 -0.3226 0.227 -0.973 0.054 49 127 182 0 0
3.7678 3.8584 -0.3212 0.178 -0.977 -0.120 38 130 186 0 0
4.8010 4.1759 -0.1788 -0.708 -0.212 0.673 17 118 174 0 0
4.8137 4.0909 -0.1691 -0.398 -0.516 0.758 19 117 174 0 0
4.8190 4.0812 -0.1674 -0.556 -0.485 0.675 20 117 172 0 0
-0.8215 4.9266 -1.1859 -0.188 -0.979 -0.072 66 56 38 0 0
-0.8090 4.9240 -1.1836 -0.188 -0.979 -0.072 52 44 25 0 0
-0.7966 4.9215 -1.1813 -0.188 -0.979 -0.072 43 36 18 0 0
-0.7393 5.0190 -1.1807 -0.565 -0.805 0.180 89 72 56 0 0
-0.7199 5.0037 -1.1761 -0.485 -0.845 0.227 80 63 47 0 0
-0.7046 4.9958 -1.1729 -0.120 -0.936 0.332 63 46 31 0 0
-0.4229 5.0786 -1.1339 -0.479 -0.872 0.099 45 40 31 0 0
-0.3933 5.0637 -1.1276 -0.601 -0.797 -0.063 27 29 20 0 0
-0.3299 5.0479 -1.1157 -0.659 -0.657 0.365 26 25 17 0 0
-0.3091 5.0274 -1.1104 -0.222 -0.555 0.801 30 31 20 0 0
-0.2828 5.0426 -1.1074 0.619 -0.188 0.762 26 37 23 0 0
-0.2783 5.0570 -1.1080 0.638 -0.169 0.752 23 37 22 0 0
0.3239 5.1777 -1.0195 0.310 -0.938 -0.154 26 25 20 0 0
0.9726 4.2444 -0.8273 0.252 -0.964 -0.087 128 110 103 0 0
1.3080 4.2935 -0.7763 0.892 -0.212 -0.399 17 17 19 0 0
1.6056 3.4892 -0.6539 0.581 -0.615 0.533 31 31 33 0 0
1.7051 3.4502 -0.6339 -0.180 -0.939 -0.293 68 82 90 0 0
1.7165 3.4347 -0.6306 -0.060 -0.972 -0.228 103 127 136 0 0
1.7890 3.4425 -0.6194 -0.253 -0.866 -0.432 63 104 126 0 0
1.8070 3.6661 -0.6367 0.501 -0.715 -0.488 149 193 206 0 0
1.8467 3.4888 -0.6140 -0.727 -0.392 -0.564 148 190 204 0 0
1.8539 3.5430 -0.6178 -0.611 -0.607 -0.508 145 189 202 0 0
1.8642 3.5321 -0.6151 -0.221 -0.642 -0.734 144 190 203 0 0
2.1630 4.1554 -0.6224 -0.194 -0.251 0.948 21 33 47 0 0
2.4037 4.0437 -0.5725 0.011 -0.970 -0.242 193 223 233 0 0
2.5321 4.0466 -0.5515 -0.390 -0.919 -0.060 197 226 234 0 0
2.8744 4.1525 -0.5046 0.616 -0.315 -0.722 196 226 236 0 0
3.5610 3.8693 -0.3653 -0.304 -0.935 0.184 202 227 231 0 0
3.5693 3.8663 -0.3637 -0.512 -0.844 0.156 190 215 220 0 0
3.5860 3.8615 -0.3605 -0.294 -0.949 0.111 141 154 166 0 0
3.5945 3.8599 -0.3589 -0.230 -0.973 0.038 108 113 122 0 0
3.6108 3.8532 -0.3556 -0.411 -0.907 0.095 125 121 118 0 0
3.6683 3.9285 -0.3530 -0.775 -0.439 -0.454 134 125 116 0 0
3.6729 3.9055 -0.3501 -0.670 -0.319 -0.671 133 124 115 0 0
3.6719 3.8531 -0.3455 0.192 -0.981 -0.027 134 125 116 0 0
3.6804 3.8514 -0.3440 -0.102 -0.994 0.036 133 123 120 0 0
3.6890 3.8508 -0.3425 -0.138 -0.990 0.036 134 124 123 0 0
3.6977 3.8510 -0.3411 0.068 -0.994 0.089 152 142 140 0 0
3.7069 3.8534 -0.3398 0.065 -0.950 0.305 177 166 162 0 0
3.7153 3.8514 -0.3382 0.311 -0.939 0.146 193 183 181 0 0
3.7248 3.8553 -0.3370 0.356 -0.910 0.211 186 183 185 0 0
3.7432 3.8601 -0.3344 0.160 -0.947 0.278 110 142 172 0 0
3.7521 3.8611 -0.3330 0.155 -0.964 0.214 67 130 177 0 0
3.7614 3.8638 -0.3317 0.304 -0.903 0.303 45 132 186 0 0
4.1003 4.8614 -0.3665 0.919 -0.291 -0.265 30 132 190 0 0
4.8864 5.7255 -0.3152 0.569 -0.372 -0.733 18 124 181 0 0
6.1306 5.3630 -0.0765 0.195 -0.240 -0.951 17 104 157 0 0
5.4365 3.9880 -0.0661 -0.022 -0.346 -0.938 18 105 158 0 0
-0.8215 4.9305 -1.1973 -0.030 -0.994 -0.109 58 49 31 0 0
-0.8102 4.9299 -1.1954 -0.030 -0.994 -0.109 46 39 20 0 0
-0.7983 4.9285 -1.1933 -0.130 -0.985 -0.116 41 34 16 0 0
-0.7859 4.9258 -1.1910 0.648 -0.495 0.580 41 33 17 0 0
-0.7390 4.9610 -1.1865 0.473 -0.264 0.841 46 35 19 0 0
-0.7505 5.0025 -1.1922 0.374 -0.516 0.770 52 37 22 0 0
-0.3982 5.1015 -1.1432 0.582 -0.263 -0.769 25 27 19 0 0
-0.3934 5.1151 -1.1436 0.582 -0.265 -0.769 24 26 18 0 0
-0.2892 5.0132 -1.1170 -0.289 -0.522 0.802 28 33 25 0 0
-0.2810 5.0193 -1.1162 0.722 -0.311 0.618 27 35 23 0 0
-0.2755 5.0315 -1.1164 0.722 -0.311 0.618 24 36 23 0 0
-0.2711 5.0459 -1.1170 0.778 -0.190 0.599 23 36 23 0 0
0.3602 5.3721 -1.0429 0.087 -0.989 0.119 24 22 18 0 0
0.3688 5.3811 -1.0423 0.457 -0.889 -0.005 25 22 18 0 0
0.3816 5.3775 -1.0398 0.267 -0.949 0.167 24 21 18 0 0
0.4461 5.4646 -1.0373 -0.166 -0.876 -0.453 22 20 15 0 0
0.4684 5.4682 -1.0339 0.214 -0.705 -0.676 26 19 16 0 0
0.5050 5.5014 -1.0309 -0.040 -0.941 -0.336 26 22 17 0 0
0.9667 4.3334 -0.8463 0.444 -0.782 -0.438 127 114 103 0 0
1.3006 4.2911 -0.7871 0.968 -0.133 -0.213 19 19 19 0 0
1.3071 4.3038 -0.7872 0.913 -0.256 -0.318 19 17 18 0 0
1.6720 3.4575 -0.6484 -0.038 -0.999 0.005 15 19 24 0 0
1.6804 3.4571 -0.6470 -0.071 -0.997 -0.024 11 18 24 0 0
1.6964 3.4595 -0.6446 -0.398 -0.916 -0.050 56 67 73 0 0
2.0451 4.1326 -0.6494 -0.407 -0.272 0.872 0 70 125 0 0
2.1663 4.1378 -0.6298 0.876 -0.392 -0.281 23 35 47 0 0
2.2174 4.1965 -0.6268 0.752 -0.397 0.526 23 36 45 0 0
2.2262 4.2045 -0.6261 0.807 -0.447 0.386 23 36 45 0 0
2.3958 4.0478 -0.5835 -0.045 -0.992 -0.117 197 227 235 0 0
2.4052 4.0449 -0.5817 -0.271 -0.954 -0.128 195 225 235 0 0
3.0393 4.0868 -0.4807 0.361 -0.801 0.478 192 222 233 0 0
3.4660 3.8706 -0.3901 -0.122 -0.901 -0.415 186 218 231 0 0
3.4751 3.8732 -0.3889 0.152 -0.982 0.110 186 216 226 0 0
3.5385 3.8850 -0.3795 0.693 -0.716 -0.084 211 229 233 0 0
3.5620 3.8673 -0.3739 -0.304 -0.935 0.184 199 224 228 0 0
3.5871 3.8601 -0.3691 -0.294 -0.949 0.111 132 146 155 0 0
3.5956 3.8590 -0.3676 -0.328 -0.942 0.070 106 107 115 0 0
3.6706 3.9339 -0.3622 -0.775 -0.439 -0.454 134 125 116 0 0
3.6733 3.8533 -0.3542 0.051 -0.996 -0.068 134 125 116 0 0
3.6816 3.8510 -0.3527 -0.102 -0.994 0.036 132 122 120 0 0
3.6902 3.8503 -0.3512 -0.138 -0.990 0.036 136 126 125 0 0
3.6989 3.8503 -0.3497 0.068 -0.994 0.089 158 147 146 0 0
3.7077 3.8506 -0.3483 0.053 -0.986 0.160 182 172 169 0 0
3.7164 3.8504 -0.3469 0.311 -0.939 0.146 194 185 183 0 0
3.7258 3.8540 -0.3456 0.353 -0.914 0.202 181 181 185 0 0
3.7353 3.8580 -0.3444 0.353 -0.914 0.202 151 164 183 0 0
3.7444 3.8596 -0.3431 0.035 -0.953 0.300 101 138 172 0 0
3.7533 3.8604 -0.3417 0.035 -0.953 0.300 60 130 177 0 0
3.7636 3.8681 -0.3407 0.502 -0.810 0.303 41 132 186 0 0
4.8542 4.3590 -0.2059 -0.349 -0.060 -0.935 20 121 175 0 0
4.7822 3.9583 -0.1806 -0.632 -0.079 -0.770 20 117 171 0 0
6.2127 5.4988 -0.0870 0.663 -0.582 -0.470 19 106 159 0 0
-0.8204 4.9323 -1.2083 0.036 -0.999 -0.030 48 40 23 0 0
-0.8088 4.9314 -1.2063 -0.130 -0.985 -0.116 40 34 16 0 0
-0.7968 4.9295 -1.2042 -0.130 -0.985 -0.116 39 32 15 0 0
-0.7139 4.9390 -1.1914 0.393 -0.297 0.870 49 35 21 0 0
-0.7138 4.9591 -1.1932 -0.097 -0.385 0.918 56 41 27 0 0
-0.7020 4.9577 -1.1911 0.317 -0.284 0.905 67 52 38 0 0
-0.6955 4.9663 -1.1909 0.394 -0.261 0.881 65 53 39 0 0
-0.5290 4.9865 -1.1653 -0.007 -0.438 0.899 34 33 24 0 0
0.3923 5.3866 -1.0507 0.602 -0.742 -0.295 18 17 15 0 0
0.4465 5.4696 -1.0496 -0.309 -0.923 -0.229 23 19 14 0 0
0.4555 5.4783 -1.0489 0.088 -0.808 -0.583 27 21 18 0 0
0.4663 5.4813 -1.0474 0.272 -0.731 -0.626 31 23 20 0 0
1.0040 4.2481 -0.8420 -0.351 -0.932 -0.084 127 116 104 0 0
1.3060 4.3157 -0.7984 0.267 -0.417 -0.869 19 17 18 0 0
1.3081 4.3467 -0.8010 -0.122 -0.353 -0.928 18 16 17 0 0
1.6739 3.4554 -0.6563 0.071 -0.997 -0.039 16 21 27 0 0
1.6820 3.4559 -0.6550 0.071 -0.997 -0.039 12 21 27 0 0
1.6894 3.4603 -0.6542 0.219 -0.969 -0.115 33 44 50 0 0
1.6972 3.4623 -0.6531 -0.376 -0.894 0.243 76 90 97 0 0
1.8465 3.5058 -0.6325 -0.789 -0.342 -0.510 152 199 209 0 0
1.8470 3.5512 -0.6367 -0.373 -0.928 -0.025 150 194 203 0 0
1.8549 3.5541 -0.6357 -0.652 -0.759 0.007 150 194 203 0 0
1.8635 3.5533 -0.6342 -0.368 -0.707 -0.603 149 196 206 0 0
1.9312 3.3937 -0.6079 -0.175 -0.371 0.912 144 191 203 0 0
2.1676 4.1407 -0.6394 0.720 -0.512 -0.469 22 35 44 0 0
2.2285 4.1960 -0.6345 0.904 -0.397 0.160 24 37 46 0 0
2.4940 3.9215 -0.5647 0.938 -0.346 -0.004 192 225 234 0 0
2.9638 4.0187 -0.4962 0.566 -0.814 -0.128 195 225 235 0 0
3.0387 4.3585 -0.5159 0.696 -0.404 0.594 194 224 235 0 0
3.4576 3.8644 -0.3999 0.449 -0.808 -0.381 187 219 232 0 0
3.5036 3.8782 -0.3936 -0.070 -0.979 -0.193 196 226 237 0 0
3.5400 3.8863 -0.3883 0.621 -0.780 -0.077 214 231 238 0 0
3.5883 3.8595 -0.3778 0.380 -0.921 0.090 122 136 144 0 0
3.5977 3.8638 -0.3767 0.386 -0.921 0.052 104 107 112 0 0
3.6070 3.8668 -0.3754 0.195 -0.966 0.171 121 117 119 0 0
3.6170 3.8738 -0.3744 0.329 -0.920 0.211 128 123 119 0 0
3.6747 3.8540 -0.3630 0.051 -0.996 -0.068 135 126 117 0 0
3.6828 3.8505 -0.3614 -0.102 -0.994 0.036 132 122 120 0 0
3.6914 3.8498 -0.3599 -0.138 -0.990 0.036 139 130 128 0 0
3.7001 3.8496 -0.3584 0.068 -0.994 0.089 162 151 149 0 0
3.7087 3.8493 -0.3570 0.053 -0.986 0.160 186 176 174 0 0
3.7175 3.8494 -0.3555 0.311 -0.939 0.146 194 185 186 0 0
3.7268 3.8525 -0.3543 0.353 -0.914 0.202 176 178 185 0 0
3.7363 3.8564 -0.3531 0.353 -0.914 0.202 142 157 180 0 0
3.7540 3.8577 -0.3503 0.035 -0.953 0.300 56 130 177 0 0
3.7642 3.8648 -0.3492 0.394 -0.853 0.343 38 133 187 0 0
4.1323 5.1330 -0.4082 -0.766 -0.161 -0.622 30 133 191 0 0
4.1192 4.8396 -0.3826 -0.106 -0.369 -0.923 27 131 186 0 0
4.8726 4.3789 -0.2145 -0.432 -0.062 -0.900 19 120 175 0 0
-0.8189 4.9336 -1.2192 0.018 -1.000 0.006 42 34 18 0 0
-0.8057 4.9297 -1.2167 -0.404 -0.914 -0.022 38 32 14 0 0
-0.7911 4.9232 -1.2136 -0.404 -0.914 -0.022 38 31 15 0 0
-0.7012 4.9399 -1.2004 -0.280 -0.402 0.872 50 38 25 0 0
-0.6824 4.9459 -1.1978 0.189 -0.223 0.956 54 46 34 0 0
-0.5657 4.9544 -1.1793 0.851 -0.144 0.506 34 32 20 0 0
-0.5490 4.9649 -1.1776 0.302 -0.692 0.656 33 31 21 0 0
-0.4723 4.9659 -1.1650 0.382 -0.195 0.903 29 30 16 0 0
0.3809 5.3921 -1.0648 0.615 -0.787 -0.051 18 17 14 0 0
0.3901 5.3993 -1.0640 0.364 -0.931 -0.023 17 17 15 0 0
0.4030 5.3955 -1.0615 0.226 -0.968 -0.111 16 16 14 0 0
0.4307 5.4526 -1.0624 0.131 -0.825 0.550 13 13 8 0 0
0.4511 5.4622 -1.0600 -0.242 -0.899 0.364 21 17 13 0 0
0.4650 5.4917 -1.0605 0.072 -0.976 -0.206 32 23 21 0 0
0.4765 5.4929 -1.0587 0.545 -0.647 -0.534 39 29 27 0 0
0.4873 5.4960 -1.0572 0.601 -0.695 -0.394 38 29 27 0 0
1.6652 3.4642 -0.6669 0.066 -0.725 -0.686 57 60 67 0 0
1.7348 3.4060 -0.6498 -0.785 -0.499 0.367 140 169 175 0 0
1.7469 3.3863 -0.6459 -0.797 -0.534 0.282 148 174 181 0 0
1.8864 3.4753 -0.6314 -0.108 -0.673 0.732 142 194 207 0 0
1.9060 3.4071 -0.6216 -0.656 -0.733 0.182 138 194 209 0 0
1.9161 3.3951 -0.6188 -0.556 -0.703 0.444 136 192 207 0 0
2.0039 3.2964 -0.5948 -0.795 -0.284 0.537 51 125 158 0 0
2.1114 3.4587 -0.5926 0.340 -0.836 -0.430 3 86 140 0 0
2.1680 4.1521 -0.6499 0.762 -0.450 -0.466 21 34 42 0 0
2.2326 4.1659 -0.6406 0.318 -0.407 0.856 25 38 47 0 0
2.3906 4.0301 -0.6013 0.021 -0.980 0.197 196 225 233 0 0
2.5464 4.0214 -0.5747 -0.781 -0.503 -0.371 198 227 235 0 0
2.9843 4.0346 -0.5036 0.663 -0.716 -0.217 195 225 235 0 0
3.0032 4.0475 -0.5017 0.446 -0.857 0.257 195 225 236 0 0
3.4511 3.8710 -0.4106 -0.317 -0.677 -0.664 187 220 229 0 0
3.4613 3.8806 -0.4098 0.085 -0.995 -0.061 186 219 228 0 0
3.4698 3.8784 -0.4082 -0.122 -0.901 -0.415 185 218 227 0 0
3.5063 3.8870 -0.4030 0.277 -0.954 -0.112 198 228 239 0 0
3.5413 3.8858 -0.3971 0.508 -0.860 0.048 213 230 238 0 0
3.5529 3.9032 -0.3968 0.474 -0.876 0.093 211 231 238 0 0
3.5990 3.8632 -0.3854 0.380 -0.921 0.090 105 110 113 0 0
3.6081 3.8655 -0.3841 0.195 -0.966 0.171 125 121 121 0 0
3.6467 3.7898 -0.3704 0.840 -0.503 0.202 133 124 115 0 0
3.6762 3.8550 -0.3718 -0.218 -0.973 0.083 135 126 117 0 0
3.6845 3.8527 -0.3702 -0.375 -0.908 0.188 135 125 122 0 0
3.6923 3.8479 -0.3685 -0.150 -0.981 0.125 146 137 135 0 0
3.7009 3.8472 -0.3670 0.053 -0.986 0.160 168 158 156 0 0
3.7097 3.8479 -0.3656 0.053 -0.986 0.160 192 181 180 0 0
3.7186 3.8485 -0.3642 0.311 -0.939 0.146 193 186 186 0 0
3.7376 3.8567 -0.3618 0.121 -0.967 0.224 132 151 175 0 0
3.7548 3.8552 -0.3588 0.127 -0.974 0.189 56 133 181 0 0
3.7645 3.8599 -0.3577 0.359 -0.844 0.400 39 137 190 0 0
4.1293 4.8773 -0.3952 0.632 -0.506 -0.586 26 130 185 0 0
4.8003 4.2339 -0.2223 -0.635 -0.179 -0.752 21 122 176 0 0
4.8266 4.2790 -0.2223 -0.931 -0.190 -0.311 21 122 176 0 0
4.8425 4.2964 -0.2213 -0.548 -0.066 -0.834 19 120 174 0 0
-0.7898 4.9049 -1.2226 -0.635 -0.769 0.079 38 33 18 0 0
-0.4974 4.9111 -1.1749 -0.734 -0.650 0.196 31 38 22 0 0
-0.3058 4.8539 -1.1376 0.055 -0.518 -0.854 23 33 17 0 0
-0.2880 4.9076 -1.1399 0.284 -0.959 0.018 21 29 17 0 0
0.4834 5.4780 -1.0681 0.531 -0.444 0.721 31 21 18 0 0
0.4927 5.4860 -1.0673 0.697 -0.477 0.535 35 26 22 0 0
0.4983 5.5053 -1.0683 0.404 -0.827 0.392 34 26 21 0 0
0.9966 4.2520 -0.8631 -0.324 -0.943 -0.074 127 115 105 0 0
1.6510 3.4599 -0.6772 -0.095 -0.789 -0.607 53 54 59 0 0
1.6917 3.4627 -0.6708 0.667 -0.713 0.218 81 95 101 0 0
1.7882 3.3906 -0.6477 -0.130 -0.985 0.116 160 190 190 0 0
1.7965 3.3897 -0.6463 -0.130 -0.985 0.116 160 191 195 0 0
1.8048 3.3889 -0.6448 -0.244 -0.952 0.185 164 195 200 0 0
1.8128 3.3891 -0.6435 -0.151 -0.978 -0.143 160 192 204 0 0
1.8217 3.3853 -0.6417 0.161 -0.928 -0.335 162 197 209 0 0
1.8446 3.5333 -0.6524 -0.706 -0.407 -0.579 150 199 206 0 0
1.9981 3.2911 -0.6033 -0.855 -0.318 0.409 60 127 153 0 0
2.0445 3.4768 -0.6138 -0.303 -0.951 0.056 4 112 158 0 0
2.0531 3.4742 -0.6121 -0.303 -0.951 0.056 2 108 156 0 0
2.0622 3.4682 -0.6100 -0.464 -0.879 -0.111 1 102 154 0 0
2.1550 4.1101 -0.6575 -0.265 -0.514 -0.816 11 38 59 0 0
2.1734 4.1121 -0.6546 0.140 -0.637 -0.758 23 36 44 0 0
2.2073 4.0467 -0.6426 0.065 -0.309 -0.949 23 36 45 0 0
2.2300 4.1043 -0.6445 0.223 -0.374 0.900 23 36 45 0 0
2.2353 4.1518 -0.6483 0.318 -0.407 0.856 24 37 46 0 0
2.3739 4.0286 -0.6133 -0.142 -0.975 0.174 196 225 233 0 0
2.4011 4.0344 -0.6093 -0.727 -0.638 0.255 195 224 232 0 0
2.4104 4.0318 -0.6076 -0.880 -0.460 0.115 195 223 234 0 0
2.9765 4.0329 -0.5140 -0.065 -0.983 0.173 196 226 236 0 0
3.0137 4.0460 -0.5091 0.621 -0.710 0.333 195 225 236 0 0
3.4548 3.8875 -0.4206 -0.686 -0.655 -0.317 186 219 226 0 0
3.4627 3.8813 -0.4187 0.085 -0.995 -0.061 185 219 228 0 0
3.4713 3.8795 -0.4171 0.067 -0.976 -0.206 185 218 225 0 0
3.4980 3.8816 -0.4129 0.142 -0.974 -0.175 193 223 234 0 0
3.5426 3.8855 -0.4059 0.586 -0.787 0.192 211 230 237 0 0
3.5529 3.8951 -0.4051 -0.093 -0.966 0.242 211 231 240 0 0
3.6002 3.8629 -0.3941 0.380 -0.921 0.090 109 111 114 0 0
3.6092 3.8641 -0.3927 0.195 -0.966 0.171 128 124 122 0 0
3.6195 3.8732 -0.3919 0.377 -0.922 0.084 131 126 122 0 0
3.6626 3.9168 -0.3891 -0.577 -0.797 -0.181 134 124 115 0 0
3.6476 3.7879 -0.3789 0.840 -0.503 0.202 133 123 114 0 0
3.6606 3.8116 -0.3791 0.832 -0.554 -0.022 133 124 115 0 0
3.6774 3.8544 -0.3805 -0.362 -0.916 0.170 136 127 119 0 0
3.6854 3.8506 -0.3788 -0.375 -0.908 0.188 134 124 122 0 0
3.6935 3.8476 -0.3772 0.019 -0.997 0.079 150 140 138 0 0
3.7021 3.8468 -0.3757 0.011 -0.993 0.119 172 162 160 0 0
3.7101 3.8430 -0.3740 0.421 -0.907 0.002 192 182 181 0 0
3.7384 3.8542 -0.3704 0.103 -0.989 0.110 118 145 174 0 0
3.7474 3.8553 -0.3690 0.103 -0.989 0.110 78 132 173 0 0
3.7654 3.8580 -0.3663 0.391 -0.782 0.485 37 138 191 0 0
4.8553 4.3268 -0.2318 -0.538 -0.069 -0.840 20 121 175 0 0
-0.7835 4.8975 -1.2318 -0.649 -0.738 0.184 38 36 22 0 0
-0.3330 4.8696 -1.1545 0.295 -0.429 -0.854 23 33 18 0 0
-0.3244 4.8743 -1.1535 0.106 -0.541 -0.834 22 31 17 0 0
-0.2900 4.8932 -1.1497 -0.165 -0.950 -0.266 18 22 10 0 0
-0.2791 4.8932 -1.1479 0.316 -0.908 -0.276 20 24 13 0 0
0.0153 4.9167 -1.1015 -0.182 -0.883 0.432 20 18 14 0 0
0.0703 4.9943 -1.1001 0.175 -0.555 -0.813 15 17 10 0 0
0.0791 4.9998 -1.0992 -0.009 -0.634 -0.774 16 19 11 0 0
0.0985 4.9793 -1.0940 -0.525 -0.580 -0.622 17 19 12 0 0
0.1191 4.9558 -1.0882 -0.690 -0.615 -0.381 17 19 12 0 0
0.1131 4.9976 -1.0934 0.149 -0.751 0.643 18 21 13 0 0
0.2406 5.4042 -1.1128 0.126 -0.203 -0.971 21 25 19 0 0
0.3887 5.4853 -1.0964 0.465 -0.375 -0.802 14 16 12 0 0
0.4865 5.4753 -1.0792 0.449 -0.451 0.771 27 19 13 0 0
1.7061 3.4403 -0.6745 -0.680 -0.517 0.519 100 114 120 0 0
1.7208 3.4486 -0.6729 -0.562 -0.726 0.397 140 162 167 0 0
1.7306 3.4412 -0.6706 -0.582 -0.736 0.346 147 172 177 0 0
1.7396 3.4373 -0.6687 -0.705 -0.707 -0.056 150 176 181 0 0
1.7610 3.4536 -0.6667 -0.842 -0.402 0.360 161 193 195 0 0
1.8085 3.3761 -0.6512 -0.741 -0.621 0.255 163 194 199 0 0
1.8193 3.3620 -0.6480 -0.523 -0.852 -0.002 163 196 203 0 0
1.8175 3.6000 -0.6720 -0.223 -0.497 -0.839 158 200 204 0 0
1.8298 3.5780 -0.6678 -0.484 -0.409 -0.774 155 198 205 0 0
1.8397 3.5698 -0.6653 -0.226 -0.400 -0.888 155 200 206 0 0
1.8990 3.3211 -0.6307 0.873 -0.443 -0.204 155 201 206 0 0
1.9050 3.3330 -0.6309 0.873 -0.443 -0.204 152 197 203 0 0
1.9318 3.3651 -0.6296 -0.314 -0.898 -0.307 140 196 209 0 0
2.0787 3.4148 -0.6103 -0.801 -0.594 0.073 0 107 155 0 0
2.0811 4.0358 -0.6718 -0.285 -0.563 0.776 0 87 140 0 0
2.1547 4.1285 -0.6688 -0.274 -0.537 -0.798 14 37 55 0 0
2.1649 4.1195 -0.6662 -0.274 -0.537 -0.798 19 35 48 0 0
2.2049 4.0905 -0.6567 0.130 -0.370 -0.920 22 36 47 0 0
2.2412 4.1003 -0.6517 0.318 -0.452 0.833 24 36 48 0 0
2.3026 4.0216 -0.6337 0.036 -0.987 0.155 112 130 142 0 0
2.3937 4.0284 -0.6193 -0.086 -0.994 0.061 197 226 234 0 0
2.4029 4.0284 -0.6178 -0.673 -0.638 0.376 195 224 232 0 0
2.4122 4.0250 -0.6159 -0.857 -0.512 0.065 195 225 233 0 0
2.5406 4.0089 -0.5930 -0.077 -0.977 0.200 198 228 236 0 0
2.5490 4.0366 -0.5944 -0.865 -0.375 0.334 199 229 237 0 0
3.4554 3.8823 -0.4290 -0.089 -0.852 0.516 186 219 228 0 0
3.4629 3.8732 -0.4268 0.270 -0.953 0.140 185 217 228 0 0
3.4729 3.8814 -0.4260 -0.031 -0.985 -0.168 184 217 226 0 0
3.4816 3.8812 -0.4245 0.217 -0.972 -0.089 182 215 224 0 0
3.4907 3.8831 -0.4232 0.217 -0.972 -0.089 188 218 228 0 0
3.5083 3.8830 -0.4203 -0.159 -0.974 -0.163 202 230 239 0 0
3.5339 3.8783 -0.4156 0.682 -0.702 0.203 212 231 235 0 0
3.5448 3.8909 -0.4150 0.342 -0.909 0.239 211 230 236 0 0
3.5539 3.8929 -0.4137 -0.093 -0.966 0.242 209 229 236 0 0
3.5562 3.8533 -0.4094 -0.534 -0.796 0.284 201 223 233 0 0
3.5655 3.8568 -0.4082 -0.378 -0.892 0.247 187 211 222 0 0
3.6016 3.8636 -0.4029 0.365 -0.925 0.106 117 118 117 0 0
3.6107 3.8653 -0.4016 0.230 -0.965 0.123 127 125 120 0 0
3.6618 3.9054 -0.3971 -0.400 -0.824 0.402 135 122 114 0 0
3.6781 3.8515 -0.3890 -0.375 -0.908 0.188 135 126 121 0 0
3.6861 3.8475 -0.3873 -0.365 -0.910 0.197 140 127 123 0 0
3.6947 3.8469 -0.3858 0.019 -0.997 0.079 158 144 141 0 0
3.7029 3.8442 -0.3842 0.137 -0.984 0.110 178 167 166 0 0
3.7397 3.8539 -0.3791 0.120 -0.992 0.048 97 137 170 0 0
3.7486 3.8551 -0.3777 0.120 -0.992 0.048 65 133 179 0 0
3.7583 3.8599 -0.3766 0.530 -0.846 -0.062 46 134 186 0 0
4.1708 5.1866 -0.4405 -0.869 -0.337 -0.362 29 132 190 0 0
4.9065 4.1466 -0.2151 -0.179 -0.095 -0.979 19 119 174 0 0
5.7140 4.9621 -0.1627 -0.988 -0.147 -0.045 19 114 168 0 0
-0.5572 4.9080 -1.2064 -0.477 -0.877 0.060 29 32 21 0 0
-0.5425 4.9006 -1.2032 -0.534 -0.842 0.078 30 33 22 0 0
-0.5240 4.8860 -1.1987 -0.556 -0.829 0.062 32 35 24 0 0
-0.3421 4.8927 -1.1692 0.295 -0.429 -0.854 23 28 16 0 0
-0.3019 4.8996 -1.1633 -0.186 -0.672 -0.717 27 26 14 0 0
-0.2803 4.9000 -1.1597 0.311 -0.858 -0.409 22 21 12 0 0
0.0690 5.0025 -1.1123 -0.172 -0.651 -0.739 15 19 12 0 0
0.0818 4.9982 -1.1097 -0.510 -0.628 -0.588 18 21 14 0 0
0.0966 4.9889 -1.1063 -0.724 -0.595 -0.349 18 22 15 0 0
0.1080 5.0152 -1.1071 0.018 -0.373 -0.928 19 23 17 0 0
0.1444 5.0907 -1.1087 -0.123 -0.689 -0.715 20 26 20 0 0
0.3481 5.5066 -1.1172 0.152 -0.237 -0.959 20 22 17 0 0
1.6188 3.4691 -0.7002 0.146 -0.917 -0.370 60 61 66 0 0
1.7264 3.4284 -0.6783 -0.149 -0.378 0.914 124 142 148 0 0
1.7324 3.4394 -0.6784 0.043 -0.354 0.934 137 157 164 0 0
1.7381 3.4520 -0.6787 -0.627 -0.672 0.394 150 174 179 0 0
1.7533 3.4586 -0.6769 -0.844 -0.388 -0.369 149 177 183 0 0
1.8219 3.5833 -0.6782 -0.269 -0.273 0.924 161 201 206 0 0
1.8375 3.5422 -0.6714 -0.741 -0.613 -0.276 158 199 207 0 0
1.8485 3.5273 -0.6681 -0.690 -0.609 -0.391 156 199 206 0 0
1.8555 3.5354 -0.6677 -0.117 -0.749 -0.652 153 198 201 0 0
1.9230 3.3780 -0.6406 -0.329 -0.939 -0.099 143 195 209 0 0
1.9329 3.3671 -0.6379 -0.217 -0.949 -0.228 140 194 206 0 0
1.9414 3.3642 -0.6362 -0.489 -0.872 -0.014 147 199 210 0 0
1.9785 3.3330 -0.6268 -0.559 -0.824 0.089 75 128 149 0 0
2.1060 3.6077 -0.6336 -0.132 -0.621 0.773 0 100 149 0 0
2.0840 4.0238 -0.6794 -0.285 -0.563 0.776 0 93 145 0 0
2.1386 4.0282 -0.6708 -0.458 -0.848 0.268 6 67 116 0 0
2.1649 4.1360 -0.6774 -0.299 -0.556 -0.775 19 35 48 0 0
2.2237 4.1051 -0.6645 -0.137 -0.884 -0.447 24 38 49 0 0
2.2401 4.0220 -0.6534 0.074 -0.407 0.911 24 38 49 0 0
2.2492 4.0221 -0.6519 0.492 -0.838 0.235 25 37 49 0 0
2.3955 4.0243 -0.6279 -0.588 -0.770 0.249 197 226 234 0 0
2.4048 4.0211 -0.6260 -0.719 -0.628 0.297 198 227 235 0 0
2.4956 4.0349 -0.6124 0.523 -0.589 0.617 192 225 234 0 0
3.2072 4.4519 -0.5368 0.865 -0.408 0.291 191 221 231 0 0
3.4563 3.8791 -0.4375 -0.133 -0.890 0.437 186 218 229 0 0
3.4650 3.8788 -0.4360 0.050 -0.867 0.496 186 218 229 0 0
3.4741 3.8810 -0.4347 0.048 -0.985 0.163 184 216 227 0 0
3.5457 3.8888 -0.4237 0.355 -0.918 0.177 209 230 233 0 0
3.5548 3.8907 -0.4224 -0.316 -0.925 0.211 204 227 232 0 0
3.5568 3.8491 -0.4178 -0.469 -0.843 0.263 198 220 230 0 0
3.5663 3.8539 -0.4167 -0.122 -0.962 0.246 185 207 219 0 0
3.6121 3.8660 -0.4104 0.254 -0.950 0.182 126 123 116 0 0
3.6655 3.9180 -0.4068 -0.267 -0.752 0.603 135 122 113 0 0
3.6506 3.7905 -0.3963 0.854 -0.513 0.084 136 123 115 0 0
3.6782 3.8451 -0.3973 -0.123 -0.956 0.265 134 124 122 0 0
3.6868 3.8444 -0.3958 -0.123 -0.956 0.265 143 129 126 0 0
3.6953 3.8433 -0.3943 0.189 -0.967 0.170 165 150 147 0 0
3.7040 3.8434 -0.3929 0.137 -0.984 0.110 184 173 172 0 0
3.7408 3.8535 -0.3878 0.116 -0.992 0.052 88 136 174 0 0
3.7500 3.8557 -0.3865 0.353 -0.935 -0.045 58 136 184 0 0
4.2087 3.3856 -0.2629 -0.598 -0.212 -0.773 21 126 183 0 0
4.7560 4.5198 -0.2872 0.831 -0.384 -0.403 20 123 181 0 0
-0.7342 4.8164 -1.2372 -0.736 -0.578 0.353 26 33 18 0 0
-0.3536 4.9206 -1.1850 0.235 -0.390 -0.890 30 30 18 0 0
-0.3440 4.9234 -1.1837 0.235 -0.390 -0.890 33 32 20 0 0
-0.3340 4.9253 -1.1822 0.114 -0.441 -0.890 38 34 22 0 0
-0.3101 4.9210 -1.1778 -0.094 -0.582 -0.808 44 37 25 0 0
-0.2524 4.9850 -1.1748 -0.280 -0.900 -0.333 15 12 9 0 0
-0.1825 4.9528 -1.1599 -0.708 -0.622 0.336 17 15 9 0 0
-0.1499 5.1028 -1.1700 0.339 -0.468 -0.816 21 18 10 0 0
0.0133 5.0086 -1.1332 0.232 -0.273 -0.934 18 22 16 0 0
0.0641 5.0192 -1.1259 -0.172 -0.651 -0.739 17 23 16 0 0
0.2041 5.4843 -1.1507 0.256 -0.194 -0.947 23 25 20 0 0
0.2181 5.4781 -1.1477 0.301 -0.192 -0.934 23 25 19 0 0
0.2256 5.4902 -1.1477 0.309 -0.187 -0.933 23 24 19 0 0
0.3052 5.5681 -1.1426 0.221 -0.192 -0.956 21 21 16 0 0
0.4655 5.5535 -1.1145 0.589 -0.562 -0.581 45 32 28 0 0
0.4749 5.5612 -1.1137 0.501 -0.516 -0.695 48 33 27 0 0
0.9387 4.2374 -0.9004 0.395 -0.915 0.085 78 59 51 0 0
0.9472 4.2411 -0.8994 0.395 -0.915 0.085 102 84 74 0 0
1.6185 3.4766 -0.7094 0.209 -0.797 -0.566 62 64 69 0 0
1.7426 3.4366 -0.6847 -0.362 -0.566 0.741 137 156 162 0 0
1.8432 3.5182 -0.6765 -0.614 -0.326 0.719 163 204 210 0 0
1.8491 3.5320 -0.6769 -0.809 -0.571 -0.138 158 202 208 0 0
1.8616 3.5079 -0.6724 -0.205 -0.879 -0.430 153 201 203 0 0
1.9166 3.3764 -0.6497 -0.148 -0.910 -0.388 150 198 210 0 0
1.9244 3.3784 -0.6486 -0.329 -0.939 -0.099 148 196 210 0 0
1.9430 3.3633 -0.6440 -0.606 -0.796 -0.016 147 194 204 0 0
1.9516 3.3595 -0.6422 -0.416 -0.908 0.047 134 171 183 0 0
2.0884 3.9991 -0.6854 0.677 -0.604 0.422 0 96 147 0 0
2.1151 4.0055 -0.6817 -0.091 -0.911 0.401 3 91 141 0 0
2.1318 4.0203 -0.6804 -0.110 -0.911 0.398 6 78 131 0 0
2.1464 4.1499 -0.6914 0.540 -0.702 -0.465 8 36 60 0 0
2.1551 4.1561 -0.6906 0.540 -0.702 -0.465 16 35 50 0 0
2.1654 4.1473 -0.6880 -0.326 -0.583 -0.744 20 36 49 0 0
2.2232 4.1289 -0.6765 -0.511 -0.526 -0.680 24 38 49 0 0
2.2430 4.0056 -0.6605 0.119 -0.383 0.916 25 39 50 0 0
2.4987 3.9905 -0.6166 0.467 -0.882 0.068 193 226 235 0 0
2.5076 3.9953 -0.6156 0.467 -0.882 0.068 195 225 233 0 0
3.0675 4.3896 -0.5635 0.707 -0.329 -0.626 195 225 235 0 0
3.2096 4.4624 -0.5475 0.869 -0.485 0.101 191 221 231 0 0
3.4656 3.8737 -0.4444 0.177 -0.882 0.437 185 217 228 0 0
3.4749 3.8775 -0.4432 0.164 -0.877 0.452 184 216 227 0 0
3.5163 3.8610 -0.4347 -0.069 -0.987 0.147 211 231 238 0 0
3.5472 3.8899 -0.4325 0.414 -0.906 0.092 209 230 235 0 0
3.5558 3.8884 -0.4310 -0.316 -0.925 0.211 203 226 231 0 0
3.5596 3.8583 -0.4272 -0.687 -0.698 0.204 195 217 228 0 0
3.6131 3.8644 -0.4190 0.254 -0.917 0.306 127 123 117 0 0
3.6655 3.9113 -0.4151 -0.267 -0.752 0.603 135 122 113 0 0
3.6521 3.7915 -0.4050 0.854 -0.513 0.084 137 124 116 0 0
3.6790 3.8424 -0.4058 -0.182 -0.959 0.217 135 125 123 0 0
3.6871 3.8391 -0.4041 0.201 -0.965 0.171 147 133 130 0 0
3.6963 3.8420 -0.4029 0.189 -0.967 0.170 170 155 152 0 0
3.7051 3.8426 -0.4015 0.137 -0.984 0.110 188 177 175 0 0
3.7334 3.8533 -0.3979 0.387 -0.921 0.032 133 150 173 0 0
3.7421 3.8534 -0.3965 0.120 -0.992 0.048 80 134 173 0 0
3.7518 3.8582 -0.3954 0.486 -0.872 -0.055 53 136 185 0 0
3.7609 3.8601 -0.3941 0.594 -0.785 -0.175 42 136 189 0 0
4.6993 4.3010 -0.2841 0.330 -0.374 -0.866 21 124 182 0 0
5.0559 3.2182 -0.1134 -0.809 -0.207 0.550 20 110 163 0 0
-0.5492 4.7970 -1.2154 -0.318 -0.905 0.282 27 41 24 0 0
-0.3484 4.9367 -1.1967 -0.006 -0.476 -0.879 44 37 25 0 0
-0.3425 4.9473 -1.1969 0.129 -0.436 -0.891 48 40 26 0 0
-0.2514 4.9874 -1.1860 0.058 -0.864 -0.499 16 12 9 0 0
-0.2410 4.9888 -1.1844 0.049 -0.872 -0.487 18 14 11 0 0
0.0433 5.0479 -1.1435 -0.051 -0.549 -0.834 17 23 16 0 0
0.0857 5.1079 -1.1428 0.096 -0.262 -0.960 19 26 21 0 0
0.1271 5.5060 -1.1776 0.229 -0.159 -0.960 23 20 21 0 0
0.1827 5.5163 -1.1695 0.176 -0.182 -0.968 26 24 20 0 0
0.1940 5.5179 -1.1678 0.263 -0.154 -0.952 26 23 20 0 0
0.1989 5.6373 -1.1795 0.536 -0.035 -0.843 23 21 16 0 0
0.9489 4.2412 -0.9089 0.256 -0.959 0.121 109 90 83 0 0
1.0050 4.2472 -0.9002 0.185 -0.966 -0.181 127 115 103 0 0
1.6098 3.4850 -0.7201 0.048 -0.563 -0.825 60 65 71 0 0
1.6186 3.4830 -0.7185 0.023 -0.400 -0.916 60 65 69 0 0
1.7464 3.3836 -0.6869 -0.039 -0.551 0.834 84 97 105 0 0
1.7509 3.4018 -0.6880 -0.028 -0.554 0.832 106 122 129 0 0
1.7523 3.4779 -0.6958 -0.882 -0.406 -0.239 150 171 177 0 0
1.8218 3.3711 -0.6731 -0.741 -0.418 0.525 167 201 203 0 0
1.8295 3.3728 -0.6720 -0.705 -0.411 0.578 167 202 204 0 0
1.8325 3.4927 -0.6840 0.304 -0.299 0.905 168 208 208 0 0
1.8474 3.5021 -0.6825 -0.406 -0.446 0.798 169 208 214 0 0
1.8515 3.5268 -0.6845 -0.619 -0.736 0.275 163 206 212 0 0
1.9068 3.3947 -0.6614 -0.565 -0.791 -0.233 149 198 205 0 0
2.1222 4.0384 -0.6932 -0.743 -0.612 0.270 4 89 142 0 0
2.1419 4.0263 -0.6887 -0.607 -0.716 0.344 7 67 112 0 0
2.1512 4.0253 -0.6871 -0.070 -0.911 0.406 5 49 85 0 0
2.1651 4.1664 -0.6995 -0.097 -0.611 -0.785 22 38 51 0 0
2.1778 4.1315 -0.6938 -0.352 -0.753 -0.556 23 37 48 0 0
2.1970 4.1264 -0.6901 0.091 -0.819 -0.567 23 35 47 0 0
2.2445 4.0055 -0.6695 0.522 -0.648 -0.554 25 39 50 0 0
2.3611 4.0372 -0.6535 0.300 -0.868 -0.396 188 215 222 0 0
2.3709 4.0271 -0.6508 -0.342 -0.910 0.235 193 220 227 0 0
2.4919 3.9712 -0.6249 0.621 -0.783 0.035 195 225 235 0 0
2.5002 3.9911 -0.6256 0.570 -0.822 0.004 193 226 235 0 0
2.5091 3.9954 -0.6246 0.467 -0.882 0.068 196 226 234 0 0
3.2094 4.4428 -0.5555 0.845 -0.504 0.179 192 222 232 0 0
3.4528 3.8373 -0.4517 0.730 -0.673 0.119 186 218 229 0 0
3.5168 3.8559 -0.4430 -0.131 -0.989 0.062 211 231 238 0 0
3.5298 3.8830 -0.4437 0.874 -0.484 -0.039 212 231 237 0 0
3.5426 3.9076 -0.4442 0.886 -0.460 -0.052 210 231 234 0 0
3.5487 3.8906 -0.4414 0.255 -0.966 0.050 207 231 235 0 0
3.5556 3.8795 -0.4391 -0.208 -0.967 0.150 202 227 232 0 0
3.5596 3.8503 -0.4353 -0.538 -0.832 0.134 192 215 223 0 0
3.6049 3.8596 -0.4288 0.203 -0.939 0.277 124 122 117 0 0
3.6530 3.9325 -0.4285 0.673 -0.385 0.631 136 125 119 0 0
3.6656 3.9043 -0.4234 -0.193 -0.717 0.670 136 123 115 0 0
3.6714 3.8415 -0.4159 -0.182 -0.959 0.217 135 125 120 0 0
3.6799 3.8403 -0.4144 -0.182 -0.959 0.217 135 126 121 0 0
3.6882 3.8386 -0.4128 0.172 -0.976 0.134 152 139 135 0 0
3.6974 3.8407 -0.4115 0.189 -0.967 0.170 175 161 158 0 0
3.7063 3.8418 -0.4101 0.137 -0.984 0.110 189 179 177 0 0
3.7349 3.8546 -0.4067 0.456 -0.890 -0.018 122 144 171 0 0
3.7444 3.8583 -0.4056 0.457 -0.889 -0.018 73 133 173 0 0
3.7534 3.8596 -0.4042 0.486 -0.872 -0.055 48 134 184 0 0
3.7634 3.8657 -0.4032 0.543 -0.793 -0.275 41 136 191 0 0
3.7591 3.7610 -0.3929 0.927 -0.365 0.085 36 137 193 0 0
4.1128 4.4779 -0.4095 0.841 -0.334 0.426 26 130 185 0 0
4.2284 4.7443 -0.4182 0.694 -0.362 0.623 24 130 188 0 0
5.3947 5.4628 -0.3003 -0.915 -0.402 0.041 20 121 175 0 0
5.4147 5.4846 -0.2993 0.143 -0.987 -0.066 20 121 175 0 0
5.4143 5.4553 -0.2963 -0.156 -0.717 -0.679 22 121 176 0 0
-0.2919 4.9375 -1.1985 0.116 -0.628 -0.770 55 47 34 0 0
-0.2808 4.9373 -1.1966 0.116 -0.628 -0.770 43 37 25 0 0
-0.2876 5.0220 -1.2068 -0.460 -0.577 0.675 21 16 11 0 0
-0.2790 5.0274 -1.2059 -0.065 -0.993 0.098 18 14 10 0 0
-0.2413 4.9940 -1.1961 0.145 -0.877 -0.459 20 16 13 0 0
-0.2293 4.9919 -1.1939 -0.140 -0.816 -0.561 21 19 16 0 0
-0.1416 5.0936 -1.1902 0.825 -0.546 0.145 21 22 19 0 0
-0.0730 5.6878 -1.2421 -0.072 -0.300 0.951 20 21 21 0 0
-0.0539 5.6703 -1.2371 -0.167 -0.271 0.948 20 21 20 0 0
-0.0323 5.6460 -1.2309 -0.674 -0.402 0.619 20 20 21 0 0
0.0595 5.4712 -1.1971 -0.830 -0.553 -0.073 20 19 22 0 0
0.0887 5.4261 -1.1875 -0.830 -0.553 -0.073 20 19 21 0 0
0.0772 5.6128 -1.2092 0.460 -0.146 -0.876 25 19 22 0 0
0.0971 5.6243 -1.2072 0.250 -0.218 -0.943 26 19 21 0 0
0.1511 5.6417 -1.2001 0.243 -0.159 -0.957 26 19 16 0 0
0.1540 5.6671 -1.2023 0.486 -0.080 -0.870 26 19 16 0 0
0.1719 5.7885 -1.2123 0.963 -0.062 -0.262 24 17 12 0 0
0.9224 4.2390 -0.9228 -0.135 -0.984 0.119 60 36 31 0 0
0.9324 4.2379 -0.9210 -0.135 -0.984 0.119 73 49 43 0 0
0.9424 4.2367 -0.9192 -0.135 -0.984 0.119 95 74 67 0 0
0.9524 4.2355 -0.9174 -0.135 -0.984 0.119 114 96 88 0 0
1.7272 3.3262 -0.6921 -0.722 -0.530 0.445 63 67 78 0 0
1.7455 3.3148 -0.6879 -0.510 -0.588 0.627 81 86 95 0 0
1.7672 3.3677 -0.6899 0.439 -0.619 0.651 102 116 122 0 0
1.7500 3.4974 -0.7066 -0.870 -0.405 -0.280 127 147 153 0 0
1.8278 3.3897 -0.6822 -0.357 -0.508 0.784 165 201 202 0 0
1.8365 3.3868 -0.6805 -0.334 -0.498 0.801 166 204 205 0 0
1.8319 3.4574 -0.6888 0.256 -0.587 0.768 168 206 207 0 0
1.8367 3.4769 -0.6900 0.419 -0.311 0.853 170 209 208 0 0
1.8408 3.5007 -0.6919 -0.183 -0.255 0.949 174 212 213 0 0
1.8514 3.4877 -0.6888 -0.409 -0.445 0.797 172 210 216 0 0
1.8826 3.4498 -0.6796 -0.850 -0.526 -0.012 159 207 210 0 0
1.9077 3.3978 -0.6698 -0.691 -0.723 0.027 151 198 206 0 0
1.9175 3.3877 -0.6671 -0.644 -0.765 -0.028 155 199 210 0 0
2.1084 4.0114 -0.7020 -0.320 -0.932 -0.171 0 102 151 0 0
2.1644 4.1900 -0.7117 -0.012 -0.724 -0.690 22 39 49 0 0
2.1787 4.1385 -0.7039 -0.352 -0.753 -0.556 22 36 47 0 0
2.3726 4.0236 -0.6595 -0.108 -0.992 0.064 196 225 231 0 0
2.5106 3.9955 -0.6336 0.207 -0.978 0.017 196 226 234 0 0
2.5283 4.0107 -0.6323 0.244 -0.968 0.055 200 229 237 0 0
3.2468 4.5134 -0.5668 0.845 -0.519 -0.130 190 222 233 0 0
3.2576 4.5223 -0.5659 0.815 -0.578 -0.040 190 222 233 0 0
3.4538 3.8350 -0.4602 0.737 -0.627 0.251 186 218 229 0 0
3.5131 3.8796 -0.4551 0.189 -0.960 0.205 209 232 240 0 0
3.5184 3.8580 -0.4519 0.021 -0.991 -0.133 211 231 238 0 0
3.5316 3.8854 -0.4527 0.891 -0.453 0.036 212 231 237 0 0
3.5431 3.9024 -0.4526 0.614 -0.780 0.118 210 231 234 0 0
3.5484 3.8806 -0.4494 0.235 -0.969 0.075 206 230 234 0 0
3.5513 3.8448 -0.4451 -0.295 -0.951 0.088 200 225 230 0 0
3.5604 3.8476 -0.4438 -0.245 -0.967 0.071 188 212 219 0 0
3.5874 3.8521 -0.4399 0.445 -0.890 0.102 96 104 112 0 0
3.6058 3.8573 -0.4374 0.203 -0.939 0.277 126 122 119 0 0
3.6506 3.9117 -0.4357 0.696 -0.336 0.635 135 124 118 0 0
3.6659 3.8989 -0.4318 -0.430 -0.687 0.586 136 123 117 0 0
3.6695 3.8244 -0.4233 0.667 -0.741 0.077 134 124 117 0 0
3.6802 3.8354 -0.4227 0.189 -0.967 0.170 136 127 121 0 0
3.6893 3.8374 -0.4214 0.189 -0.967 0.170 155 144 140 0 0
3.6984 3.8394 -0.4201 0.189 -0.967 0.170 178 167 164 0 0
3.7074 3.8410 -0.4188 0.137 -0.984 0.110 191 182 178 0 0
3.7363 3.8551 -0.4155 0.421 -0.907 0.002 109 140 170 0 0
3.7458 3.8588 -0.4143 0.463 -0.886 -0.005 68 134 177 0 0
3.7661 3.8728 -0.4124 0.667 -0.604 -0.436 40 137 191 0 0
4.0892 4.4146 -0.4166 0.876 -0.344 0.338 28 132 187 0 0
4.1124 4.4703 -0.4187 0.885 -0.357 0.300 27 131 186 0 0
4.1672 4.6139 -0.4249 0.660 -0.339 0.670 27 132 187 0 0
5.3934 5.4555 -0.3114 -0.933 -0.352 -0.077 21 122 178 0 0
-0.3185 4.9517 -1.2154 -0.395 -0.903 -0.167 41 36 19 0 0
-0.3128 4.9628 -1.2157 -0.034 -0.640 -0.768 44 39 24 0 0
-0.2972 4.9531 -1.2120 0.116 -0.628 -0.770 44 39 25 0 0
-0.2884 4.9577 -1.2111 0.180 -0.582 -0.793 39 34 22 0 0
-0.2892 5.0300 -1.2190 -0.167 -0.505 0.847 19 17 10 0 0
-0.2431 5.0023 -1.2084 0.468 -0.877 0.109 20 20 15 0 0
-0.2347 5.0081 -1.2076 0.259 -0.956 0.136 23 23 19 0 0
-0.2226 5.0058 -1.2054 -0.058 -0.990 -0.131 24 24 20 0 0
-0.2079 5.0223 -1.2047 0.067 -0.832 -0.551 23 23 19 0 0
-0.1824 5.0643 -1.2050 0.803 -0.112 -0.585 16 20 15 0 0
-0.1752 5.1237 -1.2103 0.522 -0.142 -0.841 13 15 13 0 0
-0.1851 5.2233 -1.2227 -0.456 -0.406 -0.792 21 23 21 0 0
0.0111 5.1085 -1.1777 -0.372 -0.562 -0.739 12 17 13 0 0
-0.0539 5.3776 -1.2177 0.445 -0.119 -0.888 14 19 17 0 0
-0.0834 5.6581 -1.2529 -0.406 -0.472 0.782 21 22 22 0 0
-0.0727 5.6617 -1.2515 -0.122 -0.369 0.921 21 21 20 0 0
-0.0561 5.6506 -1.2476 -0.155 -0.367 0.917 21 21 19 0 0
-0.0436 5.6497 -1.2454 -0.160 -0.359 0.920 21 20 20 0 0
-0.0191 5.6180 -1.2379 -0.706 -0.472 0.527 20 19 20 0 0
0.0548 5.4891 -1.2117 -0.831 -0.544 0.118 21 18 19 0 0
0.1082 5.4113 -1.1944 -0.749 -0.645 -0.153 22 16 19 0 0
0.0699 5.6705 -1.2288 0.977 -0.215 -0.009 24 16 18 0 0
0.1880 5.7146 -1.2140 0.704 -0.057 -0.708 24 13 9 0 0
0.4928 5.4888 -1.1391 -0.550 -0.684 -0.480 55 33 30 0 0
0.9238 4.2401 -0.9324 -0.176 -0.984 0.035 63 37 33 0 0
0.9340 4.2382 -0.9305 -0.260 -0.960 0.105 81 55 50 0 0
0.9445 4.2356 -0.9285 -0.260 -0.960 0.105 103 81 75 0 0
1.5710 3.7101 -0.7677 -0.646 -0.433 -0.629 57 65 68 0 0
1.5854 3.6845 -0.7626 -0.704 -0.452 -0.548 57 65 68 0 0
1.6230 3.5907 -0.7462 -0.704 -0.388 -0.595 61 66 71 0 0
1.6543 3.5236 -0.7337 -0.610 -0.414 -0.675 65 69 79 0 0
1.7295 3.3216 -0.6994 -0.780 -0.612 -0.133 68 72 81 0 0
1.7411 3.3041 -0.6956 -0.717 -0.697 -0.007 66 70 79 0 0
1.8313 3.4690 -0.6985 -0.692 -0.714 -0.102 169 207 208 0 0
1.8413 3.4589 -0.6957 -0.692 -0.714 -0.102 171 210 209 0 0
1.8477 3.4693 -0.6958 -0.107 -0.584 0.804 172 210 211 0 0
1.8560 3.4690 -0.6944 -0.321 -0.395 0.861 173 211 214 0 0
1.9201 3.3802 -0.6741 -0.578 -0.805 0.130 159 202 212 0 0
1.9295 3.3724 -0.6717 -0.518 -0.850 0.093 156 196 206 0 0
2.1013 4.0066 -0.7119 -0.057 -0.954 -0.294 2 110 159 0 0
2.1795 4.1468 -0.7141 -0.420 -0.873 -0.246 21 38 48 0 0
2.2122 4.0947 -0.7031 -0.280 -0.932 0.228 26 38 50 0 0
2.3460 4.0329 -0.6742 -0.118 -0.989 0.089 194 223 229 0 0
2.3737 4.0298 -0.6693 -0.279 -0.943 -0.183 195 224 230 0 0
2.5121 3.9956 -0.6426 0.207 -0.978 0.017 197 227 235 0 0
3.4551 3.8351 -0.4689 0.772 -0.626 0.108 186 218 229 0 0
3.5496 3.8800 -0.4581 0.011 -1.000 -0.004 205 229 233 0 0
3.5531 3.8482 -0.4540 -0.571 -0.818 0.068 196 221 226 0 0
3.5616 3.8467 -0.4525 -0.245 -0.967 0.071 185 208 215 0 0
3.5886 3.8518 -0.4485 0.252 -0.963 0.095 97 103 109 0 0
3.5976 3.8532 -0.4472 0.102 -0.977 0.189 113 114 116 0 0
3.6066 3.8548 -0.4459 0.109 -0.973 0.203 129 122 120 0 0
3.6184 3.8722 -0.4458 0.567 -0.805 0.172 133 123 117 0 0
3.6410 3.9005 -0.4451 0.839 -0.537 -0.085 135 123 117 0 0
3.6651 3.8878 -0.4398 -0.432 -0.775 0.461 135 124 118 0 0
3.6724 3.8329 -0.4326 0.190 -0.979 0.078 133 122 116 0 0
3.6814 3.8348 -0.4313 0.190 -0.979 0.078 137 128 121 0 0
3.6903 3.8361 -0.4300 0.189 -0.967 0.170 159 148 145 0 0
3.6995 3.8386 -0.4287 0.095 -0.976 0.196 182 171 169 0 0
3.7084 3.8394 -0.4274 0.201 -0.965 0.171 193 183 180 0 0
4.0989 4.4895 -0.4330 0.762 -0.467 0.449 29 133 188 0 0
4.1113 4.4600 -0.4277 0.885 -0.357 0.300 29 133 188 0 0
4.1294 4.4944 -0.4285 0.879 -0.445 0.170 27 132 187 0 0
4.1622 4.5879 -0.4331 0.660 -0.339 0.670 27 132 187 0 0
4.1690 4.5357 -0.4264 0.751 -0.538 -0.383 26 133 189 0 0
5.3956 5.4572 -0.3228 -0.904 -0.420 0.085 22 123 179 0 0
-0.3102 4.9618 -1.2262 0.380 -0.327 -0.865 35 35 21 0 0
-0.3000 4.9634 -1.2246 0.504 -0.267 -0.822 33 33 19 0 0
-0.2944 4.9749 -1.2250 0.504 -0.267 -0.822 27 27 16 0 0
-0.2775 4.9624 -1.2208 -0.166 -0.699 -0.695 25 26 16 0 0
-0.2843 5.0241 -1.2287 -0.421 -0.624 0.659 18 20 12 0 0
-0.2322 5.0073 -1.2182 0.259 -0.956 0.136 23 27 22 0 0
-0.2212 5.0075 -1.2165 0.098 -0.980 -0.173 23 27 22 0 0
-0.1828 5.0698 -1.2169 0.885 -0.113 -0.451 18 25 22 0 0
-0.1910 5.1133 -1.2231 0.685 -0.113 -0.720 16 23 22 0 0
-0.1740 5.2290 -1.2330 -0.426 -0.436 -0.793 20 23 21 0 0
-0.0908 5.2486 -1.2213 0.249 -0.246 -0.937 19 21 20 0 0
-0.0200 5.1342 -1.1970 -0.665 -0.533 -0.524 16 17 17 0 0
0.0192 5.0942 -1.1861 -0.198 -0.484 -0.852 14 16 15 0 0
-0.0547 5.6219 -1.2564 -0.222 -0.353 0.909 22 19 17 0 0
-0.0414 5.6187 -1.2538 -0.171 -0.280 0.945 22 19 16 0 0
-0.0044 5.5859 -1.2441 -0.636 -0.413 0.652 20 17 17 0 0
0.0264 5.5373 -1.2336 -0.819 -0.536 0.203 20 16 16 0 0
0.0099 5.6424 -1.2479 0.253 -0.537 0.805 21 14 15 0 0
0.0225 5.6414 -1.2458 0.539 -0.412 0.735 22 14 15 0 0
0.0403 5.6582 -1.2446 0.765 -0.493 0.415 23 14 16 0 0
0.0514 5.6611 -1.2431 0.883 -0.450 0.136 24 14 16 0 0
0.0881 5.6605 -1.2370 0.413 -0.413 0.812 24 13 13 0 0
0.4540 5.5056 -1.1593 -0.175 -0.659 -0.731 39 21 20 0 0
0.4638 5.5118 -1.1583 -0.046 -0.719 -0.694 46 26 25 0 0
0.9357 4.2382 -0.9400 -0.295 -0.950 0.104 90 63 59 0 0
0.9896 4.2199 -0.9290 -0.488 -0.833 0.259 127 114 103 0 0
1.0715 4.1700 -0.9099 0.317 -0.929 0.191 131 123 117 0 0
1.4009 4.0256 -0.8394 0.244 -0.583 -0.775 164 170 170 0 0
1.7310 3.3211 -0.7072 -0.395 -0.862 -0.317 72 76 85 0 0
1.8082 3.3795 -0.7008 -0.845 -0.423 0.328 158 182 186 0 0
1.8408 3.4697 -0.7053 -0.334 -0.875 -0.352 170 208 209 0 0
1.9126 3.3851 -0.6841 -0.639 -0.702 0.314 170 209 216 0 0
2.3472 4.0374 -0.6838 0.109 -0.993 0.038 182 211 217 0 0
2.4873 3.9689 -0.6530 0.601 -0.783 0.163 197 226 234 0 0
2.5135 3.9958 -0.6516 0.207 -0.978 0.017 198 227 233 0 0
2.5311 4.0155 -0.6509 0.403 -0.885 0.236 201 230 236 0 0
3.2024 4.5357 -0.5968 0.052 -0.401 -0.915 193 225 236 0 0
3.2147 4.5629 -0.5977 0.090 -0.431 -0.898 193 225 236 0 0
3.5216 3.8616 -0.4697 -0.537 -0.833 -0.135 211 230 236 0 0
3.5430 3.8856 -0.4688 0.439 -0.897 0.051 207 231 235 0 0
3.5444 3.8402 -0.4635 -0.583 -0.780 0.227 203 228 232 0 0
3.5555 3.8544 -0.4633 -0.740 -0.653 0.162 194 219 224 0 0
3.5629 3.8469 -0.4612 -0.171 -0.978 0.123 181 204 212 0 0
3.5805 3.8474 -0.4583 0.540 -0.839 0.066 115 126 133 0 0
3.5902 3.8534 -0.4574 0.433 -0.889 0.148 104 108 113 0 0
3.5987 3.8521 -0.4558 0.103 -0.969 0.223 120 117 118 0 0
3.6092 3.8621 -0.4552 0.393 -0.899 0.193 131 123 121 0 0
3.6188 3.8670 -0.4541 0.454 -0.872 0.182 134 123 117 0 0
3.6432 3.9053 -0.4543 0.825 -0.554 -0.107 136 123 117 0 0
3.6564 3.8813 -0.4495 -0.382 -0.849 0.366 132 123 118 0 0
3.6629 3.8687 -0.4470 0.097 -0.947 0.307 135 125 120 0 0
3.6736 3.8324 -0.4413 0.190 -0.979 0.078 135 124 118 0 0
3.6826 3.8343 -0.4400 0.190 -0.979 0.078 143 132 126 0 0
3.6914 3.8348 -0.4386 0.110 -0.989 0.101 163 153 150 0 0
3.7005 3.8369 -0.4373 0.095 -0.976 0.196 183 173 171 0 0
3.7094 3.8381 -0.4359 0.201 -0.965 0.171 191 181 179 0 0
4.1138 4.5048 -0.4422 0.765 -0.463 0.448 30 135 190 0 0
4.1282 4.4837 -0.4375 0.875 -0.446 0.186 29 134 189 0 0
4.1421 4.5005 -0.4370 0.791 -0.512 -0.337 29 134 189 0 0
4.1580 4.5251 -0.4371 0.791 -0.512 -0.337 27 134 188 0 0
4.1901 4.5749 -0.4373 0.791 -0.512 -0.337 25 133 189 0 0
4.2275 4.6831 -0.4430 0.596 -0.376 0.710 23 132 188 0 0
4.2511 4.7363 -0.4449 0.677 -0.325 0.660 23 132 188 0 0
-0.3736 4.9833 -1.2501 0.463 -0.595 0.657 37 37 20 0 0
-0.3307 4.9860 -1.2433 0.327 -0.896 0.300 29 34 22 0 0
-0.3253 4.9979 -1.2438 0.409 -0.700 -0.586 28 34 22 0 0
-0.3053 4.9790 -1.2383 0.232 -0.656 -0.718 26 31 19 0 0
-0.2748 5.0081 -1.2365 0.050 -0.628 0.777 18 23 16 0 0
-0.2314 5.0101 -1.2295 0.551 -0.779 0.297 22 28 24 0 0
-0.2267 5.0239 -1.2303 0.602 -0.774 -0.195 21 26 22 0 0
-0.2165 5.0260 -1.2289 -0.251 -0.796 -0.551 19 25 21 0 0
-0.2077 5.0311 -1.2280 0.265 -0.921 -0.287 20 25 21 0 0
-0.2028 5.0446 -1.2286 0.855 -0.506 -0.111 20 26 22 0 0
-0.2022 5.1685 -1.2424 0.701 -0.110 -0.704 17 23 23 0 0
-0.2124 5.2174 -1.2495 0.570 -0.126 -0.812 17 21 22 0 0
-0.1127 5.2783 -1.2398 0.211 -0.321 -0.923 23 21 22 0 0
-0.1018 5.2798 -1.2382 0.161 -0.328 -0.931 22 20 20 0 0
-0.0449 5.5121 -1.2547 0.762 -0.529 -0.374 24 16 20 0 0
-0.0312 5.5377 -1.2553 0.810 -0.388 -0.441 23 16 15 0 0
-0.0275 5.5584 -1.2570 0.736 -0.392 -0.552 21 15 12 0 0
-0.0222 5.5756 -1.2580 0.549 -0.473 -0.689 21 15 12 0 0
-0.0138 5.5848 -1.2576 0.549 -0.473 -0.689 20 14 12 0 0
-0.0059 5.5955 -1.2575 0.666 -0.541 -0.513 20 14 12 0 0
0.0029 5.6039 -1.2570 0.592 -0.644 -0.485 20 12 11 0 0
0.0127 5.6096 -1.2560 0.619 -0.782 0.071 19 12 10 0 0
0.0178 5.6278 -1.2572 0.803 -0.594 0.043 20 12 10 0 0
0.0421 5.6276 -1.2532 0.571 -0.294 0.766 20 11 10 0 0
0.0460 5.6490 -1.2549 0.791 -0.396 0.466 21 11 11 0 0
0.0531 5.6626 -1.2552 0.791 -0.396 0.466 21 11 11 0 0
0.0603 5.6757 -1.2555 0.953 -0.260 0.154 21 11 10 0 0
0.1253 5.6644 -1.2435 0.775 -0.417 0.474 24 11 11 0 0
0.2294 5.6445 -1.2240 0.542 -0.067 -0.838 26 12 9 0 0
0.2986 5.6191 -1.2096 0.516 -0.626 0.585 28 13 10 0 0
0.3777 5.5630 -1.1903 -0.367 -0.259 0.893 32 15 13 0 0
0.3914 5.5577 -1.1874 -0.492 -0.243 0.836 32 17 14 0 0
1.4440 4.1274 -0.8530 0.499 -0.828 -0.255 131 137 141 0 0
1.4512 4.1372 -0.8529 0.517 -0.833 -0.196 111 118 120 0 0
1.4579 4.1490 -0.8531 0.502 -0.837 -0.219 90 95 98 0 0
1.4665 4.1530 -0.8521 0.612 -0.744 0.267 73 79 82 0 0
1.5796 3.8461 -0.7991 0.589 -0.235 -0.773 63 68 72 0 0
1.5754 3.9078 -0.8066 -0.276 -0.944 -0.182 66 71 77 0 0
1.6460 3.6569 -0.7669 -0.019 -0.481 -0.877 67 71 80 0 0
1.8159 3.5707 -0.7291 -0.312 -0.792 0.524 168 202 204 0 0
1.8309 3.5338 -0.7225 -0.628 -0.559 -0.541 170 205 207 0 0
2.4987 3.9451 -0.6576 -0.168 -0.896 -0.410 196 227 232 0 0
3.5235 3.8649 -0.4787 -0.477 -0.878 -0.039 211 230 234 0 0
3.5340 3.8760 -0.4782 0.593 -0.793 0.144 210 231 234 0 0
3.5421 3.8720 -0.4764 0.406 -0.909 0.090 206 230 234 0 0
3.5563 3.8514 -0.4717 -0.740 -0.653 0.162 191 217 224 0 0
3.5816 3.8466 -0.4670 0.503 -0.862 0.070 106 116 122 0 0
3.5913 3.8523 -0.4660 0.503 -0.862 0.070 110 112 116 0 0
3.5997 3.8503 -0.4644 0.103 -0.969 0.223 124 119 120 0 0
3.6103 3.8608 -0.4638 0.393 -0.899 0.193 133 124 120 0 0
3.6320 3.8843 -0.4628 0.848 -0.478 -0.228 131 121 112 0 0
3.6456 3.9114 -0.4636 0.820 -0.567 0.086 132 122 113 0 0
3.6653 3.8745 -0.4562 -0.447 -0.884 0.133 134 125 120 0 0
3.6660 3.8317 -0.4513 0.056 -0.984 0.170 134 125 118 0 0
3.6746 3.8310 -0.4498 0.209 -0.968 0.137 136 125 119 0 0
3.6836 3.8327 -0.4485 0.281 -0.951 0.128 147 136 130 0 0
3.6925 3.8342 -0.4472 0.095 -0.976 0.196 168 158 155 0 0
3.7015 3.8353 -0.4458 0.095 -0.976 0.196 184 176 174 0 0
