ply
format ascii 1.0
element vertex 839
property float x
property float y
property float z
property float nx
property float ny
property float nz
property uchar diffuse_red
property uchar diffuse_green
property uchar diffuse_blue
property uchar class
property uchar detection
end_header
5.9169 6.4454 0.1955 -0.722 -0.104 -0.684 19 95 145 0 0
5.8881 6.3602 0.1942 -0.486 -0.132 -0.864 19 95 145 0 0
4.5839 3.5394 0.1244 -0.896 -0.141 -0.420 18 94 144 0 0
-1.3070 4.6558 -0.3471 0.515 -0.304 -0.801 84 69 65 0 0
-1.3042 4.6694 -0.3470 0.663 -0.303 -0.685 109 90 86 0 0
-1.3019 4.6840 -0.3470 0.792 -0.228 -0.566 117 97 90 0 0
-2.0359 6.1628 -0.4211 -0.745 -0.606 0.278 18 16 13 0 0
-2.0150 6.1490 -0.4194 -0.727 -0.613 0.308 12 10 10 0 0
-1.9974 6.1409 -0.4179 -0.695 -0.629 0.350 11 9 10 0 0
-1.9938 6.1585 -0.4179 -0.642 -0.677 0.361 13 11 13 0 0
-1.9620 6.1729 -0.4156 -0.577 -0.771 -0.268 24 20 21 0 0
-2.0080 6.2823 -0.4205 -0.407 -0.876 -0.260 34 29 30 0 0
-1.9902 6.2743 -0.4190 -0.767 -0.636 -0.087 48 39 39 0 0
-1.9379 6.3020 -0.4153 -0.034 -0.996 -0.079 86 75 72 0 0
-1.9403 6.3320 -0.4159 -0.354 -0.906 -0.231 90 79 77 0 0
-1.9165 6.3126 -0.4138 -0.619 -0.784 -0.045 91 80 78 0 0
-1.9235 6.3515 -0.4148 0.626 -0.765 0.150 93 81 78 0 0
-1.9008 6.3341 -0.4129 0.331 -0.866 0.376 95 83 80 0 0
-1.8589 6.2798 -0.4090 -0.174 -0.707 0.686 97 85 81 0 0
-1.8399 6.2691 -0.4075 -0.537 -0.712 0.452 98 84 81 0 0
-1.4845 5.7294 -0.3737 -0.500 -0.683 0.533 97 87 77 0 0
-1.4984 5.8060 -0.3757 -0.728 -0.670 -0.143 100 85 78 0 0
-1.4699 5.7745 -0.3732 -0.728 -0.670 -0.143 103 86 79 0 0
-1.3735 5.7063 -0.3650 0.190 -0.916 -0.353 166 149 141 0 0
-1.2897 5.8430 -0.3603 -0.313 -0.447 -0.838 162 129 122 0 0
-1.1277 5.7645 -0.3469 -0.641 -0.755 -0.137 13 9 11 0 0
-1.2205 6.0530 -0.3576 -0.806 -0.581 -0.110 18 13 10 0 0
-1.2034 6.0437 -0.3561 -0.731 -0.681 -0.042 19 14 10 0 0
-1.1782 6.0166 -0.3539 -0.731 -0.681 -0.042 23 18 14 0 0
-1.1412 5.9913 -0.3508 -0.024 -0.934 -0.356 29 20 18 0 0
-1.1196 6.0596 -0.3499 -0.501 -0.838 -0.217 51 36 36 0 0
-1.1029 6.0511 -0.3486 -0.557 -0.800 -0.222 69 53 53 0 0
-1.0841 6.0375 -0.3470 -0.557 -0.800 -0.222 65 50 50 0 0
-1.0501 6.1718 -0.3460 0.480 -0.872 -0.092 8 6 7 0 0
-1.0375 6.1732 -0.3451 0.326 -0.915 -0.238 8 6 5 0 0
-0.8682 6.1448 -0.3318 0.705 -0.687 0.175 137 124 119 0 0
-0.8645 6.1686 -0.3318 0.419 -0.905 0.081 138 126 120 0 0
-0.8613 6.2272 -0.3323 -0.815 -0.487 -0.314 141 128 122 0 0
-0.7808 6.1560 -0.3253 -0.307 -0.948 -0.082 141 132 129 0 0
-0.7275 6.1195 -0.3208 -0.646 -0.730 -0.221 122 118 114 0 0
-0.5787 6.2515 -0.3110 -0.238 -0.790 0.565 36 56 72 0 0
-0.5702 6.3028 -0.3110 -0.385 -0.406 0.829 42 61 78 0 0
-0.2929 6.5753 -0.2932 0.338 -0.869 -0.362 170 159 158 0 0
-0.2719 6.5974 -0.2918 -0.038 -0.975 -0.220 175 161 160 0 0
-0.0489 6.7990 -0.2773 0.625 -0.650 -0.432 141 142 154 0 0
-0.0374 6.8091 -0.2765 0.475 -0.740 -0.476 155 150 155 0 0
0.1408 6.7758 -0.2625 -0.065 -0.735 -0.675 149 132 125 0 0
0.1528 6.7846 -0.2617 0.667 -0.741 -0.073 146 132 123 0 0
0.7572 5.1179 -0.1952 -0.862 -0.507 -0.005 43 100 143 0 0
0.8230 4.9610 -0.1883 0.074 -0.378 -0.923 42 103 147 0 0
0.8314 4.9735 -0.1878 -0.852 -0.426 -0.305 41 102 147 0 0
0.8521 4.9251 -0.1856 -0.806 -0.391 -0.444 43 104 149 0 0
0.9339 4.6220 -0.1757 -0.956 -0.288 0.057 46 103 148 0 0
1.3245 4.2678 -0.1415 0.392 -0.906 -0.158 72 72 74 0 0
1.3336 4.2720 -0.1409 0.354 -0.935 -0.015 56 60 63 0 0
1.4305 4.2732 -0.1335 0.704 -0.326 -0.631 22 21 26 0 0
1.5224 4.1401 -0.1249 0.553 -0.643 0.530 20 20 22 0 0
1.5314 4.1441 -0.1242 0.219 -0.801 0.558 20 20 22 0 0
1.5406 4.1469 -0.1236 0.117 -0.871 0.477 21 21 23 0 0
1.5492 4.1549 -0.1230 0.405 -0.844 0.351 23 23 25 0 0
1.8895 4.1744 -0.0973 -0.104 -0.981 0.163 185 200 203 0 0
1.9977 3.9912 -0.0868 -0.653 -0.756 0.040 169 197 201 0 0
2.0071 3.9838 -0.0860 -0.664 -0.745 -0.071 170 198 202 0 0
2.0163 3.9770 -0.0852 -0.693 -0.702 -0.161 168 193 198 0 0
2.0256 3.9676 -0.0844 -0.693 -0.702 -0.161 170 195 200 0 0
2.0441 3.9516 -0.0828 -0.565 -0.785 -0.256 175 198 204 0 0
2.0703 4.0870 -0.0824 -0.650 -0.729 -0.217 179 196 204 0 0
2.0806 3.9286 -0.0797 -0.661 -0.745 -0.095 178 193 200 0 0
2.3529 4.1573 -0.0617 -0.721 -0.231 0.653 33 29 30 0 0
2.4481 4.1734 -0.0546 -0.585 -0.380 -0.716 135 124 118 0 0
2.4644 4.1336 -0.0529 -0.784 -0.292 -0.548 129 118 112 0 0
2.8664 3.8728 -0.0191 0.564 -0.826 0.028 138 121 113 0 0
2.8768 3.8828 -0.0184 -0.543 -0.739 0.400 140 121 114 0 0
2.8992 3.9131 -0.0170 0.183 -0.636 -0.750 140 123 113 0 0
3.0138 4.0082 -0.0095 0.784 -0.325 -0.528 137 122 115 0 0
2.9632 3.6586 -0.0091 0.300 -0.388 -0.872 136 123 115 0 0
2.9800 3.6574 -0.0078 0.832 -0.411 -0.373 134 124 115 0 0
3.2061 3.8832 0.0067 0.232 -0.152 -0.961 124 125 129 0 0
3.2337 3.9292 0.0083 0.761 -0.239 -0.603 117 124 134 0 0
3.2596 4.0079 0.0093 0.752 -0.234 -0.616 114 123 136 0 0
3.4558 4.2963 0.0207 -0.007 -0.173 -0.985 53 120 163 0 0
3.4497 4.1537 0.0220 -0.673 -0.574 -0.467 37 119 163 0 0
3.5187 4.2420 0.0262 0.709 -0.400 -0.582 34 121 167 0 0
3.5381 4.2808 0.0272 0.657 -0.367 -0.659 35 120 167 0 0
3.7078 4.4109 0.0386 -0.319 -0.744 -0.587 30 118 168 0 0
3.9039 3.9822 0.0588 0.245 -0.442 -0.863 23 109 159 0 0
3.9648 3.9254 0.0641 0.411 -0.487 -0.771 19 106 157 0 0
3.9844 3.9553 0.0652 0.374 -0.496 -0.784 20 107 157 0 0
4.0085 3.9980 0.0666 -0.208 -0.648 -0.733 20 106 157 0 0
4.0310 4.0357 0.0678 -0.862 -0.401 0.310 20 106 155 0 0
4.4364 4.0506 0.0986 -0.514 -0.271 -0.813 20 100 153 0 0
-1.3327 4.6656 -0.3597 0.679 -0.212 -0.703 77 67 65 0 0
-1.3274 4.6748 -0.3594 0.730 -0.200 -0.654 73 58 55 0 0
-1.3128 4.6679 -0.3582 0.550 -0.289 -0.783 95 76 71 0 0
-1.3058 4.6742 -0.3577 0.544 -0.286 -0.789 111 89 84 0 0
-1.3005 4.6835 -0.3574 0.544 -0.286 -0.789 115 92 86 0 0
-1.9440 6.0940 -0.4263 -0.734 -0.543 0.409 14 12 14 0 0
-2.0089 6.2866 -0.4339 -0.551 -0.817 -0.169 35 30 29 0 0
-1.9527 6.3326 -0.4302 0.375 -0.882 -0.286 86 75 72 0 0
-1.9401 6.3343 -0.4293 -0.087 -0.934 -0.346 90 79 77 0 0
-1.9224 6.3522 -0.4282 0.550 -0.834 0.053 91 81 77 0 0
-1.8700 6.2779 -0.4232 0.172 -0.769 0.616 93 83 79 0 0
-1.7250 6.1012 -0.4096 -0.825 -0.553 -0.120 98 85 79 0 0
-1.2843 5.8611 -0.3726 -0.296 -0.459 -0.838 166 146 137 0 0
-1.2790 5.8767 -0.3725 -0.276 -0.514 -0.812 162 148 138 0 0
-1.2272 6.0707 -0.3712 -0.735 -0.674 -0.079 18 13 10 0 0
-1.2014 6.0424 -0.3688 -0.735 -0.674 -0.079 19 14 10 0 0
-1.1774 6.0175 -0.3667 -0.705 -0.696 -0.138 22 17 13 0 0
-1.1548 5.9958 -0.3646 -0.700 -0.707 -0.104 25 20 16 0 0
-1.1189 6.0609 -0.3628 -0.456 -0.847 -0.275 46 30 30 0 0
-1.1018 6.0516 -0.3614 -0.499 -0.828 -0.256 54 38 38 0 0
-1.0840 6.0403 -0.3598 -0.499 -0.828 -0.256 46 32 31 0 0
-0.8346 6.0638 -0.3411 -0.356 -0.924 -0.137 137 123 119 0 0
-0.8693 6.2507 -0.3464 -0.771 -0.499 -0.395 141 128 122 0 0
-0.7836 6.1665 -0.3387 0.001 -0.952 -0.305 142 132 129 0 0
-0.5747 6.2438 -0.3238 -0.260 -0.901 0.348 42 61 76 0 0
-0.0384 6.8179 -0.2909 0.408 -0.744 -0.530 150 145 150 0 0
0.1388 6.7892 -0.2769 -0.065 -0.735 -0.675 148 131 124 0 0
0.1536 6.7867 -0.2758 0.709 -0.705 0.025 146 132 123 0 0
0.8263 4.9498 -0.1988 -0.197 -0.643 -0.740 41 102 146 0 0
1.1019 4.3228 -0.1690 -0.227 -0.904 0.361 133 114 100 0 0
1.3353 4.2651 -0.1504 0.166 -0.971 -0.171 53 59 59 0 0
1.3365 4.3271 -0.1511 -0.864 -0.401 -0.304 51 60 59 0 0
1.4384 4.2948 -0.1429 0.346 -0.390 -0.853 17 16 21 0 0
1.4469 4.3051 -0.1424 0.425 -0.509 0.749 21 20 25 0 0
1.5216 4.2438 -0.1359 -0.154 -0.844 0.513 20 20 22 0 0
1.5424 4.2295 -0.1341 0.352 -0.926 0.139 20 20 22 0 0
1.6626 4.2878 -0.1257 -0.887 -0.363 0.286 26 30 33 0 0
1.7637 4.0746 -0.1150 -0.290 -0.192 -0.938 17 25 27 0 0
1.8204 4.4284 -0.1156 -0.042 -0.144 -0.989 181 190 187 0 0
1.8902 4.1732 -0.1067 -0.484 -0.869 0.103 201 215 216 0 0
1.8999 4.1679 -0.1059 -0.484 -0.869 0.103 195 210 213 0 0
1.9617 3.9947 -0.0988 -0.015 -0.876 -0.483 174 194 201 0 0
2.0077 3.9856 -0.0951 -0.680 -0.728 -0.088 169 196 203 0 0
2.0170 3.9784 -0.0943 -0.693 -0.702 -0.161 169 196 203 0 0
2.0263 3.9673 -0.0935 -0.714 -0.698 -0.058 172 199 206 0 0
2.0355 3.9613 -0.0927 -0.614 -0.744 -0.264 171 196 203 0 0
2.0710 4.0885 -0.0917 -0.690 -0.711 -0.135 175 195 204 0 0
2.0813 3.9270 -0.0887 -0.690 -0.723 0.027 176 196 205 0 0
2.0910 3.7737 -0.0858 -0.172 -0.684 0.709 177 195 205 0 0
2.5356 4.0766 -0.0561 0.191 -0.259 0.947 131 120 116 0 0
2.6455 4.0629 -0.0475 -0.563 -0.585 0.584 136 119 109 0 0
2.8241 4.0180 -0.0333 -0.707 -0.692 0.145 136 123 115 0 0
2.8324 4.0117 -0.0325 -0.428 -0.860 0.279 137 124 116 0 0
2.8409 4.0069 -0.0318 -0.519 -0.672 0.529 136 123 115 0 0
2.8680 3.8794 -0.0280 0.754 -0.650 -0.093 139 120 113 0 0
3.0666 3.7993 -0.0117 0.889 -0.389 -0.241 136 123 114 0 0
3.0818 3.8338 -0.0110 0.889 -0.389 -0.241 137 124 115 0 0
3.1387 3.9915 -0.0089 0.893 -0.391 0.222 139 122 115 0 0
3.1740 4.0789 -0.0074 0.907 -0.350 0.233 140 123 115 0 0
3.1515 3.8741 -0.0063 0.163 -0.169 -0.972 141 124 114 0 0
3.2188 3.9412 -0.0021 0.259 -0.167 -0.951 135 124 120 0 0
3.2502 4.0040 -0.0005 0.761 -0.239 -0.603 132 124 122 0 0
3.2756 4.0794 0.0003 0.805 -0.242 -0.542 129 123 123 0 0
3.5076 4.2332 0.0159 0.870 -0.421 -0.258 44 120 160 0 0
3.5635 4.1942 0.0207 0.716 -0.440 0.542 35 118 170 0 0
3.6882 4.1706 0.0306 0.312 -0.885 0.344 27 119 170 0 0
3.6980 4.1724 0.0313 -0.888 -0.439 -0.137 27 119 169 0 0
3.9105 4.0002 0.0499 0.245 -0.632 -0.735 23 109 159 0 0
3.9767 4.1412 0.0530 -0.745 -0.353 0.566 23 109 161 0 0
3.9602 3.9360 0.0546 0.505 -0.530 -0.681 19 106 158 0 0
3.9730 3.9472 0.0554 0.505 -0.530 -0.681 19 107 157 0 0
3.9917 3.9747 0.0565 0.374 -0.496 -0.784 20 107 157 0 0
4.0492 4.0093 0.0604 -0.095 -0.896 0.433 30 113 165 0 0
4.3370 4.2088 0.0796 0.754 -0.638 0.155 23 101 152 0 0
4.4342 4.1733 0.0875 -0.636 -0.089 -0.766 20 101 154 0 0
4.4504 4.0609 0.0903 -0.553 -0.234 -0.800 18 98 151 0 0
-1.3442 4.6876 -0.3714 0.896 -0.246 -0.370 97 85 83 0 0
-1.3133 4.6894 -0.3690 0.505 -0.286 -0.814 93 67 63 0 0
-1.3081 4.6989 -0.3688 0.448 -0.344 -0.825 102 77 71 0 0
-0.4665 3.2880 -0.2824 -0.255 -0.944 -0.210 63 60 53 0 0
-2.0053 6.1126 -0.4442 -0.430 -0.425 0.796 15 14 12 0 0
-1.9808 6.0920 -0.4420 -0.430 -0.425 0.796 11 10 9 0 0
-1.9657 6.0884 -0.4408 -0.361 -0.398 0.843 11 10 10 0 0
-1.9516 6.3333 -0.4436 -0.121 -0.958 -0.260 86 75 71 0 0
-1.9348 6.3271 -0.4422 -0.290 -0.904 -0.313 89 79 75 0 0
-1.8682 6.2773 -0.4363 -0.307 -0.895 0.323 92 84 78 0 0
-1.4790 5.7729 -0.3987 -0.712 -0.666 -0.223 99 84 77 0 0
-1.2657 5.8782 -0.3840 -0.263 -0.932 -0.248 165 146 139 0 0
-1.2510 5.8737 -0.3828 -0.263 -0.932 -0.248 161 147 139 0 0
-1.1899 5.9910 -0.3800 0.642 -0.157 -0.751 19 14 11 0 0
-1.2011 6.0446 -0.3817 -0.705 -0.696 -0.138 19 14 10 0 0
-1.1771 6.0198 -0.3795 -0.705 -0.696 -0.138 22 17 13 0 0
-1.1529 5.9946 -0.3773 -0.727 -0.687 0.003 25 20 16 0 0
-1.1356 6.0725 -0.3772 -0.219 -0.975 -0.033 34 21 18 0 0
-1.1203 6.0672 -0.3759 -0.410 -0.910 -0.055 40 25 23 0 0
-1.1046 6.0610 -0.3746 -0.580 -0.792 -0.191 47 32 29 0 0
-1.0853 6.0464 -0.3729 -0.573 -0.784 -0.238 45 31 29 0 0
-1.0468 6.2333 -0.3729 -0.764 -0.550 -0.337 10 7 4 0 0
-0.8349 6.0677 -0.3541 -0.117 -0.993 0.016 137 123 119 0 0
-0.8781 6.2427 -0.3602 0.600 -0.741 -0.301 140 127 121 0 0
-0.8772 6.2742 -0.3606 -0.771 -0.499 -0.395 141 128 122 0 0
-0.7846 6.1725 -0.3519 -0.181 -0.909 -0.376 142 131 128 0 0
-0.6817 6.2141 -0.3447 0.013 -0.984 0.176 65 53 51 0 0
-0.6056 6.2597 -0.3396 0.001 -0.931 -0.366 29 47 61 0 0
-0.5886 6.2492 -0.3381 -0.194 -0.960 -0.200 37 56 71 0 0
-0.5775 6.2553 -0.3374 -0.228 -0.962 0.149 45 62 76 0 0
-0.5512 6.2560 -0.3354 -0.406 -0.583 0.704 49 63 78 0 0
-0.4410 6.6145 -0.3326 -0.040 -0.938 -0.345 42 39 38 0 0
-0.4205 6.7259 -0.3328 -0.504 -0.739 -0.446 51 42 43 0 0
-0.0957 6.8243 -0.3095 -0.543 -0.825 -0.154 138 136 144 0 0
-0.0506 6.8152 -0.3059 0.727 -0.671 -0.144 127 128 139 0 0
-0.0392 6.8257 -0.3052 0.543 -0.771 -0.333 151 146 151 0 0
0.5724 5.3952 -0.2361 0.964 -0.112 -0.241 7 7 7 0 0
0.8333 4.9736 -0.2095 -0.897 -0.431 0.102 42 103 147 0 0
1.1035 4.3186 -0.1786 -0.227 -0.904 0.361 133 114 100 0 0
1.2585 4.2654 -0.1659 -0.197 -0.969 0.147 14 18 21 0 0
1.3278 4.2557 -0.1605 -0.148 -0.989 0.024 9 15 13 0 0
1.4324 4.2699 -0.1527 0.605 -0.764 0.226 21 21 23 0 0
1.4398 4.2890 -0.1525 0.590 -0.567 0.575 22 22 24 0 0
1.4481 4.3014 -0.1520 0.582 -0.535 0.612 18 18 20 0 0
1.5322 4.2423 -0.1447 0.102 -0.562 0.821 17 18 20 0 0
1.5422 4.2387 -0.1439 0.248 -0.706 0.664 20 21 23 0 0
1.5514 4.2424 -0.1432 0.259 -0.722 0.641 21 21 21 0 0
1.7609 4.1297 -0.1254 -0.282 -0.195 -0.939 18 26 29 0 0
1.8184 4.1112 -0.1208 0.914 -0.117 -0.389 23 28 31 0 0
1.8908 4.1765 -0.1162 -0.578 -0.800 0.163 182 190 192 0 0
1.9007 4.1666 -0.1153 -0.526 -0.825 0.204 187 197 198 0 0
1.9199 4.1606 -0.1138 -0.356 -0.881 0.310 191 202 204 0 0
1.9759 4.1897 -0.1100 -0.246 -0.392 -0.886 187 202 205 0 0
1.9898 3.9974 -0.1059 -0.227 -0.921 -0.317 183 201 205 0 0
2.0457 3.9347 -0.1006 -0.526 -0.752 0.398 175 198 206 0 0
2.0548 3.9294 -0.0998 -0.406 -0.756 0.514 174 196 207 0 0
2.0639 3.9250 -0.0991 -0.406 -0.756 0.514 172 194 205 0 0
2.0729 3.9237 -0.0984 -0.317 -0.832 0.456 171 195 205 0 0
2.3543 4.1580 -0.0806 -0.656 -0.357 -0.665 26 30 33 0 0
2.4853 4.0107 -0.0682 -0.426 -0.844 -0.327 85 81 80 0 0
2.4933 3.9942 -0.0674 -0.492 -0.624 -0.607 96 92 91 0 0
2.5022 3.9920 -0.0667 0.425 -0.713 -0.558 105 101 100 0 0
2.5118 3.9984 -0.0660 0.226 -0.822 -0.523 115 109 109 0 0
2.5212 4.0019 -0.0654 0.197 -0.832 -0.519 122 117 114 0 0
2.5986 3.9489 -0.0586 -0.883 -0.297 -0.363 134 120 111 0 0
2.6305 3.9060 -0.0555 -0.753 -0.656 0.054 133 119 110 0 0
3.0694 3.8117 -0.0205 0.883 -0.389 -0.263 136 124 110 0 0
3.0999 3.8799 -0.0192 0.879 -0.384 -0.284 138 122 109 0 0
3.1376 3.9830 -0.0180 0.898 -0.377 0.227 139 121 111 0 0
3.1733 3.9354 -0.0145 0.372 -0.175 -0.912 141 123 113 0 0
3.1858 3.9525 -0.0138 0.313 -0.175 -0.933 140 123 113 0 0
3.2673 4.0811 -0.0096 0.761 -0.239 -0.603 135 124 118 0 0
3.2931 4.1583 -0.0088 0.805 -0.242 -0.542 134 125 118 0 0
3.5776 4.1744 0.0126 0.545 -0.439 0.715 43 117 165 0 0
3.5931 4.1975 0.0135 0.826 -0.416 0.381 42 117 164 0 0
3.9085 3.9928 0.0408 -0.344 -0.696 -0.630 24 107 157 0 0
3.9181 3.9944 0.0415 0.703 -0.634 -0.322 23 108 158 0 0
3.9900 4.0980 0.0453 -0.112 -0.846 -0.522 22 107 161 0 0
3.9804 3.9921 0.0463 0.086 -0.582 -0.809 21 107 159 0 0
3.9899 3.9935 0.0470 0.339 -0.584 -0.738 21 108 158 0 0
4.0040 4.0080 0.0478 0.245 -0.579 -0.778 22 107 158 0 0
4.0196 4.0265 0.0487 -0.892 -0.377 -0.250 23 107 156 0 0
4.2337 4.0874 0.0641 0.738 -0.658 0.152 20 104 155 0 0
4.3537 4.2259 0.0711 0.716 -0.636 0.288 25 99 153 0 0
4.5820 4.4988 0.0843 0.142 -0.296 0.945 21 102 155 0 0
4.4470 4.1371 0.0796 -0.888 -0.116 -0.446 21 102 155 0 0
4.4578 4.0559 0.0817 -0.662 -0.114 -0.741 18 99 152 0 0
-1.3475 4.6953 -0.3823 0.857 -0.248 -0.452 73 60 55 0 0
-1.3293 4.7008 -0.3810 0.548 -0.272 -0.791 56 30 26 0 0
-1.3221 4.7068 -0.3805 0.505 -0.286 -0.814 68 40 35 0 0
-1.3155 4.7139 -0.3802 0.445 -0.384 -0.809 89 62 55 0 0
-1.8785 5.9793 -0.4452 -0.794 -0.539 0.280 14 14 14 0 0
-1.8693 5.9860 -0.4446 0.936 -0.283 0.210 18 16 16 0 0
-1.9318 6.1250 -0.4518 0.793 -0.607 0.051 26 22 22 0 0
-1.9036 6.2204 -0.4513 -0.142 -0.975 -0.170 83 72 68 0 0
-1.9317 6.3240 -0.4553 -0.409 -0.860 -0.306 89 78 74 0 0
-1.4808 5.7790 -0.4113 -0.712 -0.666 -0.223 98 83 76 0 0
-1.4587 5.7601 -0.4093 -0.132 -0.933 -0.334 102 87 80 0 0
-1.1925 5.9150 -0.3917 0.859 -0.223 0.461 12 9 10 0 0
-1.1935 5.9735 -0.3928 -0.732 -0.650 -0.202 19 13 12 0 0
-1.1198 6.0690 -0.3888 -0.226 -0.959 -0.169 59 44 41 0 0
-1.1029 6.0601 -0.3874 -0.484 -0.843 -0.236 77 62 59 0 0
-1.0854 6.0497 -0.3858 -0.484 -0.843 -0.236 78 64 62 0 0
-1.0522 6.2492 -0.3868 -0.764 -0.550 -0.337 11 8 5 0 0
-0.8684 6.2550 -0.3728 0.635 -0.716 -0.290 140 127 121 0 0
-0.6063 6.2650 -0.3530 0.001 -0.931 -0.366 29 46 61 0 0
-0.5745 6.2504 -0.3503 -0.438 -0.899 0.021 47 62 77 0 0
-0.4213 6.7326 -0.3470 -0.323 -0.761 -0.562 51 43 45 0 0
-0.1070 6.8183 -0.3244 0.010 -0.956 0.294 146 138 146 0 0
0.0816 6.8019 -0.3097 0.159 -0.928 -0.337 135 120 112 0 0
0.1374 6.8053 -0.3055 -0.553 -0.717 -0.424 148 131 124 0 0
0.6051 5.2070 -0.2420 -0.785 -0.606 -0.129 7 7 5 0 0
0.6088 5.3937 -0.2449 0.710 -0.703 0.028 5 6 8 0 0
0.7431 5.1454 -0.2303 -0.896 -0.442 -0.051 51 96 138 0 0
0.9097 4.7049 -0.2099 -0.953 -0.272 0.134 44 105 149 0 0
1.2501 4.2626 -0.1762 0.001 -1.000 0.004 12 21 18 0 0
1.2596 4.2637 -0.1755 -0.197 -0.969 0.147 14 20 20 0 0
1.3178 4.2637 -0.1711 0.048 -0.994 0.095 29 35 35 0 0
1.4071 4.2464 -0.1639 -0.255 -0.910 0.327 19 19 21 0 0
1.4165 4.2484 -0.1633 0.035 -0.714 0.699 15 15 17 0 0
1.4254 4.2547 -0.1627 0.007 -0.985 -0.175 15 15 17 0 0
1.4338 4.2649 -0.1622 0.420 -0.850 0.318 17 17 19 0 0
1.4732 4.3455 -0.1606 0.785 -0.325 0.528 18 18 20 0 0
1.5344 4.2286 -0.1539 -0.013 -0.581 0.814 18 19 21 0 0
1.5438 4.2304 -0.1532 0.292 -0.762 0.577 23 24 26 0 0
1.6386 4.3617 -0.1483 -0.975 -0.194 -0.105 20 21 25 0 0
1.8172 4.1463 -0.1309 0.906 -0.105 -0.410 24 27 32 0 0
1.8475 4.1063 -0.1279 -0.468 -0.380 -0.798 11 15 18 0 0
1.8728 4.1710 -0.1270 -0.144 -0.896 -0.421 46 50 53 0 0
1.8824 4.1676 -0.1262 -0.422 -0.839 -0.344 59 64 67 0 0
1.9536 4.0054 -0.1180 -0.015 -0.876 -0.483 184 194 196 0 0
1.9562 4.2412 -0.1219 -0.369 -0.284 -0.885 187 195 198 0 0
1.9959 4.1762 -0.1177 -0.420 -0.344 -0.840 195 208 214 0 0
2.0252 4.1229 -0.1146 -0.073 -0.201 -0.977 193 210 217 0 0
2.3557 4.1735 -0.0902 -0.656 -0.357 -0.665 9 17 20 0 0
2.4344 4.0683 -0.0823 -0.081 -0.955 -0.284 15 18 23 0 0
2.4598 4.0315 -0.0798 -0.874 -0.461 -0.156 17 18 22 0 0
2.5220 4.0031 -0.0745 -0.161 -0.964 0.213 47 45 48 0 0
2.6641 3.8789 -0.0615 0.612 -0.791 -0.015 132 117 110 0 0
2.6739 3.8864 -0.0609 0.612 -0.791 -0.015 132 118 109 0 0
2.7071 3.9437 -0.0593 0.649 -0.488 0.584 134 119 112 0 0
2.7173 3.9536 -0.0587 -0.612 -0.359 0.704 135 121 112 0 0
2.7294 3.9028 -0.0569 -0.910 -0.231 0.344 138 120 110 0 0
2.7071 3.6424 -0.0541 0.418 -0.391 -0.820 137 120 110 0 0
3.1098 3.9288 -0.0283 0.947 -0.320 -0.021 137 121 108 0 0
3.1226 3.9488 -0.0277 0.918 -0.382 0.109 138 120 110 0 0
3.1383 3.9837 -0.0271 0.891 -0.394 0.224 138 120 110 0 0
3.1364 3.8821 -0.0254 0.941 -0.320 -0.108 138 120 110 0 0
3.3933 3.6071 -0.0010 0.877 -0.421 -0.232 77 121 153 0 0
3.4180 3.6694 -0.0002 0.902 -0.385 -0.194 73 119 153 0 0
3.5624 4.1505 0.0024 0.311 -0.502 0.807 64 117 154 0 0
3.6787 4.3699 0.0075 0.935 -0.354 0.031 44 115 163 0 0
3.6761 4.1573 0.0110 -0.328 -0.564 -0.758 36 116 165 0 0
3.6875 4.1645 0.0118 -0.442 -0.888 0.125 36 117 167 0 0
3.9371 4.0223 0.0333 0.245 -0.560 -0.792 25 108 159 0 0
3.9785 4.0112 0.0367 -0.243 -0.434 -0.867 22 107 161 0 0
3.9855 4.0053 0.0373 0.086 -0.582 -0.809 22 107 160 0 0
4.0094 4.0219 0.0388 -0.043 -0.692 -0.721 23 107 158 0 0
4.0213 4.0298 0.0396 -0.885 -0.408 -0.227 25 108 158 0 0
4.0620 3.9925 0.0434 0.082 -0.644 0.761 21 107 158 0 0
4.5893 4.4917 0.0750 0.169 -0.255 0.952 22 103 156 0 0
-1.9839 6.2482 -0.4712 0.023 -0.999 0.045 38 33 31 0 0
-1.9312 6.3256 -0.4686 -0.624 -0.760 -0.183 91 77 74 0 0
-1.2806 5.8884 -0.4105 0.540 -0.807 0.238 165 147 140 0 0
-1.2551 5.9153 -0.4091 -0.671 -0.727 -0.149 141 131 124 0 0
-1.2279 5.8842 -0.4064 -0.822 -0.566 -0.061 58 54 49 0 0
-1.1879 5.9077 -0.4038 0.859 -0.223 0.461 13 9 10 0 0
-1.1988 5.9596 -0.4056 0.725 -0.280 -0.629 16 11 11 0 0
-1.1677 5.9474 -0.4030 -0.742 -0.671 0.018 20 14 12 0 0
-1.1191 6.0704 -0.4017 0.327 -0.687 -0.649 71 57 54 0 0
-1.1033 6.0640 -0.4003 -0.484 -0.843 -0.236 92 77 74 0 0
-1.0858 6.0535 -0.3988 -0.484 -0.843 -0.236 89 75 73 0 0
-1.0680 6.0422 -0.3972 -0.499 -0.828 -0.256 58 46 45 0 0
-1.0648 6.2192 -0.4004 0.681 -0.303 -0.666 10 8 9 0 0
-1.0895 6.3097 -0.4040 -0.789 -0.558 -0.258 9 7 6 0 0
-1.0551 6.2595 -0.4004 -0.789 -0.558 -0.258 11 8 5 0 0
-0.8507 6.2133 -0.3839 0.369 -0.669 -0.646 140 127 121 0 0
-0.6963 6.1194 -0.3703 0.219 -0.971 -0.100 3 5 7 0 0
-0.2671 6.6448 -0.3475 -0.170 -0.789 -0.591 113 33 44 0 0
-0.1046 6.8140 -0.3383 0.010 -0.956 0.294 145 140 148 0 0
0.0819 6.8059 -0.3239 0.033 -0.979 -0.202 137 120 112 0 0
0.5208 5.3260 -0.2620 -0.790 -0.579 -0.201 145 131 126 0 0
1.2413 4.2621 -0.1866 0.112 -0.985 -0.129 25 11 8 0 0
1.2509 4.2626 -0.1859 0.001 -1.000 0.004 19 20 15 0 0
1.2603 4.2643 -0.1852 -0.007 -0.967 -0.253 11 13 12 0 0
1.4084 4.2426 -0.1734 -0.255 -0.910 0.327 19 19 19 0 0
1.4184 4.2393 -0.1726 0.035 -0.714 0.699 18 18 18 0 0
1.4260 4.2564 -0.1723 0.007 -0.985 -0.175 20 20 20 0 0
1.4510 4.2090 -0.1695 -0.372 -0.854 -0.363 19 19 21 0 0
1.4209 4.5463 -0.1783 -0.061 -0.965 0.254 18 18 20 0 0
1.4306 4.5499 -0.1776 -0.446 -0.810 0.381 19 19 21 0 0
1.4410 4.5483 -0.1768 -0.514 -0.758 0.401 17 17 17 0 0
1.4528 4.5336 -0.1756 -0.539 -0.796 0.274 15 15 15 0 0
1.5134 4.5361 -0.1710 -0.132 -0.506 0.852 18 22 23 0 0
1.5625 4.4464 -0.1655 -0.509 -0.700 -0.501 23 24 26 0 0
1.6921 4.1853 -0.1506 -0.700 -0.555 -0.450 17 20 25 0 0
1.7966 4.1902 -0.1427 0.553 -0.082 -0.829 53 56 63 0 0
1.9655 4.2815 -0.1316 0.043 -0.931 0.362 146 154 157 0 0
1.9751 4.2823 -0.1309 0.043 -0.931 0.362 167 175 178 0 0
1.9848 4.2830 -0.1301 0.043 -0.931 0.362 177 185 188 0 0
2.0253 4.1669 -0.1248 0.173 -0.232 -0.957 192 202 204 0 0
2.0932 3.6996 -0.1107 0.059 -0.451 0.891 187 206 210 0 0
2.1463 3.8828 -0.1101 0.217 -0.906 -0.364 175 202 211 0 0
2.1553 3.8777 -0.1093 -0.237 -0.945 -0.225 172 199 210 0 0
2.3568 4.1845 -0.0998 -0.821 -0.364 -0.441 80 91 95 0 0
2.3650 4.1556 -0.0986 -0.884 -0.366 -0.292 49 60 64 0 0
2.4352 4.0713 -0.0916 -0.030 -0.933 -0.359 22 23 27 0 0
2.6237 3.9157 -0.0742 -0.800 -0.600 0.011 130 120 118 0 0
2.6323 3.9116 -0.0735 -0.632 -0.759 0.155 130 121 116 0 0
2.6406 3.9051 -0.0727 -0.641 -0.750 0.160 129 118 114 0 0
2.6486 3.8958 -0.0720 -0.780 -0.622 0.069 131 118 112 0 0
2.6567 3.8874 -0.0712 -0.440 -0.831 -0.340 132 119 113 0 0
2.6649 3.8808 -0.0704 0.562 -0.803 -0.197 133 120 114 0 0
2.6744 3.8861 -0.0698 0.554 -0.819 -0.150 132 119 111 0 0
2.6840 3.8924 -0.0692 0.345 -0.883 -0.319 131 118 112 0 0
2.6968 3.9270 -0.0689 0.056 -0.567 0.822 129 119 110 0 0
2.7232 3.9213 -0.0667 -0.697 -0.284 0.658 135 118 110 0 0
2.7339 3.8608 -0.0648 -0.732 -0.441 0.520 137 119 109 0 0
2.7354 3.8007 -0.0635 -0.356 -0.704 0.614 138 120 110 0 0
3.1399 3.8968 -0.0344 0.938 -0.321 -0.130 135 120 113 0 0
3.1577 3.9414 -0.0339 0.911 -0.368 -0.186 135 120 113 0 0
3.2159 4.0952 -0.0324 0.928 -0.354 -0.117 138 121 113 0 0
3.6094 4.1844 -0.0040 0.939 -0.345 0.006 76 120 149 0 0
3.6799 4.3722 -0.0022 0.935 -0.354 0.031 64 118 156 0 0
3.6738 4.1474 0.0016 0.102 -0.926 -0.364 43 119 163 0 0
3.6872 4.1617 0.0024 -0.528 -0.807 0.265 43 120 166 0 0
3.7029 4.1516 0.0038 -0.806 -0.580 -0.115 43 118 167 0 0
3.7763 4.1177 0.0100 0.478 -0.870 0.121 27 117 163 0 0
3.8086 4.1625 0.0116 0.525 -0.701 -0.483 30 118 170 0 0
4.0136 4.0322 0.0298 -0.343 -0.643 -0.685 25 108 159 0 0
-1.8903 5.9354 -0.4708 -0.201 -0.286 0.937 12 11 10 0 0
-1.9004 6.2196 -0.4775 0.055 -0.998 -0.033 86 72 69 0 0
-1.9276 6.3215 -0.4817 -0.688 -0.725 -0.036 92 78 75 0 0
-1.8478 6.3238 -0.4756 -0.271 -0.955 -0.123 97 84 78 0 0
-1.2872 5.8513 -0.4229 -0.409 -0.370 0.834 164 147 140 0 0
-1.2602 5.8746 -0.4213 -0.432 -0.889 0.151 162 145 137 0 0
-1.2559 5.9198 -0.4219 -0.638 -0.735 -0.229 139 131 124 0 0
-1.2320 5.8957 -0.4196 -0.812 -0.573 -0.114 58 55 49 0 0
-1.1923 5.9764 -0.4182 -0.651 -0.755 -0.076 19 14 11 0 0
-1.1226 6.0813 -0.4151 0.288 -0.751 -0.594 55 40 39 0 0
-1.1042 6.0691 -0.4134 -0.499 -0.828 -0.256 64 49 48 0 0
-1.0879 6.0614 -0.4120 -0.495 -0.804 -0.330 57 44 43 0 0
-1.0514 6.0368 -0.4087 -0.473 -0.835 -0.280 29 22 21 0 0
-1.0664 6.2260 -0.4138 0.899 -0.234 -0.371 10 8 8 0 0
-1.0636 6.2828 -0.4148 -0.699 -0.605 -0.380 11 8 6 0 0
-1.0308 6.2361 -0.4113 -0.801 -0.560 -0.211 19 11 9 0 0
-0.8512 6.2180 -0.3972 0.469 -0.780 -0.415 139 126 120 0 0
-0.6944 6.1176 -0.3831 0.457 -0.889 0.018 4 6 8 0 0
-0.2812 6.6498 -0.3626 0.319 -0.733 -0.600 101 55 61 0 0
-0.2679 6.6519 -0.3616 -0.258 -0.856 -0.448 118 23 35 0 0
-0.1021 6.8098 -0.3522 0.010 -0.956 0.294 145 141 148 0 0
0.0810 6.9890 -0.3419 0.496 -0.763 0.416 145 127 123 0 0
0.1360 6.8218 -0.3342 -0.723 -0.593 -0.354 147 130 123 0 0
0.6117 5.3900 -0.2680 0.726 -0.632 0.270 5 7 6 0 0
1.0918 4.3428 -0.2094 -0.309 -0.861 0.405 131 114 104 0 0
1.4271 4.2534 -0.1819 0.115 -0.981 -0.155 14 16 15 0 0
1.4513 4.2130 -0.1792 -0.372 -0.854 -0.363 18 19 21 0 0
1.4220 4.5436 -0.1883 -0.061 -0.965 0.254 16 17 19 0 0
1.4321 4.5444 -0.1876 -0.446 -0.810 0.381 19 20 22 0 0
1.4426 4.5413 -0.1867 -0.551 -0.708 0.442 19 21 20 0 0
1.4536 4.5338 -0.1857 -0.516 -0.716 0.471 17 19 18 0 0
1.5859 4.4178 -0.1731 -0.865 -0.422 0.273 20 21 23 0 0
1.6218 4.3465 -0.1689 -0.815 -0.414 0.405 14 15 17 0 0
1.7049 4.1510 -0.1585 0.587 -0.757 -0.288 19 20 24 0 0
1.7152 4.2735 -0.1602 -0.062 -0.195 -0.979 14 18 21 0 0
1.7950 4.2311 -0.1533 0.492 -0.128 -0.861 28 33 39 0 0
2.3346 3.8718 -0.1045 -0.391 -0.337 -0.856 179 199 206 0 0
2.3430 3.8603 -0.1036 -0.383 -0.330 -0.863 181 200 206 0 0
2.3899 4.0771 -0.1045 -0.964 -0.265 0.002 122 133 139 0 0
2.5339 4.0228 -0.0924 0.694 -0.718 0.060 22 25 32 0 0
2.6327 3.9097 -0.0825 -0.641 -0.750 0.160 73 67 67 0 0
2.6410 3.9028 -0.0817 -0.641 -0.750 0.160 86 81 78 0 0
2.6491 3.8943 -0.0809 -0.780 -0.622 0.069 101 93 91 0 0
2.6576 3.8903 -0.0802 -0.243 -0.830 -0.502 107 99 96 0 0
2.7237 3.9210 -0.0757 -0.367 -0.317 0.875 131 118 110 0 0
2.7334 3.8517 -0.0735 -0.795 -0.492 0.355 133 119 110 0 0
2.7408 3.8399 -0.0727 -0.837 -0.407 0.366 134 120 111 0 0
2.7484 3.8298 -0.0719 -0.879 -0.354 0.319 135 121 112 0 0
2.7556 3.8165 -0.0711 -0.880 -0.399 0.259 135 121 112 0 0
2.7766 3.7753 -0.0686 -0.832 -0.468 0.298 134 120 111 0 0
2.7812 3.7441 -0.0676 -0.804 -0.550 -0.227 136 122 113 0 0
2.7877 3.7280 -0.0668 -0.701 -0.517 -0.491 138 121 114 0 0
3.5378 4.2689 -0.0207 0.815 -0.286 -0.504 134 125 123 0 0
3.6754 4.1513 -0.0077 0.102 -0.926 -0.364 62 119 152 0 0
3.6869 4.1588 -0.0070 -0.528 -0.807 0.265 60 119 156 0 0
3.7160 3.8616 0.0014 0.805 -0.472 0.359 29 116 167 0 0
3.7644 3.9315 0.0037 0.488 -0.657 0.575 30 115 167 0 0
3.7777 3.9454 0.0044 0.466 -0.634 0.617 29 115 166 0 0
3.7920 3.9341 0.0057 0.420 -0.419 0.805 26 115 167 0 0
3.9813 4.0952 0.0168 -0.149 -0.374 0.915 27 108 161 0 0
3.9702 4.0366 0.0172 -0.657 -0.283 -0.699 28 109 162 0 0
3.9825 4.0457 0.0180 0.320 -0.934 0.158 29 110 162 0 0
4.0090 4.0436 0.0200 -0.425 -0.886 -0.188 25 108 158 0 0
4.0150 4.0350 0.0207 -0.441 -0.860 -0.256 27 109 159 0 0
4.2498 4.1014 0.0373 0.734 -0.676 0.066 22 107 158 0 0
-1.3307 4.7094 -0.4129 0.617 -0.549 0.564 53 21 18 0 0
-1.9008 6.2230 -0.4908 0.049 -0.995 0.082 86 72 69 0 0
-1.8180 6.2432 -0.4849 -0.765 -0.614 -0.194 98 84 77 0 0
-1.2831 5.8189 -0.4343 -0.584 -0.459 0.670 166 148 140 0 0
-1.2664 5.8102 -0.4329 0.017 -0.747 0.664 162 147 139 0 0
-1.2597 5.8763 -0.4339 -0.108 -0.994 0.015 162 147 139 0 0
-1.2568 5.9247 -0.4347 -0.638 -0.735 -0.229 135 127 121 0 0
-1.2316 5.8977 -0.4322 -0.812 -0.573 -0.114 57 53 48 0 0
-1.1960 5.8482 -0.4283 -0.843 -0.533 -0.068 31 27 24 0 0
-1.1744 5.8284 -0.4262 -0.761 -0.643 -0.086 32 27 25 0 0
-1.1876 5.9689 -0.4304 -0.728 -0.653 -0.207 21 14 9 0 0
-1.1627 5.9421 -0.4279 -0.686 -0.726 0.039 20 15 11 0 0
-1.1600 6.0513 -0.4302 -0.085 -0.966 -0.242 25 19 17 0 0
-1.0750 6.1870 -0.4267 0.219 -0.612 -0.760 20 13 13 0 0
-1.0709 6.2085 -0.4269 -0.357 -0.829 -0.431 16 11 11 0 0
-1.0253 6.1942 -0.4231 -0.687 -0.725 -0.034 10 9 7 0 0
-0.8827 6.2006 -0.4123 0.889 -0.456 0.022 137 119 115 0 0
-0.8778 6.2216 -0.4124 0.837 -0.547 0.019 137 121 116 0 0
-0.8533 6.2266 -0.4107 0.647 -0.676 -0.352 136 126 120 0 0
-0.8222 6.2147 -0.4080 -0.710 -0.614 -0.345 137 128 122 0 0
-0.6912 6.1125 -0.3957 0.019 -0.998 -0.054 3 5 5 0 0
-0.6796 6.1513 -0.3957 0.787 -0.617 0.016 14 11 10 0 0
-0.6853 6.2375 -0.3980 0.291 -0.928 -0.234 51 42 37 0 0
-0.2821 6.6569 -0.3766 0.239 -0.795 -0.558 105 59 64 0 0
-0.2678 6.6558 -0.3755 -0.272 -0.841 -0.468 121 24 34 0 0
-0.0991 6.8035 -0.3660 0.409 -0.882 0.235 146 138 146 0 0
-0.0898 6.8216 -0.3657 -0.028 -0.994 0.109 126 126 135 0 0
0.5106 5.3285 -0.2860 -0.808 -0.576 -0.125 146 132 123 0 0
0.7468 5.1418 -0.2637 -0.896 -0.442 -0.051 45 97 136 0 0
0.9495 4.5183 -0.2341 -0.944 -0.323 0.067 43 105 149 0 0
1.4230 4.5427 -0.1984 0.163 -0.987 0.011 6 12 12 0 0
1.4336 4.5386 -0.1975 -0.397 -0.746 0.534 5 11 11 0 0
1.4443 4.5338 -0.1965 -0.551 -0.708 0.442 11 15 16 0 0
1.4553 4.5261 -0.1955 -0.516 -0.716 0.471 15 19 20 0 0
1.5210 4.3809 -0.1872 -0.436 -0.539 0.721 16 20 21 0 0
1.5507 4.3793 -0.1849 0.390 -0.382 0.838 17 21 22 0 0
1.6094 4.3847 -0.1805 -0.878 -0.412 -0.244 17 19 18 0 0
1.6340 4.3281 -0.1774 -0.853 -0.447 -0.269 17 17 17 0 0
1.7177 4.2491 -0.1692 -0.932 -0.363 -0.005 17 18 20 0 0
1.7504 4.1911 -0.1654 0.059 -0.964 0.261 14 18 21 0 0
1.7845 4.0981 -0.1607 0.540 -0.430 -0.724 18 23 27 0 0
1.8126 4.0982 -0.1585 0.199 -0.738 -0.645 16 21 25 0 0
2.0266 4.1721 -0.1438 -0.259 -0.443 0.859 25 29 32 0 0
2.0462 4.1145 -0.1410 -0.035 -0.943 -0.331 50 54 55 0 0
2.0556 4.1139 -0.1403 -0.041 -0.946 -0.322 71 75 76 0 0
2.0654 4.0705 -0.1385 -0.882 -0.373 0.289 88 92 93 0 0
2.6759 3.8882 -0.0877 0.013 -0.483 -0.876 54 52 53 0 0
2.6849 3.8888 -0.0870 -0.288 -0.492 -0.821 66 63 64 0 0
2.7562 3.8170 -0.0799 -0.779 -0.398 0.484 129 119 110 0 0
2.7628 3.7999 -0.0790 -0.952 -0.297 0.080 131 118 110 0 0
2.7761 3.7670 -0.0773 -0.881 -0.436 0.183 136 123 114 0 0
2.7813 3.7403 -0.0763 -0.760 -0.448 -0.472 133 120 111 0 0
2.7887 3.7313 -0.0755 -0.666 -0.521 -0.533 135 121 112 0 0
2.8011 3.7585 -0.0752 -0.433 -0.811 0.393 133 120 111 0 0
2.9274 3.8996 -0.0687 0.854 -0.493 0.165 135 120 113 0 0
3.0224 4.0383 -0.0646 0.113 -0.358 -0.927 136 122 113 0 0
3.4791 4.1089 -0.0312 0.613 -0.452 0.648 140 125 118 0 0
3.4988 4.1501 -0.0306 0.600 -0.415 0.684 139 126 118 0 0
3.5140 4.1734 -0.0300 0.589 -0.414 0.694 139 126 118 0 0
3.4950 3.7596 -0.0221 0.576 -0.501 0.646 123 125 129 0 0
3.7457 4.1355 -0.0114 -0.281 -0.677 -0.680 61 116 154 0 0
3.7708 4.1574 -0.0100 0.367 -0.530 -0.765 48 115 158 0 0
3.8559 4.0469 -0.0009 0.596 -0.799 -0.080 23 111 166 0 0
3.9113 4.0766 0.0026 0.561 -0.512 -0.650 26 112 164 0 0
3.9146 4.0590 0.0033 0.282 -0.578 -0.765 27 111 162 0 0
3.9301 4.0778 0.0040 0.164 -0.380 -0.911 30 113 163 0 0
3.9828 4.0454 0.0088 0.017 -1.000 0.025 29 109 158 0 0
-1.3334 4.6974 -0.4234 0.622 -0.585 0.521 46 20 19 0 0
-1.8464 6.1982 -0.4992 -0.821 -0.570 -0.030 91 80 74 0 0
-1.3231 5.8003 -0.4494 -0.162 -0.961 0.222 155 140 131 0 0
-1.3111 5.8275 -0.4492 -0.731 -0.579 0.362 160 145 136 0 0
-1.2818 5.7924 -0.4461 -0.731 -0.579 0.362 162 148 139 0 0
-1.2776 5.8100 -0.4462 -0.116 -0.765 0.633 163 149 140 0 0
-1.2729 5.8265 -0.4462 0.683 -0.658 0.317 161 147 138 0 0
-1.2582 5.8760 -0.4463 -0.108 -0.994 0.015 160 145 138 0 0
-1.2381 5.9146 -0.4457 -0.814 -0.563 -0.145 57 53 48 0 0
-1.1940 5.8465 -0.4407 -0.843 -0.533 -0.068 36 32 28 0 0
-1.1739 5.8302 -0.4387 -0.725 -0.677 -0.127 43 36 33 0 0
-1.1562 5.8190 -0.4371 -0.693 -0.679 -0.243 48 38 34 0 0
-1.1877 5.9437 -0.4425 0.040 -0.679 -0.733 32 21 15 0 0
-1.1887 5.9742 -0.4434 -0.728 -0.653 -0.207 25 16 10 0 0
-1.1905 6.0356 -0.4450 0.245 -0.827 -0.506 24 16 14 0 0
-1.1821 6.0456 -0.4446 -0.160 -0.944 -0.290 26 17 17 0 0
-1.1340 6.0540 -0.4411 0.371 -0.885 -0.281 29 22 17 0 0
-1.1049 6.0767 -0.4394 0.214 -0.824 -0.524 30 19 22 0 0
-1.0930 6.0792 -0.4386 0.229 -0.819 -0.525 28 18 20 0 0
-1.0811 6.0818 -0.4377 0.214 -0.824 -0.524 26 20 18 0 0
-1.0805 6.2031 -0.4406 0.045 -0.849 -0.527 20 11 12 0 0
-0.8852 6.2101 -0.4259 0.204 -0.976 -0.070 137 119 115 0 0
-0.8749 6.2174 -0.4252 0.597 -0.789 0.145 137 121 116 0 0
-0.8148 6.2675 -0.4219 -0.755 -0.656 0.011 140 130 126 0 0
-0.6902 6.1133 -0.4086 0.019 -0.998 -0.054 2 4 4 0 0
-0.5523 6.2771 -0.4020 0.323 -0.934 -0.153 50 61 78 0 0
-0.4747 6.6103 -0.4041 0.166 -0.944 -0.285 60 52 50 0 0
-0.0881 6.8200 -0.3796 0.107 -0.993 -0.052 140 139 147 0 0
0.7481 5.1406 -0.2748 -0.896 -0.442 -0.051 44 100 137 0 0
0.7717 5.0813 -0.2715 -0.919 -0.387 -0.080 42 101 141 0 0
0.9269 4.5846 -0.2475 -0.949 -0.314 0.022 44 105 149 0 0
0.9487 4.5266 -0.2445 -0.939 -0.303 0.162 46 107 152 0 0
1.2423 4.2714 -0.2158 -0.031 -0.953 -0.302 25 10 7 0 0
1.4279 4.4231 -0.2053 -0.469 -0.651 -0.597 149 158 157 0 0
1.4386 4.4160 -0.2043 -0.361 -0.671 -0.648 127 136 135 0 0
1.4570 4.5184 -0.2053 -0.516 -0.716 0.471 24 30 30 0 0
1.5449 4.3463 -0.1944 0.537 -0.445 0.716 22 26 27 0 0
1.6358 4.3155 -0.1867 -0.429 -0.427 -0.796 18 18 18 0 0
1.6593 4.2653 -0.1837 -0.217 -0.344 -0.914 17 17 17 0 0
1.7512 4.1897 -0.1748 -0.105 -0.969 0.222 14 18 21 0 0
1.8120 4.1228 -0.1685 0.228 -0.623 -0.748 20 25 28 0 0
1.8994 4.2984 -0.1661 -0.259 -0.108 -0.960 39 42 49 0 0
2.0467 4.1310 -0.1508 -0.008 -0.895 0.446 24 25 29 0 0
2.0561 4.1352 -0.1501 -0.560 -0.825 0.069 21 22 26 0 0
2.1476 3.7855 -0.1346 0.774 -0.631 -0.051 175 185 187 0 0
2.4367 4.2206 -0.1231 -0.200 -0.171 -0.965 171 198 207 0 0
2.4532 4.1799 -0.1208 -0.240 -0.161 -0.958 174 197 205 0 0
2.5055 4.1196 -0.1153 0.022 -0.999 0.040 136 151 158 0 0
2.5352 4.0226 -0.1107 0.752 -0.659 -0.031 11 20 27 0 0
2.6396 3.9666 -0.1013 -0.309 -0.189 -0.932 24 29 35 0 0
2.7412 3.8337 -0.0903 -0.447 -0.282 0.849 86 82 79 0 0
2.7488 3.8237 -0.0895 -0.453 -0.282 0.846 101 95 92 0 0
2.7556 3.8077 -0.0886 -0.779 -0.398 0.484 118 110 107 0 0
2.7690 3.7752 -0.0868 -0.866 -0.489 0.105 131 122 117 0 0
2.7760 3.7621 -0.0859 -0.873 -0.454 0.176 133 124 117 0 0
2.7827 3.7471 -0.0850 -0.760 -0.448 -0.472 133 122 116 0 0
2.7912 3.7456 -0.0844 -0.748 -0.539 -0.387 134 123 117 0 0
2.8012 3.7552 -0.0838 -0.428 -0.729 0.534 133 123 114 0 0
2.9520 3.9377 -0.0767 0.801 -0.595 0.064 134 119 112 0 0
2.9645 3.9599 -0.0763 0.664 -0.677 0.318 137 122 115 0 0
3.4937 4.1278 -0.0399 0.589 -0.414 0.694 140 126 117 0 0
3.5087 4.1502 -0.0393 0.589 -0.414 0.694 140 126 117 0 0
3.7250 4.0955 -0.0214 -0.739 -0.437 0.512 90 122 146 0 0
3.6517 3.7622 -0.0189 0.514 -0.855 -0.069 70 116 149 0 0
3.6625 3.7693 -0.0182 0.603 -0.797 0.017 65 115 149 0 0
3.8233 4.0574 -0.0129 0.902 -0.427 -0.059 26 118 170 0 0
3.9293 4.1013 -0.0059 0.288 -0.333 -0.898 25 112 164 0 0
3.9836 4.0463 -0.0004 0.041 -0.994 -0.097 35 113 161 0 0
-1.3307 4.6946 -0.4337 0.638 -0.607 0.474 43 19 16 0 0
-1.9130 6.1032 -0.5150 0.788 -0.614 -0.038 28 23 24 0 0
-1.9699 6.2578 -0.5233 -0.610 -0.763 -0.215 54 43 42 0 0
-1.8440 6.1213 -0.5101 -0.726 -0.688 0.001 86 72 69 0 0
-1.7800 6.0995 -0.5047 0.916 -0.387 0.105 93 81 75 0 0
-1.7725 6.1102 -0.5044 0.942 -0.237 -0.238 96 83 75 0 0
-1.3256 5.8081 -0.4623 -0.441 -0.896 -0.041 145 131 122 0 0
-1.3091 5.7999 -0.4608 -0.441 -0.896 -0.041 143 129 120 0 0
-1.2927 5.7917 -0.4593 -0.441 -0.896 -0.041 158 144 135 0 0
-1.2771 5.7853 -0.4579 -0.360 -0.929 -0.090 162 148 139 0 0
-1.2611 5.7780 -0.4565 -0.406 -0.910 -0.082 161 147 139 0 0
-1.2581 5.8784 -0.4589 -0.088 -0.991 -0.101 160 145 138 0 0
-1.2388 5.9189 -0.4585 -0.814 -0.563 -0.145 56 53 48 0 0
-1.2002 5.8627 -0.4541 -0.801 -0.581 -0.147 38 34 30 0 0
-1.1766 5.8389 -0.4516 -0.691 -0.697 -0.192 50 41 39 0 0
-1.1899 5.9516 -0.4556 -0.241 -0.831 -0.501 51 40 32 0 0
-1.1907 5.9815 -0.4564 -0.727 -0.656 -0.204 37 28 21 0 0
-1.1926 6.0430 -0.4582 0.245 -0.827 -0.506 23 14 12 0 0
-1.1836 6.0520 -0.4577 0.005 -0.992 0.127 26 16 15 0 0
-1.1708 6.0522 -0.4567 0.005 -0.992 0.127 28 20 18 0 0
-1.1486 6.0315 -0.4545 -0.072 -0.906 -0.417 28 21 19 0 0
-1.1349 6.0297 -0.4534 0.235 -0.934 -0.268 28 21 18 0 0
-1.1414 6.0738 -0.4551 0.277 -0.724 0.632 29 21 16 0 0
-1.1320 6.0821 -0.4546 0.466 -0.688 0.557 30 20 15 0 0
-1.1006 6.0997 -0.4526 0.264 -0.959 0.108 29 20 21 0 0
-1.0890 6.1030 -0.4518 0.264 -0.959 0.108 29 21 18 0 0
-1.0762 6.1036 -0.4508 0.042 -0.991 0.125 27 20 18 0 0
-1.0911 6.2626 -0.4561 -0.585 -0.595 0.551 22 16 14 0 0
-1.0762 6.2587 -0.4549 -0.456 -0.564 0.688 17 14 12 0 0
-0.8864 6.2165 -0.4392 0.278 -0.953 -0.121 134 119 115 0 0
-0.8734 6.2171 -0.4383 0.449 -0.715 -0.536 136 121 117 0 0
-0.8630 6.2243 -0.4377 0.851 -0.509 -0.127 138 123 120 0 0
-0.7796 6.1453 -0.4292 -0.059 -0.967 -0.249 135 129 125 0 0
-0.6905 6.1172 -0.4216 -0.343 -0.923 -0.174 2 4 4 0 0
-0.6830 6.2382 -0.4242 0.308 -0.897 -0.318 51 39 38 0 0
-0.5521 6.2803 -0.4153 0.378 -0.920 0.099 49 60 77 0 0
-0.4748 6.6145 -0.4181 0.166 -0.944 -0.285 61 53 51 0 0
-0.1097 6.7998 -0.3949 0.883 -0.432 -0.183 148 137 142 0 0
-0.0980 6.8089 -0.3943 0.704 -0.663 -0.255 145 139 146 0 0
-0.0876 6.8227 -0.3938 0.242 -0.964 -0.107 130 129 135 0 0
0.7470 5.1504 -0.2863 -0.872 -0.483 -0.076 46 100 138 0 0
0.9297 4.5750 -0.2573 -0.948 -0.315 0.037 46 108 149 0 0
0.9536 4.5064 -0.2537 -0.931 -0.296 0.212 50 109 153 0 0
1.2426 4.2745 -0.2255 -0.037 -0.946 -0.322 27 17 13 0 0
1.4711 4.2278 -0.2068 -0.334 -0.907 -0.258 186 192 192 0 0
1.4944 4.1911 -0.2041 -0.694 -0.682 -0.233 175 181 181 0 0
1.5031 4.1988 -0.2036 -0.784 -0.536 -0.313 157 163 163 0 0
1.5146 4.1811 -0.2023 -0.764 -0.572 -0.299 132 138 138 0 0
1.5557 4.3442 -0.2033 0.376 -0.296 0.878 19 20 22 0 0
1.5641 4.3589 -0.2031 0.453 -0.299 0.840 19 19 21 0 0
1.6087 4.0907 -0.1927 -0.160 -0.760 0.630 19 19 19 0 0
1.6278 4.0861 -0.1911 -0.371 -0.788 0.490 19 19 19 0 0
1.6377 4.0799 -0.1902 -0.359 -0.796 0.488 22 20 21 0 0
1.6472 4.0784 -0.1894 -0.395 -0.746 0.536 21 19 20 0 0
1.6443 4.3395 -0.1964 -0.515 -0.561 -0.648 19 19 19 0 0
2.0569 4.1305 -0.1594 -0.468 -0.884 0.001 22 25 30 0 0
2.1411 4.0705 -0.1514 -0.293 -0.745 -0.599 9 17 19 0 0
2.1504 4.0833 -0.1510 0.229 -0.922 0.311 36 35 40 0 0
2.1964 4.0454 -0.1465 -0.160 -0.727 -0.668 148 157 162 0 0
2.2514 4.0326 -0.1419 0.067 -0.379 -0.923 190 210 211 0 0
2.4539 4.1794 -0.1302 -0.541 -0.405 -0.737 170 196 211 0 0
2.4625 4.1672 -0.1293 -0.375 -0.400 -0.837 173 196 210 0 0
2.5755 4.0566 -0.1177 -0.740 -0.274 -0.614 63 70 80 0 0
2.6904 3.9284 -0.1056 -0.463 -0.354 -0.813 24 27 34 0 0
2.7778 3.7709 -0.0948 -0.641 -0.737 -0.213 81 75 75 0 0
2.7855 3.7639 -0.0940 -0.641 -0.737 -0.213 91 82 83 0 0
2.7936 3.7589 -0.0933 -0.682 -0.727 -0.078 105 96 94 0 0
2.8013 3.7520 -0.0925 -0.748 -0.656 0.099 114 104 102 0 0
2.8715 3.6428 -0.0843 -0.517 -0.372 -0.771 134 121 112 0 0
2.8832 3.6642 -0.0839 -0.764 -0.608 0.216 133 119 110 0 0
2.8984 3.7065 -0.0839 -0.209 -0.239 0.948 134 121 112 0 0
2.9071 3.7071 -0.0832 -0.077 -0.289 0.954 135 122 113 0 0
3.5971 3.9025 -0.0354 0.775 -0.318 0.547 135 124 120 0 0
3.6724 4.1028 -0.0349 -0.161 -0.409 0.898 131 124 121 0 0
3.9369 4.0412 -0.0130 0.417 -0.640 0.645 27 111 162 0 0
3.9502 4.0534 -0.0123 0.314 -0.824 0.472 30 112 162 0 0
3.9607 4.0575 -0.0116 0.361 -0.906 0.220 33 114 163 0 0
3.9773 4.0529 -0.0102 -0.513 -0.858 0.045 39 118 167 0 0
3.9847 4.0480 -0.0095 -0.330 -0.939 0.099 39 117 166 0 0
4.1938 4.0015 0.0077 -0.952 -0.303 0.047 23 108 162 0 0
-1.3225 4.6824 -0.4432 0.678 -0.592 -0.436 42 19 16 0 0
-1.3181 4.6931 -0.4432 0.751 -0.601 -0.273 53 20 17 0 0
-1.3135 4.7039 -0.4431 0.941 -0.162 -0.296 59 20 17 0 0
-1.8188 5.8617 -0.5140 -0.673 -0.649 0.355 13 12 12 0 0
-1.9531 6.2043 -0.5338 0.898 -0.353 -0.261 40 32 32 0 0
-1.8911 6.1877 -0.5286 -0.798 -0.586 -0.143 82 68 65 0 0
-1.7759 5.9957 -0.5144 -0.721 -0.650 0.241 87 73 70 0 0
-1.7443 5.9605 -0.5110 -0.773 -0.626 0.105 89 76 73 0 0
-1.3276 5.7374 -0.4729 0.369 -0.563 -0.739 162 148 139 0 0
-1.3457 5.8003 -0.4760 0.398 -0.888 0.232 161 147 138 0 0
-1.3217 5.8026 -0.4743 -0.292 -0.936 -0.198 139 125 116 0 0
-1.3068 5.7977 -0.4730 -0.292 -0.936 -0.198 136 122 113 0 0
-1.2919 5.7928 -0.4717 -0.292 -0.936 -0.198 154 140 131 0 0
-1.2770 5.7879 -0.4704 -0.292 -0.936 -0.198 159 145 136 0 0
-1.2622 5.7830 -0.4691 -0.292 -0.936 -0.198 160 145 138 0 0
-1.2595 5.8843 -0.4718 -0.421 -0.858 -0.294 160 145 138 0 0
-1.2437 5.9322 -0.4719 -0.820 -0.544 -0.177 55 50 46 0 0
-1.1998 5.8647 -0.4666 -0.702 -0.665 -0.256 39 32 29 0 0
-1.1896 5.8700 -0.4660 0.412 -0.779 -0.473 51 41 39 0 0
-1.1892 5.8968 -0.4667 0.805 -0.469 -0.363 66 53 50 0 0
-1.1926 5.9603 -0.4687 -0.241 -0.831 -0.501 73 60 52 0 0
-1.1915 6.0436 -0.4710 0.237 -0.931 0.277 32 22 19 0 0
-1.1685 6.0501 -0.4694 0.113 -0.959 0.259 28 18 16 0 0
-1.1500 6.0376 -0.4676 -0.072 -0.906 -0.417 29 20 18 0 0
-1.1370 6.0373 -0.4666 0.223 -0.891 -0.396 30 21 17 0 0
-1.1379 6.0689 -0.4676 0.320 -0.854 0.410 31 21 16 0 0
-1.1282 6.0765 -0.4670 0.450 -0.744 0.494 32 21 17 0 0
-1.1057 6.0844 -0.4655 0.753 -0.658 0.004 34 22 24 0 0
-1.0849 6.0967 -0.4643 0.481 -0.873 -0.081 31 23 19 0 0
-1.0738 6.1011 -0.4635 0.283 -0.959 0.018 33 25 22 0 0
-1.0967 6.2474 -0.4694 -0.726 -0.685 0.054 33 25 23 0 0
-1.0728 6.2223 -0.4668 -0.726 -0.685 0.054 31 26 23 0 0
-0.8864 6.2196 -0.4525 0.317 -0.882 -0.350 132 119 115 0 0
-0.8774 6.2304 -0.4521 0.690 -0.674 -0.263 134 120 117 0 0
-0.8699 6.2450 -0.4519 0.797 -0.580 -0.168 137 121 118 0 0
-0.7889 6.1390 -0.4428 -0.469 -0.744 -0.476 135 125 123 0 0
-0.6901 6.1195 -0.4346 -0.343 -0.923 -0.174 3 4 4 0 0
-0.6807 6.2355 -0.4371 0.064 -0.930 -0.361 51 39 39 0 0
-0.5654 6.2838 -0.4296 0.351 -0.878 -0.325 41 57 70 0 0
-0.5504 6.2791 -0.4284 -0.083 -0.923 -0.375 44 57 75 0 0
-0.4749 6.6187 -0.4320 0.166 -0.944 -0.285 61 53 51 0 0
-0.0978 6.8128 -0.4085 0.759 -0.632 -0.157 142 140 143 0 0
-0.0867 6.8244 -0.4079 0.242 -0.964 -0.107 120 119 124 0 0
-0.0607 6.8333 -0.4062 0.460 -0.886 -0.058 111 105 115 0 0
1.1849 4.2759 -0.2397 -0.211 -0.954 0.211 61 24 24 0 0
1.4542 4.2146 -0.2173 0.079 -0.702 0.708 182 188 188 0 0
1.4383 4.4328 -0.2246 -0.476 -0.710 -0.519 183 189 189 0 0
1.4716 4.2303 -0.2164 -0.334 -0.907 -0.258 182 188 188 0 0
1.4834 4.2111 -0.2150 -0.606 -0.747 0.273 183 189 189 0 0
1.6291 4.0798 -0.2002 -0.371 -0.788 0.490 19 19 19 0 0
1.6390 4.0738 -0.1993 -0.359 -0.796 0.488 11 11 11 0 0
1.6488 4.0683 -0.1984 -0.439 -0.819 0.369 10 10 10 0 0
1.6339 4.3562 -0.2075 -0.429 -0.427 -0.796 17 17 17 0 0
1.6442 4.3509 -0.2066 -0.510 -0.558 -0.655 20 22 21 0 0
1.8878 4.3835 -0.1888 -0.290 -0.204 -0.935 22 23 28 0 0
2.0576 4.1293 -0.1687 -0.259 -0.914 -0.311 20 23 28 0 0
2.1511 4.0804 -0.1602 0.229 -0.922 0.311 22 20 25 0 0
2.1603 4.0730 -0.1593 0.029 -0.945 -0.327 21 16 22 0 0
2.1696 4.0700 -0.1585 0.004 -0.894 -0.448 18 19 24 0 0
2.6696 3.9811 -0.1177 -0.451 -0.197 -0.871 9 15 23 0 0
2.7262 3.8457 -0.1096 -0.746 -0.444 -0.496 23 30 40 0 0
2.8195 3.7536 -0.0999 -0.612 -0.596 -0.520 64 55 57 0 0
2.8556 3.7041 -0.0957 -0.655 -0.244 -0.715 123 116 109 0 0
2.8624 3.6918 -0.0949 -0.655 -0.279 -0.702 126 119 111 0 0
2.8674 3.6683 -0.0938 -0.517 -0.372 -0.771 129 120 113 0 0
2.8742 3.6571 -0.0930 -0.517 -0.372 -0.771 131 122 115 0 0
2.8835 3.6625 -0.0924 -0.762 -0.594 0.258 132 123 116 0 0
2.9540 3.5767 -0.0846 -0.699 -0.335 -0.632 136 122 113 0 0
3.5083 3.7400 -0.0467 -0.757 -0.205 -0.621 134 122 111 0 0
3.5125 3.7241 -0.0459 -0.950 -0.170 -0.263 132 119 110 0 0
3.5169 3.7091 -0.0452 -0.574 -0.293 -0.764 132 119 110 0 0
3.5258 3.7101 -0.0445 0.598 -0.278 0.752 134 121 112 0 0
3.6270 3.7631 -0.0382 -0.346 -0.443 -0.827 132 125 124 0 0
3.6341 3.7579 -0.0375 -0.505 -0.368 -0.781 129 124 124 0 0
3.6927 3.7245 -0.0321 -0.746 -0.246 -0.619 60 116 149 0 0
3.9614 4.0849 -0.0215 -0.150 -0.914 0.378 27 111 162 0 0
3.9743 4.0958 -0.0208 -0.085 -0.973 0.213 28 110 161 0 0
4.0079 4.0349 -0.0166 -0.097 -0.868 0.487 42 122 171 0 0
4.0597 3.9062 -0.0090 0.737 -0.427 0.524 20 111 163 0 0
4.0738 3.9201 -0.0083 0.665 -0.452 0.594 19 111 162 0 0
4.3087 4.1754 0.0026 0.774 -0.611 -0.163 48 116 166 0 0
5.2521 6.1278 0.0207 -0.405 -0.434 -0.805 23 106 158 0 0
-1.3311 4.6808 -0.4543 0.684 -0.568 -0.458 39 28 23 0 0
-1.3232 4.6855 -0.4539 0.536 -0.677 -0.505 39 18 13 0 0
-1.3182 4.6955 -0.4538 0.671 -0.594 -0.443 49 19 14 0 0
-1.3155 4.7095 -0.4540 0.940 -0.180 -0.288 58 21 16 0 0
-1.9495 6.2003 -0.5466 0.888 -0.408 -0.214 40 33 33 0 0
-1.7687 5.9849 -0.5264 -0.671 -0.673 0.312 87 74 69 0 0
-1.3449 5.8015 -0.4884 0.524 -0.851 -0.012 160 146 137 0 0
-1.3250 5.8122 -0.4872 -0.552 -0.826 -0.111 135 121 112 0 0
-1.3064 5.7995 -0.4854 -0.552 -0.826 -0.111 132 118 109 0 0
-1.2878 5.7869 -0.4836 -0.552 -0.826 -0.111 152 137 130 0 0
-1.2693 5.7743 -0.4818 -0.552 -0.826 -0.111 158 143 136 0 0
-1.2605 5.8891 -0.4845 -0.421 -0.858 -0.294 159 144 137 0 0
-1.2458 5.9397 -0.4849 -0.820 -0.544 -0.177 55 49 45 0 0
-1.2029 5.8741 -0.4797 -0.604 -0.710 -0.361 40 32 29 0 0
-1.1958 5.8863 -0.4795 0.870 -0.346 -0.350 52 41 38 0 0
-1.1659 6.0472 -0.4820 0.151 -0.956 0.251 31 20 16 0 0
-1.1512 6.0431 -0.4807 0.048 -0.945 -0.324 32 21 17 0 0
-1.1391 6.0450 -0.4798 0.299 -0.828 -0.474 34 24 18 0 0
-1.0959 6.0948 -0.4780 0.505 -0.863 0.023 64 54 51 0 0
-1.0853 6.1004 -0.4773 0.401 -0.914 -0.060 70 61 55 0 0
-1.0726 6.1012 -0.4764 0.283 -0.959 0.018 76 68 62 0 0
-0.8833 6.1166 -0.4623 0.598 -0.666 -0.445 129 113 106 0 0
-0.8618 6.0954 -0.4600 -0.434 -0.738 -0.517 128 116 109 0 0
-0.8585 6.1198 -0.4605 0.140 -0.899 -0.415 127 119 112 0 0
-0.8558 6.1460 -0.4611 0.125 -0.982 0.144 130 122 115 0 0
-0.8265 6.1381 -0.4586 0.138 -0.983 -0.124 135 121 117 0 0
-0.8140 6.1395 -0.4577 0.146 -0.975 -0.166 137 121 118 0 0
-0.8033 6.1455 -0.4570 0.075 -0.994 -0.081 138 121 120 0 0
-0.6899 6.1224 -0.4477 -0.330 -0.917 -0.225 3 5 5 0 0
-0.6814 6.2406 -0.4505 0.064 -0.930 -0.361 51 38 40 0 0
-0.5658 6.2886 -0.4430 0.351 -0.878 -0.325 32 52 67 0 0
-0.5511 6.2846 -0.4418 -0.083 -0.923 -0.375 36 53 71 0 0
-0.4757 6.6254 -0.4461 0.103 -0.933 -0.344 60 51 49 0 0
-0.4508 6.6343 -0.4444 0.209 -0.896 -0.391 43 36 34 0 0
-0.0871 6.8306 -0.4223 0.243 -0.880 -0.408 114 113 116 0 0
0.9839 4.4127 -0.2688 -0.948 -0.293 0.127 72 106 143 0 0
1.0415 4.5339 -0.2680 0.667 -0.713 -0.218 127 115 101 0 0
1.4721 4.2329 -0.2261 -0.334 -0.907 -0.258 187 191 192 0 0
1.5783 4.1297 -0.2149 -0.472 -0.845 -0.251 189 193 194 0 0
1.5984 4.1162 -0.2130 -0.637 -0.739 -0.221 189 193 194 0 0
1.6085 4.1088 -0.2120 -0.666 -0.687 -0.290 186 190 191 0 0
1.6188 4.0984 -0.2109 -0.666 -0.687 -0.290 178 182 183 0 0
1.6292 4.0871 -0.2097 -0.700 -0.663 -0.265 164 168 169 0 0
1.6396 4.0758 -0.2086 -0.702 -0.672 -0.235 136 140 141 0 0
1.6440 4.3631 -0.2167 -0.510 -0.558 -0.655 21 27 27 0 0
1.7645 4.1650 -0.2017 -0.577 -0.591 -0.565 138 142 145 0 0
1.7746 4.1544 -0.2006 -0.590 -0.662 -0.462 131 135 138 0 0
1.7847 4.1438 -0.1995 -0.350 -0.610 -0.711 106 110 113 0 0
2.0582 4.1324 -0.1782 -0.259 -0.914 -0.311 22 25 30 0 0
2.1518 4.0775 -0.1694 0.229 -0.922 0.311 21 24 29 0 0
2.1981 4.0709 -0.1656 0.114 -0.639 -0.761 26 26 34 0 0
2.2252 4.0335 -0.1624 0.505 -0.801 -0.322 24 25 30 0 0
2.2440 4.0507 -0.1615 -0.358 -0.886 -0.295 11 16 19 0 0
2.6711 3.9895 -0.1269 -0.793 -0.421 -0.441 94 104 113 0 0
2.7276 3.8529 -0.1186 -0.746 -0.454 -0.486 26 30 39 0 0
2.7796 3.8435 -0.1143 -0.210 -0.222 -0.952 26 26 34 0 0
2.8126 3.7624 -0.1094 -0.180 -0.747 -0.640 27 25 31 0 0
2.8213 3.7622 -0.1087 -0.645 -0.382 -0.662 29 26 33 0 0
2.8355 3.7396 -0.1070 -0.647 -0.448 -0.616 24 23 29 0 0
2.8437 3.7364 -0.1062 -0.287 -0.582 -0.761 20 21 24 0 0
2.8515 3.7311 -0.1055 -0.253 -0.604 -0.756 26 27 29 0 0
2.8565 3.7064 -0.1044 -0.532 -0.283 -0.798 34 35 37 0 0
2.8710 3.6883 -0.1027 -0.647 -0.303 -0.699 68 67 67 0 0
2.8776 3.6754 -0.1018 -0.568 -0.329 -0.755 92 91 88 0 0
2.8841 3.6624 -0.1010 -0.790 -0.610 0.062 110 108 104 0 0
2.8911 3.6527 -0.1001 -0.533 -0.785 -0.315 121 118 113 0 0
2.9677 3.5562 -0.0914 -0.561 -0.361 -0.745 136 120 107 0 0
2.9748 3.5494 -0.0907 -0.581 -0.431 -0.691 135 121 108 0 0
2.9814 3.5395 -0.0899 -0.580 -0.430 -0.692 135 121 110 0 0
2.9883 3.5322 -0.0891 -0.530 -0.497 -0.687 135 121 110 0 0
3.0213 3.6213 -0.0892 -0.385 -0.214 0.898 136 122 111 0 0
3.0281 3.6124 -0.0884 -0.385 -0.214 0.898 134 120 109 0 0
3.5129 3.7549 -0.0554 -0.537 -0.174 -0.825 124 110 98 0 0
3.5218 3.7246 -0.0539 -0.507 -0.260 -0.822 125 111 100 0 0
3.5670 3.7629 -0.0515 0.805 -0.422 0.416 129 116 107 0 0
3.5809 3.7813 -0.0510 -0.358 -0.713 0.603 134 121 112 0 0
3.5974 3.7781 -0.0497 -0.579 -0.722 0.380 139 124 117 0 0
3.6560 3.7715 -0.0450 0.179 -0.905 -0.387 136 127 122 0 0
3.9493 4.0481 -0.0306 0.195 -0.624 -0.757 26 112 164 0 0
4.0060 4.0284 -0.0257 -0.172 -0.807 0.565 40 121 169 0 0
