ply
format ascii 1.0
element vertex 853
property float x
property float y
property float z
property float nx
property float ny
property float nz
property uchar diffuse_red
property uchar diffuse_green
property uchar diffuse_blue
property uchar class
property uchar detection
end_header
-1.6484 5.2874 0.1676 -0.389 -0.906 0.167 105 94 90 0 0
-1.9458 6.0454 0.1832 0.752 -0.146 -0.642 61 53 42 0 0
-1.9319 6.0682 0.1848 -0.341 -0.827 -0.448 30 26 23 0 0
-1.9163 6.0615 0.1853 -0.341 -0.827 -0.448 18 17 15 0 0
-1.7966 5.9638 0.1873 0.660 -0.666 -0.347 68 58 49 0 0
-1.7190 5.8224 0.1855 -0.770 -0.632 -0.087 73 60 52 0 0
-1.5821 5.6788 0.1865 -0.117 -0.978 -0.173 93 76 69 0 0
-1.4095 5.5252 0.1889 -0.279 -0.946 -0.165 107 91 78 0 0
-1.2966 5.5294 0.1947 -0.661 -0.701 -0.268 168 156 147 0 0
-1.1988 5.7186 0.2071 0.555 -0.780 -0.288 156 146 137 0 0
-1.1897 5.7255 0.2078 0.800 -0.554 -0.231 84 76 69 0 0
-1.1874 5.8738 0.2138 -0.380 -0.925 -0.015 32 12 11 0 0
-1.1562 5.8551 0.2146 -0.620 -0.782 -0.070 50 27 25 0 0
-0.9924 6.0426 0.2302 -0.798 -0.579 -0.167 44 27 21 0 0
-0.8883 5.8814 0.2289 0.574 -0.806 -0.143 156 137 129 0 0
-0.8593 5.9394 0.2327 -0.308 -0.935 -0.178 154 141 133 0 0
-0.8442 5.9307 0.2331 0.132 -0.990 -0.040 157 145 136 0 0
-0.7993 5.9423 0.2358 0.382 -0.924 -0.009 64 51 43 0 0
-0.7793 5.9559 0.2373 0.197 -0.917 -0.348 138 125 116 0 0
-0.6792 5.9083 0.2404 -0.225 -0.945 -0.237 6 6 6 0 0
-0.6691 5.9149 0.2411 0.014 -0.947 -0.321 6 8 7 0 0
-0.6951 6.0810 0.2465 0.794 -0.336 0.506 8 8 7 0 0
-0.6754 6.0568 0.2465 0.754 -0.450 0.479 9 9 9 0 0
-0.5484 6.0893 0.2541 -0.295 -0.955 0.000 156 141 134 0 0
-0.5347 6.0850 0.2546 -0.152 -0.976 -0.156 158 145 139 0 0
-0.3228 6.2862 0.2731 0.059 -0.878 -0.475 59 45 42 0 0
0.6136 5.0727 0.2710 -0.542 -0.762 0.355 7 7 7 0 0
0.6645 5.2582 0.2809 -0.960 -0.258 -0.106 6 10 11 0 0
0.9326 4.7406 0.2735 -0.473 -0.269 -0.839 33 94 138 0 0
0.9673 4.9270 0.2826 -0.229 -0.852 -0.470 34 97 140 0 0
1.1690 3.7232 0.2445 -0.011 -0.519 -0.855 35 99 143 0 0
1.1853 3.7290 0.2455 0.341 -0.607 -0.718 34 97 141 0 0
1.2465 4.2456 0.2692 -0.926 -0.334 0.179 37 100 144 0 0
1.3154 4.4166 0.2795 0.590 -0.804 0.080 34 101 146 0 0
1.4381 4.5819 0.2921 0.168 -0.502 0.849 34 100 148 0 0
1.4480 4.5716 0.2922 0.492 -0.404 0.771 33 99 147 0 0
1.8854 4.1534 0.2972 0.940 -0.296 -0.167 31 105 154 0 0
2.0245 5.6348 0.3632 0.890 -0.435 -0.139 31 105 152 0 0
1.9355 4.3160 0.3061 0.875 -0.241 -0.420 33 105 153 0 0
2.0930 4.8403 0.3349 0.630 -0.465 0.622 31 103 153 0 0
2.2834 3.9229 0.3076 -0.793 -0.234 0.563 30 104 153 0 0
2.2946 3.8857 0.3067 -0.755 -0.254 0.604 31 102 154 0 0
2.5286 5.1106 0.3672 0.369 -0.526 0.766 29 101 151 0 0
2.5420 5.1263 0.3685 0.418 -0.481 0.770 29 101 151 0 0
2.5590 5.1005 0.3683 0.520 -0.854 0.015 31 103 153 0 0
2.7080 4.4268 0.3488 0.608 -0.775 -0.174 43 104 151 0 0
3.0338 4.3003 0.3599 -0.064 -0.688 -0.723 89 118 144 0 0
3.1110 4.2788 0.3628 -0.513 -0.858 -0.025 60 104 142 0 0
3.2923 4.2391 0.3702 0.061 -0.992 -0.111 27 92 136 0 0
3.3480 4.1887 0.3710 0.066 -0.918 0.391 32 81 121 0 0
3.3576 4.1900 0.3715 -0.094 -0.940 0.328 36 87 127 0 0
3.3654 4.1864 0.3717 -0.023 -0.953 0.301 34 86 124 0 0
3.4510 4.1474 0.3744 -0.048 -0.970 -0.238 33 67 91 0 0
3.4598 4.1469 0.3748 -0.048 -0.970 -0.238 37 64 83 0 0
3.4680 4.1447 0.3751 -0.285 -0.928 -0.242 43 64 80 0 0
3.4788 4.1491 0.3758 -0.247 -0.968 0.035 50 69 82 0 0
3.4869 4.1468 0.3761 0.207 -0.978 -0.017 60 82 94 0 0
3.4953 4.1449 0.3765 0.074 -0.994 -0.074 73 99 113 0 0
3.5041 4.1445 0.3769 -0.044 -0.999 -0.026 83 111 125 0 0
3.5274 4.1119 0.3768 -0.157 -0.955 -0.251 93 117 135 0 0
3.5365 4.1121 0.3772 -0.093 -0.970 -0.223 76 99 116 0 0
3.5451 4.1112 0.3776 -0.093 -0.970 -0.223 63 82 99 0 0
3.5536 4.1099 0.3780 -0.033 -0.988 -0.150 59 76 91 0 0
3.5624 4.1095 0.3784 -0.033 -0.988 -0.150 64 80 94 0 0
3.5713 4.1093 0.3788 0.004 -0.981 -0.196 66 80 92 0 0
3.5801 4.1089 0.3793 0.006 -0.996 -0.086 57 69 81 0 0
3.5906 4.1127 0.3799 0.309 -0.951 0.014 46 56 68 0 0
3.6076 4.1103 0.3807 -0.038 -0.971 -0.235 50 55 69 0 0
3.6113 4.0974 0.3803 -0.330 -0.637 -0.697 44 55 73 0 0
3.6266 4.0697 0.3800 0.178 -0.983 -0.048 36 56 87 0 0
3.6362 4.0714 0.3805 0.178 -0.983 -0.048 40 65 95 0 0
3.7144 3.9271 0.3786 -0.912 -0.154 -0.380 33 82 122 0 0
3.7370 3.6139 0.3672 -0.889 -0.372 -0.268 193 207 211 0 0
3.7510 3.5928 0.3671 -0.678 -0.709 -0.194 194 209 210 0 0
3.7958 3.6511 0.3716 0.271 -0.481 0.834 196 208 212 0 0
3.7932 3.6291 0.3706 0.256 -0.625 0.737 197 208 210 0 0
3.8109 3.6485 0.3723 0.328 -0.505 0.798 198 207 212 0 0
3.8137 3.6378 0.3720 -0.032 -0.483 0.875 199 209 211 0 0
3.8229 3.6399 0.3725 0.043 -0.514 0.857 199 209 211 0 0
3.8585 3.6294 0.3739 -0.227 -0.647 -0.728 197 209 209 0 0
3.8637 3.6237 0.3739 -0.414 -0.500 -0.761 198 208 209 0 0
3.8678 3.6157 0.3738 -0.656 -0.423 -0.626 197 207 208 0 0
3.8724 3.6088 0.3737 -0.360 -0.435 -0.825 197 208 209 0 0
4.0629 3.9311 0.3960 -0.712 -0.216 -0.668 196 207 210 0 0
4.0654 3.9191 0.3957 -0.643 -0.219 -0.734 196 207 211 0 0
4.0445 3.8621 0.3924 -0.802 -0.190 -0.567 196 207 211 0 0
4.0473 3.8511 0.3921 -0.802 -0.190 -0.567 196 208 210 0 0
-1.7972 5.3418 0.1512 0.959 -0.131 -0.251 117 102 102 0 0
-1.7672 5.3487 0.1530 -0.107 -0.993 0.057 116 98 96 0 0
-1.7576 5.3518 0.1536 -0.081 -0.980 -0.180 117 99 99 0 0
-1.7464 5.3518 0.1541 0.015 -0.995 -0.102 125 109 110 0 0
-1.7375 5.3565 0.1547 -0.511 -0.847 0.146 137 122 125 0 0
-1.6710 5.3121 0.1563 -0.407 -0.906 0.115 113 99 97 0 0
-1.5803 5.6504 0.1738 -0.076 -0.962 -0.262 87 74 65 0 0
-1.2804 5.5196 0.1836 -0.417 -0.793 -0.445 144 143 135 0 0
-1.2012 5.7261 0.1954 0.448 -0.830 -0.333 157 146 135 0 0
-1.1908 5.7299 0.1961 0.643 -0.713 -0.280 84 75 68 0 0
-1.1592 5.8648 0.2028 -0.648 -0.735 -0.201 45 24 23 0 0
-1.1173 5.8494 0.2043 -0.466 -0.665 -0.584 77 52 50 0 0
-0.9686 5.9055 0.2138 0.227 -0.875 -0.428 8 5 7 0 0
-0.9950 6.0518 0.2181 -0.779 -0.594 -0.201 40 26 23 0 0
-0.8879 5.8821 0.2169 0.030 -0.960 -0.277 154 135 126 0 0
-0.8119 5.9455 0.2231 0.437 -0.862 -0.256 120 108 102 0 0
-0.7802 5.9609 0.2252 0.208 -0.944 -0.255 154 137 130 0 0
-0.6631 6.0593 0.2348 0.449 -0.546 0.708 10 11 13 0 0
-0.5036 6.0649 0.2429 0.081 -0.906 -0.415 144 131 125 0 0
-0.3777 6.1052 0.2507 0.110 -0.983 -0.148 40 33 27 0 0
-0.3771 6.4580 0.2642 0.363 -0.691 -0.625 54 40 39 0 0
-0.3238 6.2930 0.2605 0.059 -0.878 -0.475 57 41 41 0 0
0.2463 6.7334 0.3056 0.120 -0.948 -0.295 97 80 70 0 0
0.5903 5.0902 0.2598 -0.660 -0.655 0.368 14 10 9 0 0
0.6149 5.0670 0.2601 -0.578 -0.770 0.269 6 6 8 0 0
0.6598 5.1311 0.2648 -0.331 -0.941 0.076 6 6 6 0 0
0.7297 5.0873 0.2666 -0.406 -0.875 -0.263 44 84 119 0 0
0.7681 5.1255 0.2699 0.195 -0.709 -0.678 33 87 131 0 0
0.8113 5.3318 0.2800 0.944 -0.238 0.228 35 92 137 0 0
0.9824 4.8760 0.2710 0.530 -0.391 0.753 35 96 140 0 0
0.9913 4.8937 0.2721 0.625 -0.379 0.682 34 95 140 0 0
1.1690 3.7305 0.2364 0.772 -0.449 0.449 35 102 147 0 0
1.1777 3.7245 0.2366 0.161 -0.930 -0.332 36 100 144 0 0
1.1855 3.7325 0.2373 0.518 -0.655 -0.550 35 98 142 0 0
1.2700 4.1292 0.2567 -0.293 -0.400 -0.869 35 99 147 0 0
1.3126 4.5266 0.2740 -0.496 -0.171 -0.851 34 101 146 0 0
1.3229 4.5056 0.2737 -0.536 -0.187 -0.824 34 100 148 0 0
1.6002 4.7996 0.2987 0.569 -0.637 0.519 27 105 153 0 0
2.0266 4.5748 0.3112 0.628 -0.366 -0.687 32 104 152 0 0
2.1033 4.8364 0.3250 0.609 -0.439 0.661 29 103 150 0 0
2.1608 4.8906 0.3299 -0.823 -0.313 -0.475 31 103 151 0 0
2.2529 4.5821 0.3226 -0.402 -0.099 -0.910 31 105 154 0 0
2.2593 4.5575 0.3220 -0.400 -0.098 -0.911 32 104 154 0 0
2.2928 3.8719 0.2975 -0.768 -0.251 0.590 30 104 153 0 0
2.7091 4.4298 0.3394 0.608 -0.775 -0.174 42 106 152 0 0
2.7226 4.4473 0.3407 -0.366 -0.863 -0.349 44 108 154 0 0
2.7793 4.4040 0.3419 0.054 -0.993 -0.107 69 129 171 0 0
2.8153 4.3959 0.3434 -0.086 -0.967 -0.240 69 103 129 0 0
3.0368 4.3094 0.3510 -0.064 -0.688 -0.723 76 110 138 0 0
3.0714 4.3003 0.3524 -0.342 -0.821 -0.457 105 137 152 0 0
3.1116 4.2793 0.3536 -0.571 -0.816 -0.093 119 144 166 0 0
3.2057 4.2546 0.3573 -0.602 -0.778 0.180 44 94 136 0 0
3.2949 4.2455 0.3613 -0.180 -0.984 0.003 24 86 128 0 0
3.3030 4.2425 0.3616 -0.297 -0.954 0.034 27 86 126 0 0
3.3110 4.2389 0.3619 0.178 -0.979 -0.101 33 88 127 0 0
3.3206 4.1872 0.3604 -0.260 -0.964 0.062 23 67 102 0 0
3.3382 4.1856 0.3612 0.263 -0.963 0.056 30 75 109 0 0
3.3471 4.1850 0.3616 0.299 -0.950 -0.093 38 86 120 0 0
3.3567 4.1862 0.3621 0.108 -0.927 -0.359 40 91 125 0 0
3.4528 4.1512 0.3656 -0.069 -0.907 -0.415 49 85 104 0 0
3.4874 4.1469 0.3671 0.023 -0.996 -0.089 66 99 114 0 0
3.4959 4.1456 0.3675 0.079 -0.984 -0.160 72 107 122 0 0
3.5053 4.1465 0.3680 0.077 -0.997 -0.027 72 108 125 0 0
3.5302 4.1178 0.3681 -0.375 -0.839 -0.394 84 113 133 0 0
3.5377 4.1141 0.3683 -0.093 -0.970 -0.223 78 108 125 0 0
3.5463 4.1131 0.3687 -0.093 -0.970 -0.223 72 99 114 0 0
3.5549 4.1121 0.3691 -0.086 -0.977 -0.194 75 99 110 0 0
3.5635 4.1113 0.3695 -0.086 -0.977 -0.194 86 109 119 0 0
3.5724 4.1111 0.3699 0.004 -0.981 -0.196 79 101 111 0 0
3.5809 4.1097 0.3703 0.006 -0.996 -0.086 60 80 97 0 0
3.5917 4.1144 0.3710 0.278 -0.938 -0.206 45 63 86 0 0
3.6000 4.1127 0.3714 0.251 -0.963 -0.101 37 54 79 0 0
3.6088 4.1122 0.3718 0.121 -0.927 -0.356 37 53 80 0 0
3.6587 4.1240 0.3747 0.641 -0.547 -0.539 37 77 114 0 0
3.7229 4.0854 0.3764 -0.806 -0.543 0.235 28 85 132 0 0
4.0356 3.9790 0.3878 0.415 -0.882 -0.222 197 208 209 0 0
4.0470 3.9843 0.3886 0.341 -0.884 -0.322 199 208 208 0 0
4.0582 3.9720 0.3887 -0.663 -0.380 -0.645 198 207 206 0 0
-2.2569 5.6704 0.1293 -0.588 -0.753 0.296 77 63 63 0 0
-1.7686 5.3308 0.1411 -0.498 -0.827 -0.261 119 101 99 0 0
-1.7656 5.3469 0.1418 -0.073 -0.995 0.066 117 100 98 0 0
-1.7580 5.3539 0.1424 -0.081 -0.980 -0.180 121 105 105 0 0
-1.7463 5.3529 0.1430 -0.081 -0.980 -0.180 132 116 117 0 0
-1.7350 5.3527 0.1435 -0.506 -0.845 0.174 134 119 122 0 0
-1.9856 6.1052 0.1586 0.963 -0.180 -0.200 61 54 44 0 0
-1.5374 5.6604 0.1645 -0.570 -0.796 -0.204 92 78 69 0 0
-1.3891 5.5077 0.1663 -0.226 -0.916 -0.333 107 90 78 0 0
-1.2022 5.7303 0.1837 0.448 -0.830 -0.333 158 145 136 0 0
-1.1922 5.7351 0.1844 0.746 -0.588 -0.313 83 73 67 0 0
-1.1782 5.8531 0.1894 0.539 -0.768 -0.347 25 12 12 0 0
-1.1601 5.8688 0.1908 -0.648 -0.735 -0.201 45 25 26 0 0
-0.9959 6.0564 0.2058 -0.788 -0.578 -0.214 40 28 24 0 0
-0.8899 5.8899 0.2050 0.015 -0.950 -0.313 152 133 123 0 0
-0.6622 5.8967 0.2165 -0.530 -0.834 -0.154 6 6 7 0 0
-0.6572 5.9200 0.2176 -0.569 -0.684 -0.456 6 7 9 0 0
-0.6409 5.9063 0.2179 -0.569 -0.684 -0.456 7 8 10 0 0
-0.3770 6.1052 0.2382 0.042 -0.987 -0.152 41 34 28 0 0
-0.4186 6.4698 0.2495 -0.870 -0.493 0.004 45 38 32 0 0
-0.1876 6.4318 0.2595 0.355 -0.855 -0.378 178 149 143 0 0
0.2445 6.7492 0.2925 -0.238 -0.971 0.011 92 75 65 0 0
0.2755 6.7245 0.2931 -0.019 -0.995 0.095 57 43 34 0 0
0.3036 6.7171 0.2942 0.263 -0.964 0.041 84 65 61 0 0
0.5791 5.0975 0.2488 -0.607 -0.718 -0.342 36 28 26 0 0
0.5910 5.0891 0.2490 -0.584 -0.716 -0.383 10 9 7 0 0
0.6031 5.0791 0.2493 -0.584 -0.716 -0.383 7 5 6 0 0
0.6153 5.0681 0.2495 -0.504 -0.789 -0.353 6 6 8 0 0
0.9929 4.8803 0.2613 0.653 -0.422 0.628 35 96 141 0 0
1.1779 3.7273 0.2284 0.135 -0.972 -0.190 37 101 145 0 0
1.4393 4.5564 0.2716 -0.379 -0.879 0.288 34 100 148 0 0
1.4491 4.5516 0.2719 -0.383 -0.846 0.371 33 101 148 0 0
1.4588 4.5467 0.2722 -0.364 -0.844 0.394 30 102 150 0 0
1.4686 4.5633 0.2733 0.334 -0.431 0.838 31 103 151 0 0
2.0380 4.5859 0.3023 0.193 -0.463 -0.865 32 104 152 0 0
2.1620 4.8974 0.3198 -0.827 -0.359 -0.433 32 104 152 0 0
2.2512 4.9463 0.3260 -0.642 -0.082 -0.762 29 106 152 0 0
2.3002 4.6351 0.3171 -0.756 -0.629 -0.181 32 104 152 0 0
2.6792 4.7939 0.3416 -0.824 -0.190 -0.533 34 102 149 0 0
2.7237 4.4499 0.3313 -0.387 -0.863 -0.326 40 108 155 0 0
2.7334 4.4507 0.3318 0.334 -0.939 -0.078 41 108 153 0 0
2.9454 4.3493 0.3386 -0.326 -0.760 -0.562 40 99 138 0 0
2.9532 4.3433 0.3387 0.065 -0.804 -0.592 79 130 164 0 0
3.0406 4.3209 0.3423 -0.226 -0.407 -0.885 50 95 130 0 0
3.0731 4.3046 0.3433 -0.342 -0.821 -0.457 107 140 155 0 0
3.1122 4.2800 0.3443 -0.571 -0.816 -0.093 107 132 148 0 0
3.2171 4.2603 0.3488 -0.015 -0.918 0.397 38 85 124 0 0
3.2256 4.2580 0.3491 -0.085 -0.886 0.456 22 70 110 0 0
3.2540 4.2323 0.3496 -0.734 -0.632 0.248 48 97 137 0 0
3.3118 4.2400 0.3527 0.178 -0.979 -0.101 39 92 130 0 0
3.3385 4.1852 0.3521 0.185 -0.982 -0.022 43 90 123 0 0
3.4890 4.1501 0.3582 0.232 -0.889 -0.393 61 104 125 0 0
3.4966 4.1464 0.3585 0.074 -0.994 -0.074 70 114 137 0 0
3.5064 4.1481 0.3590 -0.145 -0.969 -0.201 73 119 143 0 0
3.5383 4.1146 0.3594 -0.124 -0.992 0.037 82 122 143 0 0
3.5469 4.1136 0.3598 -0.124 -0.992 0.037 69 104 121 0 0
3.5554 4.1125 0.3601 -0.124 -0.992 0.037 67 97 110 0 0
3.5640 4.1115 0.3605 -0.124 -0.992 0.037 69 97 108 0 0
3.5734 4.1126 0.3610 -0.047 -0.992 0.113 51 78 91 0 0
3.5823 4.1122 0.3615 -0.047 -0.992 0.113 37 65 84 0 0
3.5916 4.1131 0.3619 0.104 -0.984 0.148 33 61 90 0 0
3.6017 4.1158 0.3625 0.283 -0.959 0.015 30 60 93 0 0
3.6113 4.1173 0.3631 0.143 -0.965 -0.220 32 62 97 0 0
3.6194 4.1151 0.3634 -0.061 -0.920 -0.388 36 71 108 0 0
3.6849 4.1424 0.3676 0.276 -0.775 -0.569 34 89 133 0 0
3.6667 4.0784 0.3644 0.370 -0.923 -0.111 31 88 134 0 0
3.6734 4.0731 0.3645 -0.541 -0.841 -0.012 28 87 134 0 0
3.7198 3.9181 0.3612 -0.739 -0.188 -0.647 26 89 133 0 0
4.0029 3.9830 0.3776 0.302 -0.718 0.627 188 197 205 0 0
4.0179 3.9780 0.3781 0.480 -0.877 0.008 189 204 210 0 0
4.0300 3.9846 0.3790 0.480 -0.877 0.008 190 206 210 0 0
4.0384 3.9839 0.3793 0.401 -0.877 -0.266 191 206 208 0 0
4.0497 3.9888 0.3801 0.401 -0.877 -0.266 192 204 206 0 0
4.0597 3.9914 0.3807 -0.696 -0.236 -0.678 193 204 206 0 0
4.0631 3.9809 0.3805 -0.605 -0.390 -0.694 195 205 208 0 0
4.0654 3.9683 0.3801 -0.606 -0.172 -0.777 195 206 210 0 0
-2.2495 5.6583 0.1175 -0.568 -0.796 0.210 77 63 63 0 0
-2.1728 5.6462 0.1209 -0.728 -0.616 0.301 106 95 93 0 0
-2.1455 5.6173 0.1212 -0.785 -0.571 0.241 106 95 93 0 0
-1.7734 5.3415 0.1300 -0.379 -0.703 -0.601 117 99 98 0 0
-1.7699 5.3565 0.1307 -0.058 -0.985 -0.160 117 99 99 0 0
-1.7584 5.3560 0.1313 -0.081 -0.980 -0.180 127 111 112 0 0
-1.7514 5.3643 0.1319 -0.428 -0.903 -0.036 135 119 121 0 0
-1.7344 5.3525 0.1324 -0.587 -0.808 0.048 130 116 119 0 0
-1.7210 5.3482 0.1329 -0.193 -0.967 -0.166 126 114 118 0 0
-1.5763 5.6963 0.1521 -0.550 -0.819 0.163 93 78 71 0 0
-1.5543 5.6734 0.1524 -0.531 -0.846 -0.045 89 75 66 0 0
-1.5388 5.6650 0.1529 -0.589 -0.808 0.009 88 74 65 0 0
-1.5138 5.6350 0.1531 -0.725 -0.633 -0.271 89 75 66 0 0
-1.2031 5.7344 0.1719 0.543 -0.770 -0.336 156 144 135 0 0
-1.1934 5.7399 0.1726 0.746 -0.588 -0.313 80 70 64 0 0
-1.1793 5.8577 0.1774 0.539 -0.768 -0.347 27 12 12 0 0
-0.9712 5.9166 0.1898 0.227 -0.875 -0.428 9 7 9 0 0
-0.9976 6.0633 0.1935 -0.788 -0.578 -0.214 39 27 23 0 0
-0.8907 5.8941 0.1930 -0.026 -0.950 -0.311 151 130 121 0 0
-0.7814 5.9686 0.2010 0.157 -0.923 -0.350 140 121 115 0 0
-0.7360 5.9798 0.2036 -0.265 -0.918 -0.293 153 145 136 0 0
-0.6627 5.9006 0.2045 -0.546 -0.826 -0.137 6 6 7 0 0
-0.6617 5.9369 0.2058 -0.552 -0.751 -0.362 6 7 9 0 0
-0.6758 6.0648 0.2095 0.416 -0.439 0.797 8 9 11 0 0
-0.3769 6.1071 0.2258 0.042 -0.987 -0.152 41 34 28 0 0
-0.4370 6.4420 0.2345 0.228 -0.957 0.179 47 38 33 0 0
-0.4173 6.4675 0.2363 -0.870 -0.493 0.004 45 38 32 0 0
-0.1881 6.4373 0.2466 0.355 -0.855 -0.378 175 146 140 0 0
0.2457 6.7462 0.2788 0.098 -0.927 -0.363 94 77 67 0 0
0.6021 5.0901 0.2389 -0.256 -0.713 -0.652 7 5 6 0 0
0.6134 5.0856 0.2393 -0.256 -0.713 -0.652 6 6 8 0 0
1.0649 4.3451 0.2359 -0.546 -0.791 0.278 37 99 146 0 0
1.1033 4.3341 0.2374 0.406 -0.759 0.510 37 98 145 0 0
1.1162 4.2824 0.2363 0.110 -0.498 -0.860 37 98 145 0 0
1.1211 4.3490 0.2388 0.697 -0.475 0.537 39 100 147 0 0
1.1321 4.3237 0.2385 0.785 -0.608 0.118 41 102 149 0 0
1.1865 3.7299 0.2206 0.621 -0.779 0.091 37 101 145 0 0
1.4398 4.5513 0.2616 -0.383 -0.846 0.371 35 101 151 0 0
2.0071 4.5662 0.2902 0.772 -0.327 -0.545 32 104 152 0 0
2.0195 4.5927 0.2918 0.772 -0.327 -0.545 33 105 153 0 0
2.0319 4.6194 0.2933 0.772 -0.327 -0.545 32 106 153 0 0
2.0882 4.7805 0.3017 0.740 -0.435 0.513 30 107 153 0 0
2.1014 4.8089 0.3033 0.655 -0.425 0.624 30 107 153 0 0
2.1143 4.8339 0.3049 0.725 -0.499 0.475 29 106 152 0 0
2.1268 4.8552 0.3062 -0.300 -0.662 -0.686 29 106 152 0 0
2.1558 4.9293 0.3102 -0.828 -0.357 -0.433 32 106 153 0 0
2.1635 4.9060 0.3098 -0.827 -0.359 -0.433 33 107 154 0 0
2.2714 4.6380 0.3058 -0.448 -0.116 -0.886 31 105 154 0 0
2.3156 4.1705 0.2918 -0.876 -0.390 0.283 28 104 153 0 0
2.7347 4.4545 0.3224 0.257 -0.935 -0.244 37 105 150 0 0
2.8624 4.3909 0.3265 0.037 -0.977 -0.208 44 117 159 0 0
2.8814 4.3914 0.3274 0.037 -0.977 -0.208 37 103 146 0 0
2.9469 4.3532 0.3294 -0.160 -0.749 -0.643 34 98 144 0 0
2.9555 4.3502 0.3297 0.065 -0.804 -0.592 61 121 162 0 0
3.0444 4.3326 0.3335 -0.215 -0.559 -0.801 37 99 143 0 0
3.0825 4.3033 0.3343 -0.414 -0.751 -0.514 58 103 133 0 0
3.2740 4.2358 0.3415 0.003 -0.853 0.522 40 98 142 0 0
3.3390 4.1855 0.3429 0.185 -0.982 -0.022 42 95 132 0 0
3.3603 4.1942 0.3443 0.087 -0.898 -0.431 42 99 137 0 0
3.3691 4.1933 0.3447 0.106 -0.877 -0.469 39 98 134 0 0
3.3896 4.1994 0.3459 0.049 -0.839 -0.543 41 92 122 0 0
3.4059 4.1940 0.3466 0.009 -0.922 -0.387 51 105 137 0 0
3.4150 4.1939 0.3470 0.009 -0.922 -0.387 54 108 140 0 0
3.4245 4.1948 0.3475 -0.002 -0.941 -0.338 56 108 139 0 0
3.4911 4.1546 0.3494 0.232 -0.889 -0.393 45 99 130 0 0
3.5082 4.1518 0.3501 -0.183 -0.891 -0.415 39 97 131 0 0
3.5405 4.1192 0.3506 -0.214 -0.977 -0.005 65 112 142 0 0
3.5486 4.1168 0.3509 -0.188 -0.982 0.032 76 117 141 0 0
3.5569 4.1152 0.3513 -0.188 -0.982 0.032 91 126 145 0 0
3.5653 4.1137 0.3516 -0.188 -0.982 0.032 82 111 129 0 0
3.5736 4.1121 0.3520 -0.188 -0.982 0.032 49 76 95 0 0
3.5824 4.1115 0.3524 -0.034 -0.994 0.099 37 68 94 0 0
3.5915 4.1117 0.3529 0.104 -0.984 0.148 40 77 112 0 0
3.6021 4.1158 0.3535 0.283 -0.959 0.015 37 79 118 0 0
3.6213 4.1187 0.3546 -0.061 -0.920 -0.388 26 74 114 0 0
3.6917 3.4850 0.3361 -0.589 -0.689 0.423 31 76 111 0 0
3.6971 3.4798 0.3361 -0.456 -0.685 0.568 30 74 108 0 0
3.9742 3.9773 0.3671 -0.706 -0.560 0.433 71 101 132 0 0
3.9811 3.9735 0.3674 -0.464 -0.770 0.438 93 119 146 0 0
3.9870 3.9679 0.3675 0.247 -0.941 0.231 112 131 153 0 0
3.9936 3.9635 0.3676 0.401 -0.916 0.025 121 136 154 0 0
4.0035 3.9658 0.3682 0.540 -0.836 -0.099 129 145 162 0 0
4.0184 3.9782 0.3694 0.480 -0.877 0.008 140 158 173 0 0
4.0305 3.9848 0.3702 0.480 -0.877 0.008 152 172 184 0 0
4.0406 3.9876 0.3708 0.399 -0.915 -0.059 161 184 192 0 0
4.0519 3.9925 0.3715 0.401 -0.877 -0.266 170 192 199 0 0
4.0527 3.7162 0.3620 -0.005 -0.072 -0.997 195 204 205 0 0
-2.1260 5.5399 0.1080 -0.726 -0.668 0.161 105 94 92 0 0
-2.1627 5.6287 0.1091 -0.761 -0.615 0.208 105 94 92 0 0
-1.8095 5.2615 0.1145 0.454 -0.102 -0.885 123 112 114 0 0
-1.8104 5.2847 0.1152 0.539 -0.120 -0.834 122 111 115 0 0
-1.8014 5.3539 0.1179 0.371 -0.836 -0.404 116 101 100 0 0
-1.7711 5.3602 0.1196 -0.063 -0.968 -0.243 117 100 100 0 0
-1.7594 5.3593 0.1202 -0.063 -0.968 -0.243 132 116 117 0 0
-1.7507 5.3641 0.1208 -0.399 -0.892 -0.213 132 117 120 0 0
-1.7194 5.3462 0.1217 -0.403 -0.905 -0.132 123 111 113 0 0
-1.5964 5.7160 0.1400 -0.666 -0.699 0.260 85 70 63 0 0
-1.5778 5.7011 0.1404 -0.555 -0.828 0.082 94 79 72 0 0
-1.5392 5.6672 0.1412 -0.569 -0.813 0.126 91 77 68 0 0
-1.5197 5.6498 0.1416 -0.759 -0.634 -0.147 86 72 63 0 0
-1.2042 5.7388 0.1602 0.543 -0.770 -0.336 155 143 134 0 0
-1.1947 5.7446 0.1608 0.746 -0.588 -0.313 77 68 61 0 0
-0.9735 5.9250 0.1778 0.095 -0.841 -0.533 8 5 8 0 0
-0.9945 6.0560 0.1810 -0.812 -0.565 -0.147 37 24 21 0 0
-0.8925 5.9014 0.1810 0.009 -0.976 -0.217 150 128 120 0 0
-0.7360 5.9818 0.1914 -0.301 -0.935 -0.189 154 146 137 0 0
-0.6627 5.9025 0.1924 -0.546 -0.826 -0.137 7 7 8 0 0
-0.6631 5.9438 0.1937 -0.552 -0.751 -0.362 7 8 10 0 0
-0.6666 6.0364 0.1966 -0.017 -0.454 0.891 8 9 11 0 0
-0.3891 6.1086 0.2127 0.042 -0.987 -0.152 48 43 37 0 0
-0.3767 6.1091 0.2134 0.042 -0.987 -0.152 41 34 28 0 0
-0.4145 6.4590 0.2231 -0.878 -0.476 0.047 43 36 30 0 0
-0.3046 6.3279 0.2242 0.451 -0.817 -0.361 65 50 46 0 0
-0.2688 6.3399 0.2263 0.040 -0.943 -0.331 177 158 152 0 0
-0.1773 6.4504 0.2345 0.163 -0.941 -0.297 184 159 152 0 0
0.7407 5.0985 0.2353 -0.131 -0.978 -0.160 38 87 128 0 0
0.9722 5.0188 0.2441 0.189 -0.321 0.928 36 97 142 0 0
1.1035 4.3382 0.2282 -0.103 -0.941 0.322 43 97 143 0 0
1.1129 4.3373 0.2286 -0.103 -0.941 0.322 46 97 142 0 0
1.1658 4.3997 0.2333 -0.628 -0.176 0.758 38 101 145 0 0
1.4891 4.5733 0.2550 0.687 -0.513 0.515 35 103 152 0 0
1.7559 5.8399 0.3101 0.523 -0.388 0.758 32 105 150 0 0
1.7687 5.8603 0.3114 0.549 -0.422 0.721 32 104 152 0 0
1.7816 5.8796 0.3126 0.529 -0.417 0.739 31 105 152 0 0
1.7776 4.4743 0.2660 0.706 -0.360 -0.610 30 106 155 0 0
2.1184 4.8673 0.2959 -0.228 -0.688 -0.689 30 107 153 0 0
2.1285 4.8657 0.2963 -0.258 -0.658 -0.707 29 106 152 0 0
2.1385 4.8631 0.2967 -0.238 -0.669 -0.704 31 105 152 0 0
2.1497 4.8710 0.2976 0.517 -0.700 -0.493 32 106 153 0 0
2.2651 5.2162 0.3147 0.220 -0.486 -0.846 31 105 152 0 0
2.2907 5.2455 0.3169 0.070 -0.345 -0.936 30 107 153 0 0
2.6818 4.8021 0.3216 -0.970 -0.192 -0.149 32 104 152 0 0
2.7362 4.4590 0.3130 0.115 -0.968 -0.223 33 104 148 0 0
2.8728 4.3929 0.3176 -0.073 -0.970 -0.232 35 100 142 0 0
2.9396 4.4303 0.3221 0.142 -0.954 -0.265 52 125 170 0 0
2.9494 4.4315 0.3226 -0.230 -0.971 -0.072 69 134 182 0 0
2.9403 4.3622 0.3199 -0.138 -0.806 -0.576 52 116 164 0 0
2.9576 4.3563 0.3206 -0.032 -0.831 -0.555 35 102 148 0 0
2.9668 4.3557 0.3210 -0.032 -0.831 -0.555 48 107 147 0 0
2.9852 4.3540 0.3218 0.010 -0.889 -0.457 38 99 145 0 0
3.0048 4.3570 0.3229 0.386 -0.918 0.095 28 99 147 0 0
3.0541 4.3323 0.3245 -0.368 -0.687 -0.627 40 110 156 0 0
3.1302 4.2754 0.3264 -0.116 -0.965 -0.237 59 100 130 0 0
3.1473 4.2706 0.3271 -0.141 -0.918 -0.372 64 96 120 0 0
3.1750 4.2704 0.3285 -0.115 -0.909 -0.400 99 123 135 0 0
3.2147 4.2501 0.3298 -0.146 -0.874 0.463 53 99 127 0 0
3.2734 4.2327 0.3321 0.000 -0.991 0.131 34 96 140 0 0
3.2870 4.2457 0.3332 -0.496 -0.842 0.213 36 98 142 0 0
3.2941 4.2396 0.3334 0.016 -0.995 0.104 34 95 137 0 0
3.3033 4.2396 0.3338 -0.297 -0.951 -0.084 31 91 131 0 0
3.3405 4.1884 0.3340 0.300 -0.954 0.006 34 93 134 0 0
3.3499 4.1892 0.3345 0.515 -0.852 0.091 33 94 135 0 0
3.3600 4.1920 0.3350 0.188 -0.981 -0.047 33 96 138 0 0
3.3701 4.1948 0.3356 0.081 -0.969 -0.233 34 96 137 0 0
3.3914 4.2031 0.3370 -0.102 -0.901 -0.422 44 101 138 0 0
3.4074 4.1968 0.3376 0.015 -0.945 -0.328 37 98 137 0 0
3.4166 4.1971 0.3380 0.192 -0.967 -0.167 33 94 133 0 0
3.4261 4.1980 0.3385 -0.002 -0.941 -0.338 38 98 136 0 0
3.5409 4.1190 0.3416 -0.111 -0.991 0.071 50 103 138 0 0
3.5492 4.1174 0.3419 -0.214 -0.977 -0.005 72 120 149 0 0
3.5568 4.1139 0.3422 -0.078 -0.995 -0.058 92 134 155 0 0
3.5660 4.1144 0.3427 -0.100 -0.994 0.051 76 109 129 0 0
3.5746 4.1135 0.3431 -0.100 -0.994 0.051 47 76 98 0 0
3.5827 4.1112 0.3434 -0.155 -0.987 0.052 40 75 102 0 0
3.5914 4.1106 0.3438 -0.076 -0.984 0.160 42 86 123 0 0
3.6026 4.1160 0.3445 0.297 -0.955 -0.010 37 89 130 0 0
3.6231 4.1222 0.3458 -0.113 -0.890 -0.442 29 88 132 0 0
3.6949 3.4745 0.3279 -0.456 -0.685 0.568 27 80 125 0 0
3.9611 3.9676 0.3574 -0.329 -0.935 -0.130 32 77 119 0 0
3.9937 3.9629 0.3589 0.134 -0.958 -0.256 72 100 126 0 0
4.0000 3.9582 0.3590 0.062 -0.871 -0.488 73 96 123 0 0
4.0119 3.9644 0.3598 -0.075 -0.958 -0.278 79 101 127 0 0
4.0220 3.9672 0.3604 -0.147 -0.989 -0.030 85 112 134 0 0
4.0347 3.9750 0.3613 0.391 -0.909 -0.145 82 113 132 0 0
4.2825 4.2465 0.3825 0.112 -0.173 -0.979 190 204 210 0 0
4.0959 3.8435 0.3600 -0.088 -0.087 -0.992 193 204 208 0 0
4.1014 3.8379 0.3601 -0.083 -0.089 -0.993 195 204 209 0 0
-2.1496 5.6059 0.0974 -0.802 -0.580 0.139 105 94 92 0 0
-1.8238 5.2690 0.1029 0.573 -0.122 -0.810 122 109 110 0 0
-1.8198 5.2827 0.1036 0.519 -0.116 -0.847 122 110 112 0 0
-1.8191 5.3027 0.1042 0.617 -0.128 -0.776 121 109 111 0 0
-1.8191 5.3243 0.1049 0.699 -0.147 -0.700 112 100 102 0 0
-1.8159 5.3398 0.1056 0.696 -0.147 -0.703 113 101 102 0 0
-1.8028 5.3578 0.1068 0.253 -0.890 -0.380 115 100 99 0 0
-1.7812 5.3593 0.1079 -0.158 -0.878 -0.451 113 96 94 0 0
-1.7719 5.3630 0.1085 -0.063 -0.968 -0.243 121 105 105 0 0
-1.7593 5.3602 0.1090 -0.081 -0.980 -0.180 134 119 120 0 0
-1.7504 5.3647 0.1096 -0.428 -0.903 -0.036 127 112 115 0 0
-1.7183 5.3451 0.1106 -0.481 -0.875 0.057 120 108 110 0 0
-1.8819 6.0747 0.1253 0.282 -0.959 0.007 59 49 47 0 0
-1.8710 6.0779 0.1259 0.282 -0.959 0.007 70 59 54 0 0
-1.8147 6.0101 0.1266 -0.011 -0.815 -0.580 82 67 60 0 0
-1.6951 5.8037 0.1261 -0.457 -0.618 -0.640 87 73 64 0 0
-1.6187 5.7408 0.1279 -0.713 -0.690 -0.121 82 67 60 0 0
-1.5926 5.7092 0.1282 -0.619 -0.743 0.255 80 65 58 0 0
-1.5376 5.6651 0.1295 -0.516 -0.780 0.354 93 79 70 0 0
-1.3063 5.5602 0.1377 -0.673 -0.706 -0.222 170 154 142 0 0
-1.1961 5.7500 0.1491 0.621 -0.716 -0.319 75 67 58 0 0
-0.9757 5.9334 0.1657 0.095 -0.819 -0.565 8 5 7 0 0
-0.9953 6.0605 0.1687 -0.812 -0.565 -0.147 35 22 19 0 0
-0.6624 5.9036 0.1803 -0.571 -0.803 -0.173 8 8 8 0 0
-0.6162 5.9519 0.1841 0.415 -0.909 -0.034 11 13 14 0 0
-0.4612 6.1010 0.1964 -0.013 -0.918 -0.397 163 145 141 0 0
-0.3868 6.1022 0.2002 -0.349 -0.929 -0.128 49 44 38 0 0
-0.3765 6.1110 0.2009 0.042 -0.987 -0.152 41 33 27 0 0
-0.4397 6.4580 0.2087 0.298 -0.857 -0.420 46 37 32 0 0
-0.3283 6.3225 0.2099 -0.021 -0.929 -0.369 52 40 38 0 0
-0.3189 6.3369 0.2109 0.145 -0.930 -0.338 55 41 38 0 0
-0.3065 6.3386 0.2115 0.145 -0.930 -0.338 63 49 46 0 0
0.3136 6.7551 0.2553 0.489 -0.859 -0.150 70 52 50 0 0
0.7190 5.1049 0.2237 -0.593 -0.791 -0.149 64 90 115 0 0
0.7540 5.2690 0.2306 0.322 -0.180 -0.930 35 89 135 0 0
0.8208 5.3701 0.2370 0.606 -0.651 0.457 36 95 139 0 0
1.1815 4.2936 0.2212 0.572 -0.392 0.721 42 101 143 0 0
1.4309 4.5575 0.2418 0.087 -0.995 -0.052 32 102 151 0 0
1.4408 4.5461 0.2420 -0.397 -0.817 -0.417 32 102 153 0 0
1.4506 4.5334 0.2420 -0.321 -0.807 0.495 33 103 154 0 0
1.7297 5.7635 0.2943 0.818 -0.575 0.020 31 105 152 0 0
1.7423 5.7828 0.2956 0.908 -0.416 0.059 32 106 153 0 0
1.7553 5.8115 0.2971 0.908 -0.416 0.059 32 106 153 0 0
1.7940 5.8741 0.3010 0.613 -0.299 0.731 29 108 151 0 0
2.1196 4.8737 0.2858 -0.163 -0.535 -0.829 31 107 156 0 0
2.1298 4.8726 0.2863 -0.089 -0.560 -0.824 30 106 155 0 0
2.2830 4.7146 0.2889 -0.443 -0.160 -0.882 32 106 155 0 0
2.6939 4.9606 0.3170 -0.676 -0.121 0.727 33 107 154 0 0
2.5813 4.1332 0.2855 -0.778 -0.568 0.266 32 106 155 0 0
2.7150 4.4481 0.3020 0.620 -0.767 0.165 32 106 153 0 0
2.7363 4.4572 0.3033 0.275 -0.956 -0.102 31 105 150 0 0
2.7437 4.4480 0.3034 -0.413 -0.888 -0.200 39 112 157 0 0
2.7840 4.4163 0.3044 -0.304 -0.952 -0.028 40 108 150 0 0
2.9416 4.4363 0.3128 -0.192 -0.977 -0.098 46 119 162 0 0
2.9872 4.3597 0.3127 0.240 -0.970 -0.045 25 88 140 0 0
3.1313 4.2774 0.3172 -0.100 -0.964 -0.247 50 98 133 0 0
3.1402 4.2764 0.3177 -0.100 -0.964 -0.247 56 99 130 0 0
3.1484 4.2728 0.3179 0.067 -0.969 -0.237 72 110 135 0 0
3.1577 4.2731 0.3184 0.091 -0.949 -0.303 95 126 146 0 0
3.1676 4.2749 0.3190 -0.050 -0.909 -0.413 93 119 132 0 0
3.2277 4.2324 0.3206 -0.480 -0.629 0.612 32 92 131 0 0
3.2772 4.2427 0.3234 0.551 -0.834 0.019 30 98 141 0 0
3.3410 4.1888 0.3249 0.344 -0.930 -0.130 31 95 140 0 0
3.3515 4.1926 0.3255 0.344 -0.930 -0.130 30 95 141 0 0
3.3607 4.1930 0.3260 0.359 -0.908 0.218 27 93 140 0 0
3.3709 4.1957 0.3265 0.333 -0.943 0.027 26 91 138 0 0
3.3794 4.1940 0.3269 -0.149 -0.932 0.330 29 91 136 0 0
3.3907 4.2001 0.3277 0.059 -0.986 0.155 32 93 137 0 0
3.4106 4.2046 0.3288 -0.259 -0.935 -0.241 30 96 141 0 0
3.4191 4.2027 0.3292 -0.269 -0.935 -0.229 30 97 142 0 0
3.4489 4.1605 0.3293 -0.201 -0.978 0.051 43 104 142 0 0
3.4580 4.1605 0.3298 -0.076 -0.979 -0.188 44 102 139 0 0
3.4668 4.1598 0.3302 -0.076 -0.979 -0.188 43 101 138 0 0
3.4755 4.1590 0.3306 -0.076 -0.979 -0.188 39 99 138 0 0
3.4844 4.1586 0.3310 -0.161 -0.985 -0.066 33 97 138 0 0
3.5009 4.1542 0.3317 0.078 -0.963 -0.260 23 98 144 0 0
3.5117 4.1588 0.3324 -0.305 -0.943 -0.135 21 98 143 0 0
3.5203 4.1576 0.3328 -0.202 -0.976 -0.085 22 98 141 0 0
3.5413 4.1191 0.3326 -0.214 -0.977 -0.005 50 107 147 0 0
3.5496 4.1173 0.3329 -0.214 -0.977 -0.005 67 119 151 0 0
3.5574 4.1143 0.3332 -0.078 -0.995 -0.058 88 136 158 0 0
3.5660 4.1134 0.3336 -0.115 -0.993 -0.031 99 138 157 0 0
3.5748 4.1130 0.3341 -0.100 -0.994 0.051 84 118 138 0 0
3.5835 4.1122 0.3345 -0.100 -0.994 0.051 58 97 123 0 0
3.5926 4.1126 0.3349 -0.047 -0.994 0.102 40 90 125 0 0
3.6031 4.1162 0.3356 0.297 -0.955 -0.010 33 91 132 0 0
3.6248 4.1253 0.3369 0.032 -0.995 -0.097 23 88 136 0 0
3.6888 3.4775 0.3198 -0.589 -0.689 0.423 28 84 133 0 0
3.9606 3.9658 0.3485 -0.069 -0.961 -0.266 27 79 127 0 0
3.9877 3.9677 0.3500 0.047 -0.913 -0.405 44 93 132 0 0
3.9966 3.9680 0.3504 0.047 -0.913 -0.405 55 99 135 0 0
4.0129 3.9657 0.3511 -0.011 -0.903 -0.430 85 121 154 0 0
4.0216 3.9657 0.3516 -0.102 -0.892 -0.440 73 108 141 0 0
4.0308 3.9666 0.3521 0.030 -0.946 -0.324 49 87 120 0 0
4.0394 3.9664 0.3525 -0.102 -0.962 -0.255 37 80 114 0 0
4.1321 4.0962 0.3611 -0.763 -0.159 -0.627 36 77 113 0 0
4.1308 4.0761 0.3604 -0.919 -0.154 -0.364 42 81 113 0 0
4.1227 3.8452 0.3528 -0.032 -0.078 -0.996 191 203 209 0 0
-2.2284 5.6235 0.0823 -0.449 -0.880 0.153 77 65 65 0 0
-2.1396 5.5886 0.0857 -0.809 -0.575 0.121 106 94 93 0 0
-1.8369 5.2955 0.0920 0.665 -0.134 -0.735 124 110 111 0 0
-1.8316 5.3065 0.0926 0.675 -0.135 -0.725 123 111 113 0 0
-1.8147 5.3605 0.0951 -0.017 -0.826 -0.564 116 101 101 0 0
-1.7841 5.3662 0.0967 -0.074 -0.903 -0.423 115 97 97 0 0
-1.7720 5.3644 0.0973 0.015 -0.925 -0.379 126 110 111 0 0
-1.7603 5.3633 0.0978 -0.302 -0.909 -0.288 134 118 119 0 0
-1.7174 5.3446 0.0994 -0.381 -0.923 0.052 118 106 106 0 0
-1.6579 5.2692 0.1001 0.642 -0.572 -0.511 104 91 85 0 0
-1.9937 6.1018 0.1081 -0.514 -0.826 -0.230 78 69 59 0 0
-1.8819 6.0763 0.1129 0.059 -0.995 0.077 61 50 48 0 0
-1.8699 6.0771 0.1135 0.141 -0.988 0.068 73 60 55 0 0
-1.6762 5.7900 0.1146 -0.203 -0.655 -0.727 92 78 69 0 0
-1.6651 5.7919 0.1152 -0.693 -0.590 -0.414 94 80 71 0 0
-1.6386 5.7598 0.1156 -0.584 -0.601 -0.546 96 81 74 0 0
-1.6332 5.7741 0.1163 -0.498 -0.511 -0.701 94 79 72 0 0
-1.6116 5.7526 0.1167 -0.552 -0.535 -0.640 90 75 68 0 0
-1.5336 5.6576 0.1178 -0.558 -0.810 0.180 91 77 68 0 0
-1.4281 5.5501 0.1198 0.308 -0.947 -0.087 105 89 79 0 0
-1.1971 5.6057 0.1329 0.182 -0.947 0.264 173 158 150 0 0
-1.1902 5.6468 0.1344 0.633 -0.727 -0.268 181 163 151 0 0
-1.1972 5.7544 0.1373 0.621 -0.716 -0.319 73 65 56 0 0
-0.9962 6.0650 0.1564 -0.812 -0.565 -0.147 34 22 19 0 0
-0.7462 5.9796 0.1663 0.319 -0.843 -0.432 156 143 134 0 0
-0.3764 6.1129 0.1885 0.042 -0.987 -0.152 41 34 28 0 0
-0.4649 6.5079 0.1958 -0.244 -0.968 -0.055 43 34 29 0 0
-0.4428 6.4727 0.1959 0.008 -0.825 -0.565 46 37 32 0 0
-0.4283 6.4673 0.1964 -0.873 -0.479 0.092 44 37 31 0 0
-0.4133 6.4597 0.1969 -0.535 -0.644 -0.547 41 36 30 0 0
-0.3736 6.4578 0.1988 -0.068 -0.984 0.163 48 38 36 0 0
-0.3198 6.3431 0.1981 0.032 -0.962 -0.271 56 42 39 0 0
-0.3073 6.3447 0.1988 0.112 -0.956 -0.270 64 50 47 0 0
0.3045 6.7299 0.2405 -0.133 -0.849 -0.511 57 38 32 0 0
0.6152 5.1624 0.2095 0.239 -0.682 -0.692 5 7 6 0 0
0.7532 5.2809 0.2198 0.433 -0.188 -0.882 35 89 135 0 0
0.7694 5.3345 0.2222 0.502 -0.173 -0.848 35 92 137 0 0
0.8228 5.3560 0.2255 -0.086 -0.502 0.860 36 95 139 0 0
1.2126 4.2394 0.2118 0.479 -0.338 -0.810 55 101 135 0 0
1.3266 4.4592 0.2240 -0.930 -0.263 -0.257 41 105 143 0 0
1.3370 4.4259 0.2235 -0.940 -0.284 -0.190 40 105 145 0 0
1.3476 4.3814 0.2227 -0.866 -0.251 -0.433 40 105 147 0 0
1.7302 5.7632 0.2825 0.842 -0.535 0.067 30 106 155 0 0
1.7932 5.8440 0.2880 0.796 -0.332 0.507 31 108 154 0 0
1.8067 5.8749 0.2896 0.647 -0.259 0.717 29 107 153 0 0
1.8425 5.2454 0.2727 0.960 -0.247 -0.132 32 109 155 0 0
2.2235 3.9695 0.2539 0.312 -0.941 -0.129 34 108 155 0 0
2.5082 5.1634 0.3033 0.906 -0.249 0.343 30 107 153 0 0
2.6860 4.9714 0.3064 -0.637 -0.210 0.742 34 108 155 0 0
2.7150 4.4460 0.2923 0.620 -0.767 0.165 32 108 157 0 0
2.7293 4.4670 0.2936 0.232 -0.971 0.062 33 107 154 0 0
2.7370 4.4585 0.2938 0.275 -0.956 -0.102 31 108 152 0 0
2.7498 4.4727 0.2948 -0.061 -0.997 -0.051 35 112 157 0 0
2.7838 4.4132 0.2947 0.002 -0.973 -0.229 39 110 152 0 0
2.9256 4.4465 0.3028 -0.497 -0.837 -0.228 44 105 149 0 0
3.0288 4.4391 0.3076 0.038 -0.989 -0.142 28 102 152 0 0
3.0420 4.3199 0.3048 -0.274 -0.933 -0.232 28 104 153 0 0
3.0513 4.3197 0.3052 0.176 -0.965 -0.195 24 103 153 0 0
3.0605 4.3193 0.3057 0.041 -0.979 -0.201 26 106 155 0 0
3.0700 4.3197 0.3062 0.154 -0.974 -0.167 29 105 154 0 0
3.0949 4.3092 0.3071 -0.063 -0.994 -0.090 25 101 154 0 0
3.1061 4.3154 0.3078 -0.166 -0.873 -0.459 31 103 151 0 0
3.1561 4.4179 0.3133 -0.773 -0.634 0.003 43 106 149 0 0
3.1783 4.3975 0.3138 0.082 -0.948 -0.308 64 112 146 0 0
3.1491 4.2739 0.3087 0.083 -0.993 -0.087 84 123 151 0 0
3.1588 4.2750 0.3092 0.096 -0.961 -0.261 96 130 151 0 0
3.1683 4.2758 0.3097 0.096 -0.961 -0.261 105 135 149 0 0
3.1783 4.2782 0.3103 -0.108 -0.950 -0.293 93 124 137 0 0
3.2138 4.2447 0.3111 -0.564 -0.825 -0.033 45 98 136 0 0
3.2194 4.2339 0.3110 -0.488 -0.800 0.347 38 98 139 0 0
3.2261 4.2262 0.3111 -0.502 -0.755 0.421 38 102 144 0 0
3.2930 4.2338 0.3147 0.384 -0.902 0.200 33 99 143 0 0
3.3286 4.2570 0.3171 0.457 -0.890 -0.007 33 98 140 0 0
3.3336 4.2448 0.3170 -0.401 -0.915 -0.041 33 98 140 0 0
3.3371 4.2024 0.3159 -0.144 -0.876 -0.461 30 98 144 0 0
3.3420 4.1904 0.3158 0.209 -0.962 -0.175 31 99 148 0 0
3.3521 4.1930 0.3164 -0.161 -0.987 0.005 33 101 150 0 0
3.3617 4.1946 0.3169 -0.034 -0.979 -0.199 32 100 150 0 0
3.3702 4.1927 0.3173 0.144 -0.977 -0.160 32 100 147 0 0
3.4009 4.2018 0.3191 0.208 -0.924 -0.322 35 100 145 0 0
3.4098 4.2012 0.3195 0.091 -0.921 -0.380 30 97 143 0 0
3.4191 4.2018 0.3200 0.043 -0.937 -0.346 28 97 145 0 0
3.4383 4.2041 0.3210 0.081 -0.918 -0.388 29 98 146 0 0
3.4489 4.1593 0.3202 -0.154 -0.978 0.138 41 106 150 0 0
3.4579 4.1592 0.3206 -0.188 -0.980 0.059 42 105 147 0 0
3.4663 4.1576 0.3210 -0.188 -0.980 0.059 40 102 142 0 0
3.4782 4.1648 0.3218 0.386 -0.917 -0.100 36 99 140 0 0
3.4890 4.1693 0.3225 0.386 -0.917 -0.100 32 98 142 0 0
3.5419 4.1197 0.3236 -0.160 -0.956 -0.245 58 119 161 0 0
3.5505 4.1186 0.3240 -0.245 -0.938 -0.245 71 129 162 0 0
3.5586 4.1164 0.3243 -0.245 -0.938 -0.245 88 140 163 0 0
3.5667 4.1142 0.3247 -0.245 -0.938 -0.245 99 142 159 0 0
3.5748 4.1120 0.3250 -0.245 -0.938 -0.245 89 125 143 0 0
3.5838 4.1120 0.3255 -0.159 -0.973 -0.167 59 99 122 0 0
3.5923 4.1109 0.3258 -0.044 -0.993 -0.109 37 87 120 0 0
3.7306 4.2466 0.3367 0.603 -0.523 -0.603 22 94 145 0 0
3.7385 4.2435 0.3370 0.621 -0.552 -0.557 20 93 143 0 0
3.9621 4.0039 0.3410 -0.729 -0.375 0.572 26 84 134 0 0
3.9640 3.9719 0.3401 -0.137 -0.915 -0.379 26 84 132 0 0
3.9802 3.9694 0.3409 0.102 -0.921 -0.376 28 88 132 0 0
3.9897 3.9709 0.3414 -0.035 -0.945 -0.324 36 92 134 0 0
3.9982 3.9705 0.3418 -0.035 -0.945 -0.324 55 107 147 0 0
4.0058 3.9683 0.3421 -0.125 -0.872 -0.473 78 126 162 0 0
4.0136 3.9664 0.3424 -0.199 -0.911 -0.362 81 126 162 0 0
4.0220 3.9656 0.3428 -0.349 -0.883 -0.314 56 100 139 0 0
4.0314 3.9670 0.3433 -0.070 -0.982 -0.174 36 81 121 0 0
4.0395 3.9657 0.3437 -0.140 -0.983 -0.116 32 81 125 0 0
4.1670 3.9595 0.3498 -0.159 -0.079 -0.984 103 126 145 0 0
4.1658 3.9410 0.3492 -0.099 -0.083 -0.992 117 139 156 0 0
-2.2271 5.6223 0.0707 -0.441 -0.871 0.215 78 66 66 0 0
-2.2125 5.6170 0.0713 -0.619 -0.780 0.094 87 76 75 0 0
-2.1107 5.5153 0.0735 -0.786 -0.618 0.018 106 94 93 0 0
-1.8398 5.3237 0.0816 0.751 -0.138 -0.646 124 110 110 0 0
-1.8196 5.3713 0.0839 -0.295 -0.858 -0.421 115 99 99 0 0
-1.7882 5.3756 0.0856 -0.286 -0.956 -0.063 120 102 103 0 0
-1.7750 5.3716 0.0861 -0.286 -0.956 -0.063 129 114 115 0 0
-1.7791 5.9626 0.1024 -0.022 -0.999 0.036 88 74 65 0 0
-1.6465 5.7787 0.1038 -0.524 -0.599 -0.606 96 81 73 0 0
-1.6451 5.8019 0.1045 -0.498 -0.511 -0.701 98 83 76 0 0
-1.6218 5.7766 0.1050 -0.571 -0.519 -0.636 97 82 75 0 0
-1.5457 5.6598 0.1055 -0.479 -0.836 0.269 91 77 69 0 0
-1.5310 5.6532 0.1060 -0.558 -0.810 0.180 91 77 68 0 0
-1.3363 5.5522 0.1129 -0.217 -0.923 -0.316 179 159 145 0 0
-1.3067 5.5640 0.1147 -0.639 -0.742 -0.202 174 159 150 0 0
-1.1933 5.6563 0.1229 0.260 -0.885 -0.387 179 162 152 0 0
-1.1358 5.8133 0.1301 0.325 -0.905 -0.274 44 23 23 0 0
-0.9971 6.0695 0.1441 -0.812 -0.565 -0.147 33 21 18 0 0
-0.7466 5.9830 0.1541 0.263 -0.942 -0.207 155 142 133 0 0
-0.6952 6.0964 0.1598 0.355 -0.327 -0.876 7 7 8 0 0
-0.3762 6.1148 0.1761 0.042 -0.987 -0.152 42 35 29 0 0
-0.4638 6.5063 0.1826 -0.401 -0.913 -0.076 43 33 31 0 0
-0.4408 6.4678 0.1827 0.348 -0.721 -0.599 46 36 34 0 0
-0.4130 6.4610 0.1839 -0.684 -0.612 -0.398 43 36 30 0 0
-0.3748 6.4656 0.1859 0.162 -0.806 -0.569 48 38 36 0 0
-0.3316 6.3415 0.1846 0.128 -0.952 -0.278 51 40 38 0 0
-0.3193 6.3441 0.1853 0.307 -0.938 -0.161 56 42 39 0 0
-0.3073 6.3479 0.1860 0.307 -0.938 -0.161 63 49 46 0 0
-0.1663 6.4693 0.1963 0.200 -0.914 -0.353 182 166 159 0 0
0.5521 5.1531 0.1953 -0.076 -0.915 -0.395 43 25 23 0 0
0.8834 5.3101 0.2161 -0.415 -0.114 0.903 36 97 142 0 0
0.9536 5.0080 0.2111 -0.966 -0.249 -0.074 33 101 146 0 0
0.9684 4.9578 0.2105 -0.960 -0.275 0.062 30 101 145 0 0
1.2017 4.2822 0.2032 0.607 -0.389 0.693 84 103 120 0 0
1.5153 5.4176 0.2503 0.146 -0.191 -0.971 33 105 155 0 0
1.5632 4.8494 0.2369 -0.862 -0.283 -0.421 32 106 153 0 0
1.7802 5.8065 0.2743 0.592 -0.484 0.645 34 106 156 0 0
1.8435 5.2526 0.2620 0.949 -0.248 -0.195 31 109 157 0 0
2.7036 4.4358 0.2819 0.216 -0.842 0.494 29 107 155 0 0
2.7296 4.4664 0.2840 0.232 -0.971 0.062 32 109 155 0 0
2.7504 4.4731 0.2852 -0.061 -0.997 -0.051 30 111 158 0 0
2.7853 4.4180 0.2854 -0.288 -0.955 -0.063 32 106 148 0 0
2.9598 4.4295 0.2944 -0.341 -0.921 -0.187 52 105 147 0 0
2.9881 4.3597 0.2938 0.077 -0.991 0.110 57 106 147 0 0
3.0426 4.3203 0.2954 -0.430 -0.880 -0.201 36 106 152 0 0
3.1361 4.4449 0.3035 -0.032 -0.740 -0.671 33 106 152 0 0
3.1697 4.3990 0.3039 0.012 -0.988 -0.155 44 108 151 0 0
3.1792 4.3990 0.3044 0.013 -0.984 -0.176 51 107 145 0 0
3.1882 4.3974 0.3048 0.227 -0.958 -0.176 66 110 138 0 0
3.1599 4.2771 0.3000 0.308 -0.941 -0.140 78 113 134 0 0
3.1697 4.2791 0.3006 0.174 -0.969 -0.174 79 112 131 0 0
3.1796 4.2809 0.3011 -0.108 -0.950 -0.293 77 114 134 0 0
3.1872 4.2756 0.3014 -0.571 -0.783 -0.245 57 103 132 0 0
3.2138 4.2436 0.3018 -0.692 -0.721 0.026 35 97 147 0 0
3.2172 4.2256 0.3014 -0.588 -0.694 0.415 35 98 149 0 0
3.2928 4.2320 0.3054 0.139 -0.983 0.121 30 99 147 0 0
3.3291 4.2573 0.3079 0.457 -0.890 -0.007 32 100 143 0 0
3.3617 4.1932 0.3077 -0.014 -0.999 0.038 33 102 153 0 0
3.3705 4.1923 0.3081 0.124 -0.983 -0.132 36 105 154 0 0
3.3908 4.1980 0.3093 0.226 -0.974 -0.026 44 108 151 0 0
3.4003 4.1990 0.3098 0.240 -0.943 -0.232 35 99 143 0 0
3.4184 4.1986 0.3107 0.348 -0.897 -0.272 29 96 142 0 0
3.4261 4.1947 0.3109 -0.245 -0.968 -0.059 26 96 144 0 0
3.4386 4.2037 0.3118 0.275 -0.920 -0.281 26 97 147 0 0
3.4385 4.1547 0.3104 0.220 -0.958 0.185 32 103 153 0 0
3.4484 4.1571 0.3110 0.220 -0.958 0.185 41 110 158 0 0
3.4579 4.1581 0.3115 0.005 -0.976 0.218 47 113 158 0 0
3.4694 4.1644 0.3122 0.253 -0.959 0.127 49 112 154 0 0
3.4795 4.1672 0.3128 0.428 -0.904 0.002 45 108 149 0 0
3.4899 4.1707 0.3134 0.246 -0.969 0.001 38 103 145 0 0
3.5045 4.1614 0.3139 0.282 -0.921 0.269 26 97 144 0 0
3.5160 4.1676 0.3146 -0.311 -0.907 0.284 27 98 146 0 0
3.5454 4.1273 0.3150 -0.217 -0.911 -0.350 46 111 154 0 0
3.5607 4.1207 0.3155 -0.352 -0.873 -0.338 75 129 152 0 0
3.5687 4.1181 0.3159 -0.327 -0.866 -0.378 104 147 163 0 0
3.5765 4.1151 0.3162 -0.354 -0.870 -0.345 100 135 150 0 0
3.5844 4.1124 0.3165 -0.263 -0.947 -0.183 64 100 121 0 0
3.5931 4.1118 0.3169 -0.044 -0.993 -0.109 40 84 115 0 0
3.6460 4.1526 0.3206 0.554 -0.673 -0.490 25 92 144 0 0
3.6661 4.1793 0.3224 0.724 -0.566 -0.393 24 94 145 0 0
3.7408 4.2699 0.3286 0.629 -0.545 -0.555 23 96 147 0 0
3.9677 4.1063 0.3353 -0.443 -0.188 -0.876 19 87 134 0 0
3.9725 4.0976 0.3353 -0.468 -0.159 -0.869 22 88 136 0 0
3.9703 4.0745 0.3345 -0.602 -0.154 -0.784 23 86 137 0 0
3.9147 3.9416 0.3281 0.415 -0.689 -0.595 25 87 138 0 0
3.9525 4.0014 0.3316 -0.052 -0.972 0.228 26 86 136 0 0
3.9612 4.0013 0.3320 -0.657 -0.695 0.294 26 86 136 0 0
3.9670 3.9772 0.3317 -0.139 -0.959 -0.249 23 85 133 0 0
3.9745 3.9747 0.3320 -0.035 -0.945 -0.324 23 87 131 0 0
3.9830 3.9743 0.3324 -0.035 -0.945 -0.324 27 91 134 0 0
3.9915 3.9738 0.3328 -0.035 -0.945 -0.324 41 97 141 0 0
3.9998 3.9729 0.3332 -0.071 -0.956 -0.286 67 120 161 0 0
4.0077 3.9712 0.3335 -0.199 -0.911 -0.362 67 119 157 0 0
4.0155 3.9694 0.3338 -0.199 -0.911 -0.362 58 109 146 0 0
4.0325 3.9685 0.3347 -0.070 -0.982 -0.174 45 94 137 0 0
4.0403 3.9666 0.3350 -0.140 -0.983 -0.116 31 82 129 0 0
4.4626 4.5861 0.3731 0.193 -0.120 -0.974 39 86 124 0 0
4.2011 3.9573 0.3427 -0.291 -0.088 -0.953 61 95 122 0 0
4.2008 3.9406 0.3422 -0.204 -0.099 -0.974 71 103 128 0 0
-2.1232 5.5606 0.0626 -0.809 -0.575 0.121 105 93 93 0 0
-2.0602 5.4865 0.0638 -0.228 -0.876 0.424 106 94 94 0 0
-1.8516 5.2835 0.0688 0.789 -0.152 -0.595 118 104 103 0 0
-1.8527 5.3283 0.0699 0.887 -0.097 -0.451 126 112 112 0 0
-1.8466 5.3379 0.0705 0.800 -0.170 -0.575 120 106 106 0 0
-1.8436 5.3538 0.0710 0.830 -0.153 -0.536 112 98 98 0 0
-1.7938 5.3657 0.0738 0.066 -0.862 -0.502 114 97 95 0 0
-1.7900 5.3804 0.0744 -0.368 -0.917 -0.151 124 109 109 0 0
-1.7726 5.3681 0.0749 -0.097 -0.993 -0.066 130 115 118 0 0
-1.7886 5.4905 0.0773 0.727 -0.293 -0.621 110 99 97 0 0
-2.0144 6.1475 0.0833 -0.757 -0.650 0.063 67 57 49 0 0
-1.8841 6.0838 0.0881 -0.211 -0.977 0.016 62 51 49 0 0
-1.7635 5.9567 0.0907 -0.360 -0.929 0.091 93 79 70 0 0
-1.6762 5.8191 0.0915 -0.661 -0.616 -0.428 97 83 74 0 0
-1.6545 5.7976 0.0920 -0.524 -0.599 -0.606 99 84 77 0 0
-1.4689 5.5934 0.0959 -0.581 -0.741 -0.337 97 83 72 0 0
-1.4130 5.5448 0.0974 -0.229 -0.959 0.166 107 90 80 0 0
-1.3370 5.5553 0.1014 -0.322 -0.922 -0.216 178 158 145 0 0
-1.2863 5.5443 0.1036 -0.361 -0.915 -0.180 148 143 138 0 0
-1.1946 5.6610 0.1112 0.260 -0.885 -0.387 178 162 152 0 0
-1.2065 5.7211 0.1122 0.855 -0.494 0.158 176 161 152 0 0
-1.1747 5.8226 0.1164 0.978 -0.156 -0.140 22 8 8 0 0
-1.1365 5.8166 0.1181 0.325 -0.905 -0.274 57 37 37 0 0
-1.0747 5.9098 0.1236 -0.264 -0.940 -0.216 62 51 48 0 0
-1.0638 5.9131 0.1243 -0.091 -0.952 -0.291 51 40 35 0 0
-1.0529 5.9167 0.1249 0.307 -0.921 -0.242 39 27 22 0 0
-1.0530 5.9507 0.1258 0.787 -0.614 0.059 38 24 21 0 0
-0.9985 5.9692 0.1289 -0.343 -0.881 -0.325 4 4 5 0 0
-1.0023 6.0865 0.1318 -0.741 -0.653 -0.159 32 20 16 0 0
-0.6721 5.9818 0.1454 -0.248 -0.852 -0.461 8 8 8 0 0
-0.6272 5.9140 0.1459 0.057 -0.920 0.387 9 10 12 0 0
-0.6993 6.2385 0.1508 -0.905 -0.417 -0.084 11 13 14 0 0
-0.3861 6.1072 0.1629 -0.356 -0.927 -0.117 50 45 39 0 0
-0.3761 6.1167 0.1636 0.042 -0.987 -0.152 42 35 29 0 0
-0.4636 6.5082 0.1695 -0.367 -0.902 -0.226 43 33 31 0 0
-0.4147 6.4708 0.1709 -0.728 -0.633 -0.264 44 37 31 0 0
-0.3318 6.3452 0.1718 0.128 -0.952 -0.278 50 39 37 0 0
-0.3198 6.3487 0.1725 0.267 -0.937 -0.224 54 40 37 0 0
-0.1668 6.4750 0.1833 0.223 -0.925 -0.309 179 164 157 0 0
0.5510 5.1643 0.1847 0.032 -0.952 -0.306 50 33 30 0 0
0.6152 5.0920 0.1860 -0.158 -0.941 -0.300 7 7 7 0 0
0.8953 5.4321 0.2087 0.096 -0.158 0.983 37 98 143 0 0
0.9560 4.9858 0.2001 -0.972 -0.216 -0.088 35 102 144 0 0
1.1969 4.5779 0.2014 0.965 -0.107 -0.241 105 108 115 0 0
1.2881 4.2180 0.1965 -0.296 -0.458 -0.838 77 104 133 0 0
1.3257 4.1883 0.1976 -0.416 -0.512 -0.752 62 106 141 0 0
1.4599 5.3020 0.2333 -0.095 -0.092 -0.991 39 105 155 0 0
1.4709 5.2871 0.2334 -0.085 -0.091 -0.992 38 106 155 0 0
1.5525 4.7757 0.2241 0.876 -0.322 -0.359 32 109 155 0 0
1.5624 4.7605 0.2242 0.456 -0.596 -0.660 32 109 155 0 0
1.5727 4.7712 0.2250 0.912 -0.403 0.071 32 109 153 0 0
1.5832 4.7889 0.2260 -0.835 -0.550 0.017 34 108 153 0 0
1.7699 5.8323 0.2625 0.934 -0.353 -0.052 35 106 158 0 0
1.7827 5.8499 0.2636 0.884 -0.462 -0.070 35 106 158 0 0
1.7953 5.8628 0.2645 0.780 -0.623 -0.057 37 107 159 0 0
1.8084 5.8867 0.2658 0.287 -0.641 -0.712 36 107 159 0 0
1.8208 5.8919 0.2665 0.293 -0.724 -0.625 36 107 161 0 0
1.7842 4.5603 0.2300 0.622 -0.319 -0.715 33 110 156 0 0
1.9131 5.3002 0.2557 0.871 -0.474 -0.131 32 109 155 0 0
1.9998 5.2797 0.2594 0.517 -0.334 -0.788 31 109 157 0 0
2.2321 3.9634 0.2366 0.608 -0.441 0.660 35 109 156 0 0
2.8226 5.8284 0.3145 0.920 -0.252 0.301 33 107 154 0 0
2.6925 4.4268 0.2715 0.246 -0.773 0.585 31 109 155 0 0
2.7412 4.4732 0.2751 0.026 -0.999 -0.041 32 109 155 0 0
2.7509 4.4734 0.2756 0.026 -0.999 -0.041 29 111 159 0 0
3.0105 4.4387 0.2876 -0.248 -0.619 -0.745 84 130 167 0 0
3.0303 4.4412 0.2886 0.377 -0.913 -0.155 42 108 150 0 0
3.0395 4.4401 0.2890 0.323 -0.776 -0.542 37 109 151 0 0
3.0504 4.4449 0.2897 0.352 -0.723 -0.595 54 123 163 0 0
3.0611 4.4488 0.2903 0.281 -0.722 -0.632 61 125 164 0 0
3.1069 4.4419 0.2924 -0.391 -0.903 -0.178 31 106 154 0 0
3.3619 4.1926 0.2985 -0.242 -0.958 0.153 32 100 150 0 0
3.3809 4.1947 0.2995 0.275 -0.939 0.204 32 99 144 0 0
3.4213 4.2054 0.3018 0.196 -0.952 0.236 31 97 143 0 0
3.4270 4.1962 0.3019 -0.370 -0.885 0.282 26 97 144 0 0
3.4406 4.2080 0.3028 0.204 -0.896 -0.394 25 98 148 0 0
3.4512 4.2120 0.3035 0.349 -0.882 -0.317 27 100 151 0 0
3.4468 4.1517 0.3017 0.295 -0.953 -0.070 37 109 157 0 0
3.4576 4.1563 0.3023 -0.015 -0.989 0.149 42 111 156 0 0
3.4692 4.1628 0.3031 0.290 -0.945 0.154 57 122 165 0 0
3.4800 4.1674 0.3037 0.428 -0.904 0.002 61 124 166 0 0
3.4884 4.1656 0.3041 0.146 -0.988 -0.055 49 113 155 0 0
3.5329 4.1634 0.3062 -0.379 -0.911 -0.164 27 98 144 0 0
3.5619 4.1227 0.3066 -0.214 -0.833 -0.509 64 117 144 0 0
3.5700 4.1204 0.3070 -0.214 -0.833 -0.509 90 130 151 0 0
3.5781 4.1181 0.3073 -0.214 -0.833 -0.509 89 120 138 0 0
3.6199 4.1323 0.3097 -0.122 -0.992 0.036 33 90 138 0 0
3.6722 4.1930 0.3139 0.724 -0.566 -0.393 23 94 146 0 0
3.7368 4.2593 0.3188 0.538 -0.520 0.663 21 94 145 0 0
3.8428 4.4872 0.3300 0.177 -0.489 0.854 21 94 145 0 0
3.9657 3.9739 0.3227 0.036 -0.857 -0.515 24 88 132 0 0
3.9757 3.9763 0.3233 0.218 -0.853 -0.474 28 91 135 0 0
3.9932 3.9764 0.3242 -0.016 -0.911 -0.412 66 123 164 0 0
4.0020 3.9766 0.3246 -0.068 -0.913 -0.403 65 117 158 0 0
4.0094 3.9739 0.3249 -0.226 -0.893 -0.390 46 100 138 0 0
4.0171 3.9717 0.3252 -0.275 -0.862 -0.426 48 102 140 0 0
4.0337 3.9700 0.3260 -0.070 -0.982 -0.174 56 107 151 0 0
4.0420 3.9692 0.3264 -0.114 -0.959 -0.260 43 95 142 0 0
4.4305 4.5801 0.3616 0.086 -0.137 -0.987 25 82 131 0 0
-2.1416 5.5533 0.0500 -0.761 -0.647 0.052 103 92 90 0 0
-2.1150 5.5467 0.0511 -0.809 -0.575 0.121 105 93 93 0 0
-1.8580 5.2969 0.0578 0.807 -0.151 -0.571 118 106 106 0 0
-1.8615 5.3249 0.0583 0.902 -0.095 -0.420 122 110 110 0 0
-1.8352 5.3822 0.0610 -0.142 -0.965 -0.222 117 101 101 0 0
-1.8249 5.3841 0.0615 -0.207 -0.954 -0.216 113 97 97 0 0
-1.8008 5.3808 0.0626 -0.340 -0.940 -0.023 121 105 105 0 0
-1.7877 5.3769 0.0632 -0.374 -0.919 0.126 129 113 114 0 0
-1.7877 5.4444 0.0648 -0.227 -0.862 -0.453 124 112 114 0 0
-1.7970 5.4857 0.0654 0.562 -0.436 -0.703 117 105 105 0 0
-2.0101 6.1402 0.0708 -0.772 -0.629 0.093 65 56 47 0 0
-1.9043 5.9716 0.0719 0.238 -0.957 -0.165 34 30 27 0 0
-1.9013 6.0954 0.0751 0.107 -0.992 0.061 49 39 37 0 0
-1.8889 6.0955 0.0757 -0.019 -0.999 0.040 63 52 50 0 0
-1.8763 6.0952 0.0763 0.244 -0.964 0.108 74 61 56 0 0
-1.8189 6.0251 0.0774 0.745 -0.628 0.226 87 72 65 0 0
-1.8017 6.0144 0.0780 0.737 -0.587 0.334 90 76 67 0 0
-1.6149 5.6862 0.0793 -0.433 -0.898 0.073 96 82 73 0 0
-1.6820 5.8597 0.0802 -0.557 -0.645 -0.523 98 83 76 0 0
-1.6711 5.8620 0.0808 -0.439 -0.591 -0.676 98 83 76 0 0
-1.5326 5.6597 0.0827 -0.710 -0.673 0.209 99 85 76 0 0
-1.1958 5.6658 0.0995 0.260 -0.885 -0.387 178 162 151 0 0
-1.1484 5.7869 0.1048 0.442 -0.677 -0.588 26 11 11 0 0
-1.1371 5.8200 0.1062 0.325 -0.905 -0.274 80 60 61 0 0
-1.0649 5.9181 0.1122 -0.401 -0.880 -0.256 68 57 53 0 0
-1.0534 5.9198 0.1128 0.307 -0.921 -0.242 53 41 38 0 0
-1.0515 5.9483 0.1136 0.390 -0.920 -0.031 44 30 29 0 0
-1.0030 6.0903 0.1194 -0.741 -0.653 -0.159 30 17 14 0 0
-0.8934 5.9136 0.1205 -0.448 -0.861 -0.240 146 125 117 0 0
-0.7495 5.9961 0.1297 -0.358 -0.934 0.003 155 142 133 0 0
