ply
format ascii 1.0
element vertex 848
property float x
property float y
property float z
property float nx
property float ny
property float nz
property uchar diffuse_red
property uchar diffuse_green
property uchar diffuse_blue
property uchar class
property uchar detection
end_header
-0.2500 5.0055 -1.0937 -0.386 -0.385 0.838 30 45 24 0 0
0.2366 5.5073 -1.1796 -0.045 -0.405 -0.913 35 14 9 0 0
0.2502 5.4827 -1.1743 0.609 -0.614 -0.503 34 13 8 0 0
0.2715 5.4859 -1.1743 0.153 -0.677 -0.720 37 16 13 0 0
0.2793 5.5155 -1.1800 0.475 -0.828 0.299 39 15 13 0 0
0.3359 5.6114 -1.1975 -0.645 -0.261 0.719 52 19 12 0 0
0.3836 5.4451 -1.1626 -0.340 -0.659 -0.671 60 23 17 0 0
0.7508 5.8068 -1.2240 0.143 -0.293 -0.945 77 29 19 0 0
1.3473 4.1979 -0.8822 0.255 -0.967 0.029 98 104 104 0 0
1.5408 4.3866 -0.9142 -0.477 -0.596 -0.645 225 229 232 0 0
1.5486 4.3788 -0.9124 -0.511 -0.625 -0.591 218 221 224 0 0
1.5571 4.3764 -0.9117 -0.195 -0.398 -0.896 210 211 214 0 0
1.5649 4.3684 -0.9098 -0.195 -0.398 -0.896 197 197 201 0 0
1.5718 4.3531 -0.9065 -0.291 -0.348 -0.891 181 180 182 0 0
1.5418 3.9956 -0.8356 -0.976 -0.172 0.130 123 121 120 0 0
1.5558 3.9197 -0.8199 -0.976 -0.209 0.053 36 27 27 0 0
1.5765 3.8418 -0.8036 -0.888 -0.293 -0.354 44 32 35 0 0
1.5816 3.8223 -0.7995 -0.862 -0.323 -0.390 53 40 44 0 0
1.7496 3.2769 -0.6847 -0.546 -0.514 0.661 148 153 156 0 0
1.7544 3.2668 -0.6825 -0.427 -0.664 0.614 152 157 160 0 0
2.1453 4.0653 -0.8311 -0.852 -0.522 0.033 61 69 81 0 0
2.1881 4.1342 -0.8436 0.863 -0.434 0.260 50 71 91 0 0
2.2193 4.0059 -0.8168 -0.806 -0.530 -0.264 49 72 91 0 0
2.2356 4.0352 -0.8222 0.189 -0.979 0.070 47 71 89 0 0
2.2430 4.0325 -0.8215 -0.003 -0.962 0.272 48 72 92 0 0
2.2826 4.0279 -0.8193 0.390 -0.920 -0.022 118 143 156 0 0
2.2917 4.0312 -0.8197 0.266 -0.964 -0.023 187 211 219 0 0
2.3003 4.0328 -0.8197 0.295 -0.955 -0.003 221 243 248 0 0
2.3143 4.0251 -0.8178 0.251 -0.958 -0.139 237 255 255 0 0
2.3232 4.0274 -0.8180 0.251 -0.958 -0.139 236 253 253 0 0
2.4962 3.9610 -0.7993 0.620 -0.776 0.118 243 255 255 0 0
-2.3960 5.2398 -1.2173 0.975 -0.221 -0.018 87 60 53 0 0
-2.1850 5.0079 -1.1638 -0.690 -0.459 0.559 86 58 52 0 0
-2.1966 5.2039 -1.2039 -0.386 -0.280 0.879 59 36 29 0 0
-2.1786 5.1897 -1.2005 -0.301 -0.250 0.920 44 22 16 0 0
-2.2216 5.3124 -1.2267 -0.552 -0.599 0.580 29 8 2 0 0
-2.2117 5.3140 -1.2267 -0.318 -0.610 0.726 31 11 4 0 0
-2.2001 5.3123 -1.2260 -0.165 -0.766 0.621 33 13 6 0 0
-2.1916 5.3167 -1.2266 0.142 -0.845 0.516 38 20 12 0 0
-2.1833 5.3213 -1.2273 0.811 -0.514 0.279 45 26 18 0 0
-1.6169 4.4538 -1.0339 -0.182 -0.915 -0.359 40 26 19 0 0
-1.5220 4.4667 -1.0336 -0.379 -0.909 -0.172 27 19 17 0 0
-1.5104 4.4616 -1.0322 -0.379 -0.909 -0.172 27 19 16 0 0
-1.4696 4.4530 -1.0292 -0.498 -0.802 -0.330 18 13 10 0 0
-1.4457 4.4410 -1.0261 -0.452 -0.691 -0.564 20 16 12 0 0
-1.3655 4.7520 -1.0867 0.513 -0.847 -0.137 117 63 51 0 0
-1.3649 4.7736 -1.0910 0.327 -0.938 -0.113 116 67 52 0 0
-1.3610 4.8590 -1.1082 0.936 -0.327 -0.126 81 29 12 0 0
-1.3241 4.9402 -1.1236 0.778 -0.469 -0.418 51 14 10 0 0
-1.3101 4.9302 -1.1211 0.598 -0.721 0.350 55 15 9 0 0
-1.0095 4.8698 -1.0996 -0.016 -0.593 0.805 84 62 45 0 0
-0.6259 4.9449 -1.1031 0.449 -0.893 0.027 91 64 43 0 0
-0.2739 4.9765 -1.0986 0.347 -0.326 0.879 32 40 19 0 0
-0.2647 4.9805 -1.0992 0.441 -0.462 0.770 33 45 23 0 0
-0.2555 4.9844 -1.0997 -0.167 -0.544 0.822 33 46 26 0 0
-0.1678 4.9968 -1.0995 0.274 -0.961 0.041 30 45 22 0 0
0.0771 5.3242 -1.1584 0.396 -0.277 -0.875 33 37 23 0 0
0.1888 5.2762 -1.1452 0.434 -0.397 -0.809 34 17 10 0 0
0.1974 5.2915 -1.1480 0.434 -0.397 -0.809 34 17 10 0 0
0.1750 5.6642 -1.2243 -0.472 -0.355 -0.807 34 15 11 0 0
0.2074 5.5750 -1.2052 -0.364 -0.320 -0.875 34 13 10 0 0
0.2547 5.4429 -1.1770 -0.256 -0.680 0.687 36 12 10 0 0
0.2881 5.4324 -1.1738 0.370 -0.320 0.872 38 12 11 0 0
0.2965 5.7949 -1.2471 -0.887 -0.371 0.275 46 19 12 0 0
0.3178 5.6889 -1.2249 -0.590 -0.448 0.671 50 19 14 0 0
0.3470 5.6138 -1.2088 -0.966 -0.257 0.032 54 21 14 0 0
1.3144 4.2084 -0.8940 0.028 -0.986 0.162 99 108 115 0 0
1.3476 4.1977 -0.8908 0.255 -0.967 0.029 93 100 106 0 0
1.5925 4.3750 -0.9192 -0.103 -0.646 -0.757 225 230 230 0 0
1.5993 4.3601 -0.9160 0.073 -0.743 -0.665 217 221 220 0 0
1.6088 4.3654 -0.9168 -0.523 -0.416 -0.744 207 209 206 0 0
1.5667 3.8820 -0.8200 -0.959 -0.217 0.185 153 153 153 0 0
1.5754 3.8868 -0.8207 -0.734 -0.592 0.333 126 126 126 0 0
1.6162 3.6456 -0.7706 -0.597 -0.405 0.693 138 141 142 0 0
1.5886 3.3860 -0.7187 0.649 -0.498 0.576 139 143 144 0 0
1.7473 3.2645 -0.6892 -0.249 -0.954 0.168 144 148 151 0 0
1.7544 3.2659 -0.6893 -0.411 -0.879 0.241 146 150 153 0 0
1.7607 3.2631 -0.6885 -0.411 -0.879 0.241 149 153 156 0 0
2.1112 4.0924 -0.8459 -0.191 -0.981 0.036 254 254 255 0 0
2.1190 4.0903 -0.8453 -0.065 -0.998 0.021 254 253 255 0 0
2.1456 4.0651 -0.8394 -0.865 -0.501 -0.007 59 70 81 0 0
2.1873 4.1300 -0.8512 0.849 -0.495 0.186 47 72 88 0 0
2.1807 3.9520 -0.8153 -0.698 -0.469 -0.541 49 74 88 0 0
2.1862 3.9426 -0.8133 -0.757 -0.500 -0.421 48 74 87 0 0
2.1994 3.9618 -0.8167 0.461 -0.532 -0.710 47 73 87 0 0
2.2354 4.0332 -0.8301 0.085 -0.986 -0.145 50 73 89 0 0
2.2433 4.0323 -0.8297 -0.166 -0.982 0.086 47 72 89 0 0
2.2495 4.0251 -0.8281 0.301 -0.953 -0.028 49 75 90 0 0
2.2584 4.0280 -0.8284 0.301 -0.953 -0.028 50 76 91 0 0
2.2737 4.0244 -0.8272 0.390 -0.920 -0.022 65 91 104 0 0
2.2830 4.0283 -0.8277 0.390 -0.920 -0.022 128 152 164 0 0
2.2921 4.0315 -0.8280 0.266 -0.964 -0.023 196 218 225 0 0
2.3007 4.0329 -0.8281 0.295 -0.955 -0.003 226 246 249 0 0
2.3235 4.0273 -0.8262 0.334 -0.936 -0.111 240 255 255 0 0
2.4097 4.1217 -0.8427 0.002 -0.305 -0.952 238 252 253 0 0
3.1584 3.6769 -0.7295 0.730 -0.560 -0.391 229 244 241 0 0
-2.3790 5.0977 -1.1983 -0.177 -0.152 0.972 87 62 55 0 0
-2.3876 5.2438 -1.2285 -0.596 -0.788 0.152 88 61 54 0 0
-2.1790 4.9783 -1.1677 -0.453 -0.412 0.791 88 60 53 0 0
-2.1786 5.1697 -1.2069 -0.386 -0.280 0.879 55 34 27 0 0
-2.1605 5.1553 -1.2034 -0.396 -0.278 0.875 37 18 13 0 0
-2.1958 5.3041 -1.2349 -0.165 -0.766 0.621 29 11 4 0 0
-2.1887 5.3110 -1.2361 0.475 -0.718 0.509 33 15 7 0 0
-2.1791 5.3132 -1.2363 0.840 -0.396 0.372 39 20 13 0 0
-2.0620 5.2298 -1.2156 -0.806 -0.583 -0.106 36 14 6 0 0
-1.5985 4.4536 -1.0425 0.634 -0.773 0.014 39 24 17 0 0
-1.5225 4.4679 -1.0431 -0.298 -0.929 -0.218 23 15 13 0 0
-1.5115 4.4641 -1.0420 -0.298 -0.929 -0.218 22 14 11 0 0
-1.4723 4.4590 -1.0397 -0.498 -0.802 -0.330 18 13 10 0 0
-1.4513 4.4532 -1.0379 -0.524 -0.681 -0.512 19 15 11 0 0
-1.4340 4.4356 -1.0338 -0.560 -0.746 -0.360 19 16 9 0 0
-1.3606 4.8584 -1.1180 0.933 -0.347 -0.091 79 28 10 0 0
-1.3087 4.9268 -1.1304 0.598 -0.721 0.350 55 14 8 0 0
-0.9696 4.8689 -1.1081 0.111 -0.675 0.729 45 30 21 0 0
-0.9600 4.8698 -1.1080 0.129 -0.691 0.711 40 25 17 0 0
-0.5268 4.9872 -1.1187 -0.360 -0.928 -0.093 56 40 22 0 0
-0.3507 5.0532 -1.1268 0.954 -0.294 0.064 29 27 12 0 0
-0.2882 4.9044 -1.0944 0.922 -0.375 0.099 23 25 8 0 0
-0.2793 4.9086 -1.0950 0.557 -0.643 0.526 21 24 7 0 0
-0.1857 4.9868 -1.1081 -0.020 -0.898 -0.440 28 40 18 0 0
-0.1691 5.0046 -1.1112 -0.006 -0.851 0.526 24 36 14 0 0
0.0607 5.3672 -1.1783 0.367 -0.271 -0.890 28 29 16 0 0
0.2057 5.5922 -1.2199 0.339 -0.622 -0.705 35 11 9 0 0
0.2153 5.6052 -1.2223 0.273 -0.562 -0.781 34 13 10 0 0
0.2556 5.4367 -1.1865 -0.496 -0.257 0.829 36 12 10 0 0
0.2661 5.4391 -1.1867 -0.839 -0.404 0.364 36 12 10 0 0
0.2942 5.7036 -1.2400 -0.659 -0.554 0.509 42 17 12 0 0
0.3057 5.7015 -1.2392 -0.563 -0.802 0.200 46 18 14 0 0
0.4069 5.4291 -1.1803 0.402 -0.891 -0.209 43 14 10 0 0
0.4810 5.4449 -1.1813 -0.054 -0.998 -0.026 33 7 0 0 0
0.6931 5.8468 -1.2570 0.958 -0.201 -0.206 73 29 20 0 0
1.1445 4.2278 -0.9118 -0.136 -0.980 0.147 125 129 130 0 0
1.3141 4.2023 -0.9014 -0.187 -0.982 -0.015 79 88 97 0 0
1.3665 4.2152 -0.9024 0.901 -0.393 0.182 91 100 109 0 0
1.5716 3.9140 -0.8345 -0.678 -0.669 -0.305 233 239 237 0 0
1.5783 3.9050 -0.8324 -0.669 -0.670 -0.322 226 232 230 0 0
1.5855 3.8996 -0.8311 -0.790 -0.596 -0.143 221 226 226 0 0
1.5921 3.8903 -0.8290 -0.790 -0.596 -0.143 213 218 219 0 0
1.6300 4.0915 -0.8690 0.478 -0.835 -0.273 202 208 208 0 0
1.6351 4.0703 -0.8645 0.387 -0.698 -0.603 190 193 194 0 0
1.6504 4.0620 -0.8623 0.141 -0.556 -0.819 160 162 161 0 0
1.6096 3.6496 -0.7792 -0.447 -0.893 -0.049 156 160 161 0 0
1.7580 3.2491 -0.6927 -0.450 -0.499 0.741 146 150 153 0 0
1.7642 3.2461 -0.6919 -0.777 -0.421 0.469 146 150 153 0 0
2.1114 4.0920 -0.8543 -0.191 -0.981 0.036 244 245 247 0 0
2.1456 4.0638 -0.8475 -0.873 -0.487 0.025 59 70 83 0 0
2.1580 4.0485 -0.8439 -0.326 -0.943 -0.065 50 72 90 0 0
2.1879 4.1308 -0.8599 0.810 -0.582 -0.074 48 75 90 0 0
2.1810 3.9521 -0.8235 0.468 -0.499 -0.729 46 72 85 0 0
2.1928 3.9657 -0.8259 0.563 -0.512 -0.648 48 74 88 0 0
2.2361 4.0345 -0.8387 0.085 -0.986 -0.145 50 75 92 0 0
2.2437 4.0325 -0.8380 -0.162 -0.916 -0.366 49 75 92 0 0
2.2500 4.0258 -0.8365 0.333 -0.938 -0.094 50 76 93 0 0
2.2589 4.0284 -0.8367 0.301 -0.953 -0.028 51 77 92 0 0
2.2680 4.0317 -0.8371 0.146 -0.989 -0.019 52 79 93 0 0
2.2748 4.0270 -0.8359 0.220 -0.975 0.029 72 98 111 0 0
2.2835 4.0287 -0.8360 0.390 -0.920 -0.022 139 163 174 0 0
2.2925 4.0318 -0.8364 0.327 -0.945 -0.020 202 224 231 0 0
2.3010 4.0330 -0.8364 0.295 -0.955 -0.003 229 249 250 0 0
2.3244 4.0293 -0.8349 0.352 -0.922 -0.158 240 255 255 0 0
3.1647 3.6883 -0.7392 0.235 -0.609 -0.758 229 244 241 0 0
-2.4291 5.1126 -1.2133 0.109 -0.207 0.972 88 64 56 0 0
-2.1818 5.1560 -1.2146 -0.484 -0.331 0.810 71 51 40 0 0
-2.1614 5.1372 -1.2101 -0.484 -0.331 0.810 49 32 23 0 0
-2.1412 5.1186 -1.2057 -0.484 -0.331 0.810 31 15 10 0 0
-1.6030 4.4631 -1.0538 0.457 -0.741 -0.491 42 27 19 0 0
-1.5825 4.4778 -1.0562 0.704 -0.654 -0.278 37 27 19 0 0
-1.5773 4.4861 -1.0578 0.646 -0.709 -0.282 35 24 18 0 0
-1.4979 4.4746 -1.0529 0.214 -0.973 0.082 21 14 10 0 0
-1.4943 4.4865 -1.0553 0.212 -0.910 -0.357 21 14 11 0 0
-1.4728 4.4600 -1.0492 -0.502 -0.854 -0.137 20 13 11 0 0
-1.4580 4.4480 -1.0462 -0.577 -0.804 -0.144 21 12 11 0 0
-1.4376 4.4435 -1.0447 -0.560 -0.746 -0.360 19 13 7 0 0
-1.3863 4.7325 -1.1027 0.811 -0.172 -0.558 102 40 26 0 0
-1.3813 4.7437 -1.1049 0.837 -0.146 -0.528 109 54 40 0 0
-1.3771 4.7568 -1.1074 0.502 -0.774 -0.386 115 64 52 0 0
-1.3711 4.7656 -1.1091 0.283 -0.647 -0.708 122 72 61 0 0
-1.3600 4.8570 -1.1276 0.912 -0.400 -0.087 75 26 10 0 0
-0.9480 4.8635 -1.1162 0.129 -0.691 0.711 32 21 18 0 0
-0.8457 4.8830 -1.1171 -0.085 -0.476 0.876 61 42 27 0 0
-0.5264 4.9863 -1.1286 -0.289 -0.950 -0.122 53 36 18 0 0
-0.2872 4.9005 -1.1035 0.796 -0.587 -0.147 28 32 15 0 0
-0.2792 4.9092 -1.1050 0.301 -0.953 -0.045 26 30 13 0 0
-0.2714 4.9192 -1.1068 -0.215 -0.744 0.633 23 27 12 0 0
-0.2644 4.9329 -1.1095 -0.142 -0.470 0.871 25 30 15 0 0
-0.2251 4.9843 -1.1188 0.463 -0.829 0.314 35 39 22 0 0
-0.2151 4.9844 -1.1186 -0.077 -0.990 -0.119 34 37 20 0 0
-0.0296 5.1364 -1.1442 0.425 -0.702 -0.572 26 24 12 0 0
-0.0220 5.1526 -1.1473 0.479 -0.574 -0.665 25 25 13 0 0
0.1610 5.5983 -1.2336 0.650 -0.566 -0.507 34 10 8 0 0
0.1831 5.6952 -1.2530 0.666 -0.459 -0.588 37 13 11 0 0
0.2210 5.6567 -1.2438 0.705 -0.609 -0.363 34 13 10 0 0
0.2311 5.6663 -1.2455 0.513 -0.669 -0.537 34 13 10 0 0
0.2786 5.6388 -1.2384 0.859 -0.457 -0.230 40 16 12 0 0
0.2773 5.7639 -1.2642 0.895 -0.173 -0.410 40 16 12 0 0
0.2928 5.7210 -1.2549 -0.746 -0.503 0.437 42 17 12 0 0
0.3077 5.6829 -1.2466 -0.588 -0.734 0.340 46 18 14 0 0
0.3215 5.6553 -1.2405 -0.949 -0.311 0.047 48 19 13 0 0
0.3546 5.5357 -1.2148 -0.857 -0.514 -0.031 50 21 13 0 0
0.3674 5.5142 -1.2099 -0.858 -0.496 0.133 51 22 14 0 0
0.3942 5.4556 -1.1970 -0.440 -0.898 0.011 51 26 21 0 0
0.4810 5.4486 -1.1929 0.102 -0.936 -0.336 39 16 10 0 0
0.5021 5.4556 -1.1937 0.286 -0.938 -0.195 55 30 23 0 0
0.5127 5.4585 -1.1940 0.361 -0.916 -0.176 47 20 11 0 0
0.5440 5.6589 -1.2344 0.962 -0.088 0.257 65 27 18 0 0
1.1105 4.2301 -0.9220 -0.080 -0.997 0.014 134 135 138 0 0
1.1361 4.2273 -0.9207 -0.051 -0.980 0.193 132 134 133 0 0
1.4869 4.4516 -0.9561 -0.268 -0.231 -0.935 97 101 109 0 0
1.4916 4.4132 -0.9481 -0.280 -0.220 -0.934 101 104 113 0 0
1.6175 4.0614 -0.8716 0.595 -0.653 -0.469 236 242 242 0 0
1.6306 4.0937 -0.8779 0.527 -0.806 -0.269 241 247 247 0 0
1.6371 4.0814 -0.8751 0.500 -0.674 -0.543 239 245 245 0 0
1.6466 4.0896 -0.8765 0.500 -0.674 -0.543 238 242 243 0 0
1.6577 4.1076 -0.8799 -0.597 -0.801 0.041 235 240 240 0 0
1.6652 4.1021 -0.8785 -0.597 -0.801 0.041 234 239 239 0 0
1.8841 4.1146 -0.8744 -0.704 -0.622 -0.344 146 147 149 0 0
1.8908 4.1061 -0.8724 -0.704 -0.622 -0.344 146 147 149 0 0
1.8973 4.0975 -0.8704 -0.704 -0.622 -0.344 148 149 151 0 0
1.9004 4.0721 -0.8651 -0.601 -0.495 -0.627 149 150 152 0 0
1.9065 4.0618 -0.8628 -0.601 -0.495 -0.627 147 148 150 0 0
1.7782 3.2155 -0.6921 -0.879 -0.458 0.130 148 150 154 0 0
2.1117 4.0917 -0.8626 -0.191 -0.981 0.036 204 208 211 0 0
2.1585 4.0489 -0.8523 -0.326 -0.943 -0.065 50 72 89 0 0
2.2260 4.0263 -0.8456 -0.007 -0.939 -0.343 48 75 93 0 0
2.2353 4.0305 -0.8462 0.319 -0.903 0.288 48 75 93 0 0
2.2507 4.0269 -0.8450 0.333 -0.938 -0.094 49 76 95 0 0
2.2593 4.0288 -0.8451 0.301 -0.953 -0.028 52 79 97 0 0
2.2685 4.0323 -0.8455 0.050 -0.999 0.017 55 83 101 0 0
2.2751 4.0268 -0.8442 0.220 -0.975 0.029 81 109 126 0 0
2.2838 4.0287 -0.8443 0.220 -0.975 0.029 150 177 189 0 0
2.2925 4.0307 -0.8444 0.220 -0.975 0.029 207 230 237 0 0
2.3013 4.0327 -0.8446 0.220 -0.975 0.029 231 250 251 0 0
2.3272 4.0374 -0.8448 0.575 -0.813 -0.095 241 255 255 0 0
2.3334 4.0311 -0.8433 0.524 -0.816 0.243 243 255 254 0 0
2.3457 4.0448 -0.8457 0.681 -0.729 -0.066 244 255 254 0 0
2.3657 4.0566 -0.8475 0.336 -0.933 0.129 243 255 254 0 0
2.3802 4.0772 -0.8513 -0.287 -0.613 -0.736 243 255 255 0 0
3.2044 3.8877 -0.7868 -0.301 -0.835 0.461 232 247 245 0 0
3.2120 3.8873 -0.7865 0.674 -0.737 -0.046 231 246 243 0 0
3.1662 3.7054 -0.7504 0.229 -0.790 -0.569 229 244 241 0 0
3.1783 3.7142 -0.7518 0.304 -0.886 -0.351 228 243 240 0 0
-2.4163 5.0904 -1.2187 0.115 -0.207 0.971 87 64 56 0 0
-2.4057 5.2572 -1.2531 -0.155 -0.359 0.920 89 64 57 0 0
-2.1838 5.1402 -1.2219 -0.411 -0.328 0.851 80 60 49 0 0
-2.1715 5.1366 -1.2207 -0.573 -0.367 0.733 64 45 34 0 0
-2.1478 5.1115 -1.2148 -0.573 -0.367 0.733 41 24 16 0 0
-2.1244 5.0867 -1.2089 -0.573 -0.367 0.733 26 11 6 0 0
-2.1009 5.0616 -1.2029 -0.592 -0.362 0.720 22 7 3 0 0
-2.0719 5.2495 -1.2411 -0.782 -0.591 -0.197 41 15 6 0 0
-1.7008 4.5484 -1.0838 -0.734 -0.640 -0.228 42 19 10 0 0
-1.6728 4.5109 -1.0751 -0.745 -0.632 -0.211 44 23 15 0 0
-1.6210 4.4623 -1.0634 -0.081 -0.856 -0.511 43 26 16 0 0
-1.6123 4.4633 -1.0633 0.090 -0.778 -0.621 43 26 17 0 0
-1.6035 4.4831 -1.0672 0.354 -0.934 0.051 43 29 20 0 0
-1.5895 4.4733 -1.0647 0.745 -0.638 -0.195 41 28 19 0 0
-1.5875 4.4882 -1.0677 0.215 -0.969 -0.126 38 28 19 0 0
-1.5777 4.4871 -1.0672 0.727 -0.649 -0.226 36 26 18 0 0
-1.5006 4.4607 -1.0593 -0.318 -0.947 -0.040 25 18 14 0 0
-1.4961 4.4708 -1.0613 0.022 -0.998 -0.062 25 17 13 0 0
-1.4874 4.4718 -1.0612 0.128 -0.984 -0.120 23 14 14 0 0
-1.4673 4.4682 -1.0599 0.204 -0.687 -0.698 21 11 11 0 0
-1.4589 4.4699 -1.0600 0.105 -0.605 -0.789 22 11 9 0 0
-1.4253 4.4367 -1.0520 -0.727 -0.664 -0.175 20 11 6 0 0
-1.3582 4.3486 -1.0316 0.911 -0.384 -0.153 65 33 29 0 0
-1.3437 4.5879 -1.0810 0.927 -0.363 -0.089 90 24 10 0 0
-1.3699 4.7398 -1.1134 0.575 -0.785 0.231 114 65 51 0 0
-1.3467 4.8248 -1.1304 0.736 -0.672 -0.081 70 23 9 0 0
-0.7359 4.8798 -1.1229 0.419 -0.826 0.376 85 64 44 0 0
-0.5377 4.9525 -1.1320 -0.072 -0.994 0.086 70 49 27 0 0
-0.5269 4.9889 -1.1392 -0.264 -0.923 -0.280 52 35 19 0 0
-0.4495 4.9594 -1.1307 0.459 -0.883 0.102 80 63 37 0 0
-0.4433 4.9752 -1.1338 0.415 -0.853 -0.316 64 47 27 0 0
-0.2872 4.9013 -1.1136 0.764 -0.645 0.011 34 38 21 0 0
-0.2777 4.9030 -1.1136 0.006 -0.925 0.379 33 37 20 0 0
-0.2698 4.9123 -1.1153 -0.250 -0.667 0.702 32 36 21 0 0
-0.0925 5.0281 -1.1340 0.159 -0.920 -0.360 29 19 7 0 0
0.0390 5.6830 -1.2662 0.769 -0.244 -0.591 26 11 6 0 0
0.0510 5.6771 -1.2646 0.865 -0.225 -0.449 27 9 5 0 0
0.0971 5.6674 -1.2611 -0.308 -0.597 -0.740 31 10 7 0 0
0.1286 5.5944 -1.2450 -0.429 -0.588 -0.686 33 12 9 0 0
0.1362 5.7134 -1.2695 -0.234 -0.315 -0.920 33 12 9 0 0
0.1516 5.6790 -1.2619 -0.126 -0.310 -0.942 32 11 8 0 0
0.1810 5.7155 -1.2686 0.620 -0.515 -0.592 34 13 10 0 0
0.2307 5.6728 -1.2581 0.368 -0.798 0.477 34 15 11 0 0
0.2433 5.6591 -1.2549 -0.837 -0.437 0.330 35 14 9 0 0
0.2564 5.6399 -1.2505 -0.828 -0.415 0.377 36 15 10 0 0
0.2762 5.6649 -1.2551 0.851 -0.161 0.500 40 16 12 0 0
0.2987 5.7797 -1.2783 0.954 -0.171 0.245 46 18 14 0 0
0.3058 5.8256 -1.2876 0.963 -0.192 0.187 48 19 13 0 0
0.3523 5.5635 -1.2316 -0.937 -0.325 0.131 49 20 12 0 0
0.3829 5.4647 -1.2101 -0.562 -0.825 -0.063 49 22 15 0 0
0.3945 5.4553 -1.2078 -0.440 -0.898 0.011 38 15 9 0 0
0.4325 5.3840 -1.1918 0.418 -0.885 -0.206 43 22 19 0 0
0.4816 5.4443 -1.2028 -0.030 -0.905 -0.424 53 32 26 0 0
1.1099 4.2076 -0.9261 -0.115 -0.969 -0.217 59 57 48 0 0
1.1848 4.1708 -0.9161 -0.235 -0.970 -0.063 36 51 70 0 0
1.2632 4.1983 -0.9194 0.365 -0.929 0.060 114 124 136 0 0
1.3854 4.2287 -0.9219 0.715 -0.559 0.419 37 50 66 0 0
1.4815 4.2443 -0.9222 0.728 -0.135 0.672 115 120 132 0 0
1.4937 4.2757 -0.9284 0.749 -0.132 0.649 103 110 120 0 0
1.5063 4.3087 -0.9349 0.790 -0.159 0.593 95 102 113 0 0
1.5703 4.0769 -0.8846 0.083 -0.470 -0.879 145 148 153 0 0
1.6317 4.0991 -0.8874 0.540 -0.796 -0.274 242 243 247 0 0
1.6568 4.0998 -0.8867 0.494 -0.639 -0.590 242 250 250 0 0
1.6657 4.1032 -0.8872 -0.463 -0.858 -0.224 241 249 251 0 0
1.7859 4.0323 -0.8687 -0.126 -0.264 -0.956 150 154 155 0 0
1.7926 4.0242 -0.8668 -0.160 -0.267 -0.950 146 150 151 0 0
1.8918 4.1099 -0.8816 -0.704 -0.622 -0.344 145 146 148 0 0
1.8984 4.1014 -0.8796 -0.704 -0.622 -0.344 145 146 148 0 0
1.9305 4.0184 -0.8613 -0.510 -0.423 -0.748 149 150 154 0 0
1.9347 4.0001 -0.8574 -0.529 -0.382 -0.758 149 150 154 0 0
1.9530 3.9727 -0.8512 -0.673 -0.410 -0.616 151 152 156 0 0
2.1326 4.0750 -0.8669 -0.410 -0.898 -0.161 112 119 124 0 0
2.1399 4.0714 -0.8659 -0.410 -0.898 -0.161 67 75 83 0 0
2.1408 4.0430 -0.8600 0.040 -0.957 0.286 59 70 82 0 0
2.1490 4.0430 -0.8597 0.058 -0.944 0.325 57 74 87 0 0
2.2273 4.0297 -0.8545 0.126 -0.850 -0.511 51 76 97 0 0
2.2350 4.0282 -0.8540 0.105 -0.943 0.315 50 77 98 0 0
2.2429 4.0272 -0.8535 -0.043 -0.993 0.108 50 77 98 0 0
2.2510 4.0269 -0.8532 -0.043 -0.993 0.108 51 78 98 0 0
2.2598 4.0291 -0.8534 0.301 -0.953 -0.028 54 82 102 0 0
2.2671 4.0262 -0.8526 -0.043 -0.993 0.108 64 92 112 0 0
2.2752 4.0259 -0.8523 -0.043 -0.993 0.108 94 123 142 0 0
2.2841 4.0286 -0.8526 0.220 -0.975 0.029 160 187 201 0 0
2.2928 4.0305 -0.8527 0.220 -0.975 0.029 211 234 241 0 0
2.3011 4.0310 -0.8525 0.368 -0.926 0.089 233 251 253 0 0
2.3281 4.0393 -0.8534 0.417 -0.899 -0.134 244 255 255 0 0
2.3367 4.0408 -0.8535 0.605 -0.782 0.150 245 255 255 0 0
2.3454 4.0426 -0.8536 0.764 -0.575 -0.292 245 255 255 0 0
3.1998 3.8777 -0.7929 0.405 -0.715 0.570 233 248 245 0 0
3.2113 3.8849 -0.7940 0.468 -0.748 0.470 232 247 244 0 0
3.1606 3.6935 -0.7558 0.596 -0.747 0.294 229 244 241 0 0
3.1705 3.6982 -0.7564 0.454 -0.827 0.330 228 243 240 0 0
-2.3001 5.3186 -1.2733 -0.185 -0.257 0.949 92 71 60 0 0
-2.2841 5.3089 -1.2708 -0.293 -0.276 0.916 88 68 57 0 0
-1.7030 4.5527 -1.0941 -0.728 -0.630 -0.270 45 19 10 0 0
-1.6453 4.4741 -1.0758 -0.615 -0.646 -0.451 61 42 31 0 0
-1.5878 4.4890 -1.0772 0.225 -0.974 0.012 40 30 20 0 0
-1.5782 4.4882 -1.0767 0.266 -0.949 -0.167 22 12 5 0 0
-1.5681 4.4864 -1.0760 -0.147 -0.976 -0.163 20 11 4 0 0
-1.5034 4.4666 -1.0699 -0.419 -0.885 -0.206 22 14 11 0 0
-1.4960 4.4706 -1.0705 0.421 -0.683 0.597 22 14 11 0 0
-1.4896 4.4766 -1.0715 0.583 -0.600 0.548 19 12 12 0 0
-1.4795 4.4748 -1.0708 0.546 -0.739 0.394 20 11 12 0 0
-1.4725 4.4795 -1.0716 0.479 -0.837 0.264 20 10 10 0 0
-1.4660 4.4854 -1.0727 0.674 -0.731 0.108 22 11 9 0 0
-1.4179 4.4406 -1.0618 -0.709 -0.700 -0.079 26 16 13 0 0
-1.3441 4.5891 -1.0906 0.927 -0.363 -0.089 79 19 8 0 0
-1.3572 4.8748 -1.1510 0.951 -0.307 -0.023 49 13 4 0 0
-1.2441 4.9155 -1.1561 0.276 -0.912 0.304 27 18 13 0 0
-1.0153 4.8310 -1.1313 0.146 -0.566 0.812 76 54 46 0 0
-0.5348 4.9812 -1.1479 0.171 -0.944 -0.281 55 37 20 0 0
-0.4854 4.9841 -1.1470 -0.165 -0.974 0.157 60 51 31 0 0
-0.4578 4.9532 -1.1397 0.619 -0.776 -0.122 62 51 27 0 0
-0.3641 4.7661 -1.0975 -0.677 -0.168 0.717 31 24 6 0 0
-0.0993 5.1260 -1.1649 0.536 -0.716 -0.447 31 25 11 0 0
-0.0874 5.1163 -1.1625 -0.560 -0.828 -0.031 33 27 13 0 0
-0.0778 5.1198 -1.1629 -0.515 -0.848 -0.126 34 31 16 0 0
-0.0690 5.1286 -1.1645 -0.140 -0.937 -0.321 32 29 17 0 0
-0.0583 5.2510 -1.1898 0.306 -0.306 -0.902 32 32 20 0 0
-0.0512 5.2716 -1.1939 0.181 -0.312 -0.933 38 35 26 0 0
-0.0122 5.3598 -1.2112 0.245 -0.278 -0.929 34 27 17 0 0
0.0159 5.6890 -1.2795 0.376 -0.224 -0.899 27 9 5 0 0
0.0557 5.6438 -1.2687 0.776 -0.251 -0.579 26 8 6 0 0
0.0714 5.6100 -1.2612 0.796 -0.275 -0.540 27 9 7 0 0
0.0966 5.6726 -1.2735 -0.151 -0.622 -0.768 28 10 8 0 0
0.1375 5.6139 -1.2599 -0.397 -0.822 -0.408 29 11 7 0 0
0.1461 5.7265 -1.2833 -0.195 -0.313 -0.929 31 11 10 0 0
0.1605 5.7006 -1.2774 0.471 -0.323 -0.821 32 12 11 0 0
0.2311 5.6709 -1.2690 0.109 -0.797 0.594 34 15 9 0 0
0.3200 5.6767 -1.2675 -0.953 -0.296 -0.064 48 19 13 0 0
0.4326 5.3865 -1.2031 0.425 -0.888 0.173 41 23 19 0 0
0.5688 5.6232 -1.2486 -0.919 -0.389 0.054 67 29 20 0 0
0.9129 4.4140 -0.9841 -0.984 -0.117 0.137 79 29 18 0 0
1.3961 4.2476 -0.9343 0.846 -0.533 -0.033 35 48 65 0 0
1.4308 4.2503 -0.9338 0.203 -0.837 0.508 33 50 65 0 0
1.4394 4.2498 -0.9334 0.197 -0.714 0.672 40 57 73 0 0
1.4487 4.2564 -0.9345 0.519 -0.717 0.466 37 53 69 0 0
1.4580 4.2625 -0.9355 0.519 -0.717 0.466 44 60 74 0 0
1.4784 4.2147 -0.9248 0.734 -0.135 0.665 73 81 98 0 0
1.4905 4.2452 -0.9309 0.749 -0.132 0.649 72 81 96 0 0
1.6337 4.1107 -0.8982 0.578 -0.816 -0.016 163 158 165 0 0
1.8072 4.1015 -0.8909 -0.197 -0.266 -0.944 209 214 217 0 0
1.8123 4.0841 -0.8871 -0.228 -0.264 -0.937 199 204 207 0 0
1.8183 4.0719 -0.8843 -0.283 -0.264 -0.922 189 194 197 0 0
1.8997 4.1059 -0.8890 -0.738 -0.626 -0.251 141 145 146 0 0
1.9059 4.0959 -0.8867 -0.733 -0.621 -0.277 143 147 148 0 0
1.9189 4.0787 -0.8827 -0.840 -0.508 -0.192 145 149 150 0 0
1.9499 3.9939 -0.8639 -0.557 -0.379 -0.739 149 153 154 0 0
1.9557 3.9834 -0.8615 -0.641 -0.389 -0.661 149 153 154 0 0
2.1192 4.0861 -0.8780 -0.040 -0.992 0.118 159 166 170 0 0
2.1332 4.0759 -0.8754 -0.376 -0.913 -0.159 100 107 112 0 0
2.1406 4.0727 -0.8745 -0.410 -0.898 -0.161 66 75 82 0 0
2.1405 4.0406 -0.8678 -0.004 -0.975 0.221 60 72 81 0 0
2.1490 4.0416 -0.8678 0.112 -0.968 0.223 60 75 87 0 0
2.1566 4.0393 -0.8670 -0.860 -0.510 -0.025 57 76 90 0 0
2.2672 4.0253 -0.8607 -0.043 -0.993 0.108 70 98 119 0 0
2.2752 4.0250 -0.8604 0.103 -0.981 0.163 105 135 154 0 0
2.2840 4.0272 -0.8606 0.038 -0.994 0.107 167 196 210 0 0
2.2931 4.0303 -0.8609 0.220 -0.975 0.029 215 237 245 0 0
2.3019 4.0324 -0.8611 0.193 -0.981 0.033 235 252 254 0 0
2.3280 4.0379 -0.8615 0.182 -0.972 0.152 244 255 254 0 0
2.3365 4.0389 -0.8614 0.499 -0.864 0.073 244 254 253 0 0
2.3468 4.0460 -0.8626 0.455 -0.890 -0.028 244 254 253 0 0
2.3562 4.0500 -0.8631 0.386 -0.912 0.138 245 255 254 0 0
3.1705 3.8651 -0.7991 0.301 -0.930 0.210 233 248 246 0 0
3.1761 3.8605 -0.7980 0.211 -0.543 0.813 233 247 245 0 0
3.1795 3.8516 -0.7960 0.506 -0.684 0.525 233 248 245 0 0
3.1924 3.8620 -0.7978 0.696 -0.602 0.391 233 248 245 0 0
3.1593 3.6902 -0.7628 0.628 -0.741 0.237 229 244 241 0 0
3.1733 3.7029 -0.7650 0.495 -0.861 0.121 229 243 240 0 0
-2.3043 5.2274 -1.2649 -0.521 -0.538 0.662 95 68 59 0 0
-1.7040 4.5548 -1.1040 -0.682 -0.628 -0.375 53 26 16 0 0
-1.6782 4.5218 -1.0962 -0.689 -0.637 -0.345 75 52 42 0 0
-1.6538 4.4914 -1.0890 -0.615 -0.646 -0.451 92 71 60 0 0
-1.6374 4.4770 -1.0854 -0.081 -0.856 -0.511 94 73 62 0 0
-1.5879 4.4892 -1.0865 0.238 -0.971 0.001 62 50 41 0 0
-1.5796 4.4912 -1.0866 0.238 -0.971 0.001 16 6 0 0 0
-1.5689 4.4881 -1.0857 -0.147 -0.976 -0.163 15 6 0 0 0
-1.5056 4.4715 -1.0802 0.102 -0.992 0.078 13 7 4 0 0
-1.4954 4.4694 -1.0794 -0.136 -0.990 -0.041 13 7 4 0 0
-1.4835 4.4836 -1.0821 -0.091 -0.939 0.333 15 8 8 0 0
-1.4714 4.4774 -1.0804 0.179 -0.962 -0.208 19 9 9 0 0
-1.4708 4.4961 -1.0843 0.151 -0.817 -0.557 20 10 9 0 0
-1.3764 4.4094 -1.0630 0.659 -0.698 -0.279 89 48 38 0 0
-1.2511 4.9079 -1.1647 -0.065 -0.865 0.498 26 17 10 0 0
-1.2418 4.9096 -1.1647 0.028 -0.887 0.461 31 20 15 0 0
-1.2308 4.9071 -1.1639 0.056 -0.790 0.610 40 26 19 0 0
-1.0774 4.8132 -1.1392 -0.083 -0.978 0.194 36 20 8 0 0
-0.9310 4.8140 -1.1349 0.001 -0.741 0.672 30 20 15 0 0
-0.5423 4.9716 -1.1562 0.192 -0.980 0.057 50 32 13 0 0
-0.5334 4.9760 -1.1569 -0.221 -0.914 0.341 44 28 12 0 0
-0.5037 4.9775 -1.1563 0.304 -0.764 0.570 29 25 13 0 0
-0.0672 5.3068 -1.2124 0.301 -0.264 -0.916 31 29 17 0 0
0.0519 5.5924 -1.2692 0.567 -0.358 -0.742 25 10 7 0 0
0.0603 5.6122 -1.2731 0.570 -0.325 -0.754 25 10 7 0 0
0.0797 5.6333 -1.2770 0.543 -0.432 -0.720 28 10 8 0 0
0.0953 5.6850 -1.2875 -0.004 -0.748 -0.664 28 10 8 0 0
0.1364 5.6248 -1.2734 -0.406 -0.897 0.177 29 11 7 0 0
0.1452 5.6432 -1.2771 0.507 -0.344 0.790 30 12 8 0 0
0.1566 5.9327 -1.3380 0.827 -0.152 -0.541 30 12 10 0 0
0.2487 5.7194 -1.2900 -0.908 -0.407 -0.102 38 14 10 0 0
0.2603 5.7154 -1.2888 0.073 -0.988 0.138 40 15 10 0 0
0.2711 5.7206 -1.2896 0.527 -0.842 0.116 43 15 11 0 0
0.2813 5.7308 -1.2914 0.856 -0.453 0.249 42 17 13 0 0
0.2990 5.7820 -1.3017 0.925 -0.311 0.217 46 19 12 0 0
0.5434 5.6846 -1.2735 0.943 -0.123 -0.309 64 30 21 0 0
0.5703 5.6011 -1.2550 -0.861 -0.325 0.392 64 27 18 0 0
1.1853 4.1700 -0.9331 0.040 -0.997 -0.068 30 47 67 0 0
1.2797 4.1846 -0.9333 0.432 -0.878 -0.206 35 48 64 0 0
1.2890 4.1952 -0.9352 0.292 -0.956 -0.027 36 49 65 0 0
1.2978 4.1979 -0.9355 0.292 -0.956 -0.027 32 48 63 0 0
1.3065 4.2004 -0.9358 0.320 -0.945 -0.064 29 42 58 0 0
1.3151 4.2007 -0.9356 -0.105 -0.993 0.044 31 46 62 0 0
1.3769 4.2236 -0.9385 0.362 -0.791 0.493 34 51 70 0 0
1.4577 4.2573 -0.9431 0.519 -0.717 0.466 31 51 70 0 0
1.8875 4.1265 -0.9021 -0.717 -0.644 -0.269 184 188 189 0 0
1.8940 4.1175 -0.9000 -0.711 -0.627 -0.320 169 173 174 0 0
1.9006 4.1089 -0.8980 -0.711 -0.627 -0.320 154 158 159 0 0
1.9068 4.0989 -0.8957 -0.733 -0.621 -0.277 143 147 148 0 0
1.9197 4.0808 -0.8915 -0.840 -0.508 -0.192 139 143 144 0 0
1.9260 4.0715 -0.8893 -0.556 -0.506 -0.660 140 144 145 0 0
1.9913 3.9607 -0.8638 -0.778 -0.627 -0.032 149 153 156 0 0
2.1000 4.0740 -0.8844 0.384 -0.896 0.221 162 166 170 0 0
2.1338 4.0771 -0.8841 -0.376 -0.913 -0.159 101 108 111 0 0
2.1327 4.0407 -0.8764 -0.282 -0.945 0.167 69 78 82 0 0
2.1404 4.0388 -0.8757 -0.004 -0.975 0.221 60 72 78 0 0
2.1486 4.0388 -0.8755 -0.004 -0.975 0.221 62 78 87 0 0
2.1571 4.0399 -0.8755 -0.872 -0.487 -0.050 62 80 92 0 0
2.1828 4.0138 -0.8691 -0.288 -0.470 -0.834 58 77 91 0 0
2.1930 4.0214 -0.8704 -0.725 -0.610 -0.321 57 75 91 0 0
2.2435 3.9979 -0.8639 0.317 -0.943 0.104 53 79 99 0 0
2.2841 4.0264 -0.8687 0.038 -0.994 0.107 173 201 213 0 0
2.2811 3.9878 -0.8606 0.379 -0.912 0.155 217 239 246 0 0
3.1697 3.8626 -0.8066 0.108 -0.768 -0.631 234 249 246 0 0
3.1743 3.8560 -0.8051 0.106 -0.490 0.865 233 248 245 0 0
3.1762 3.8442 -0.8025 0.506 -0.684 0.525 233 248 245 0 0
3.1946 3.8656 -0.8065 0.722 -0.609 0.328 234 249 246 0 0
3.2201 3.8853 -0.8098 0.798 -0.584 0.151 231 246 243 0 0
3.2072 3.7241 -0.7761 -0.015 -0.908 0.419 230 242 240 0 0
-2.2798 5.1632 -1.2610 -0.394 -0.183 0.901 95 69 59 0 0
-2.1992 5.1497 -1.2556 -0.757 -0.649 -0.077 92 74 62 0 0
-2.1713 5.1167 -1.2477 -0.800 -0.599 0.022 75 58 46 0 0
-2.1581 5.1114 -1.2462 -0.816 -0.537 0.214 45 29 17 0 0
-2.1191 5.0573 -1.2334 -0.816 -0.537 0.214 28 10 3 0 0
-1.6407 4.4837 -1.0962 -0.081 -0.856 -0.511 106 85 72 0 0
-1.6308 4.4825 -1.0956 -0.081 -0.856 -0.511 107 87 74 0 0
-1.5954 4.4857 -1.0952 0.346 -0.927 -0.147 97 85 73 0 0
-1.5887 4.4909 -1.0961 0.125 -0.984 -0.130 73 60 51 0 0
-1.5287 4.4814 -1.0922 -0.298 -0.929 -0.218 11 5 5 0 0
-1.5176 4.4775 -1.0911 -0.122 -0.983 -0.136 10 4 4 0 0
-1.5077 4.4761 -1.0904 -0.112 -0.986 -0.120 10 5 2 0 0
-1.4801 4.5165 -1.0982 0.079 -0.841 -0.535 18 9 8 0 0
-1.4506 4.4723 -1.0879 -0.630 -0.730 -0.265 19 10 8 0 0
-1.3714 4.4188 -1.0740 0.516 -0.820 -0.248 107 52 36 0 0
-1.3558 4.8716 -1.1701 0.945 -0.327 0.030 39 10 5 0 0
-1.2937 4.7433 -1.1408 0.945 -0.324 -0.048 38 7 5 0 0
-1.2485 4.9015 -1.1732 -0.294 -0.819 0.493 27 17 9 0 0
-1.2397 4.9045 -1.1736 -0.137 -0.883 0.449 32 20 13 0 0
-1.2295 4.9037 -1.1731 -0.240 -0.822 0.517 42 26 18 0 0
-1.0867 4.8122 -1.1491 -0.483 -0.863 0.148 38 17 8 0 0
-1.0756 4.8084 -1.1480 -0.090 -0.979 0.183 40 21 11 0 0
-1.0660 4.8090 -1.1478 0.092 -0.830 0.550 48 29 20 0 0
-0.5419 4.9707 -1.1661 0.162 -0.978 0.128 40 31 11 0 0
-0.0951 5.3481 -1.2328 0.370 -0.227 -0.901 35 33 20 0 0
-0.0951 5.4126 -1.2465 0.354 -0.220 -0.909 36 32 21 0 0
0.0236 5.6380 -1.2910 0.019 -0.750 -0.661 24 10 7 0 0
0.0540 5.6600 -1.2947 0.969 -0.247 -0.009 24 10 7 0 0
0.0696 5.7112 -1.3052 0.561 -0.502 -0.658 24 8 8 0 0
0.0914 5.7169 -1.3057 -0.522 -0.821 -0.229 27 9 7 0 0
0.1254 5.6255 -1.2851 -0.933 -0.340 0.117 28 13 10 0 0
0.1469 5.6316 -1.2858 0.778 -0.441 0.448 31 13 11 0 0
0.1592 5.6220 -1.2833 0.073 -0.243 -0.967 32 12 11 0 0
0.1906 5.7367 -1.3068 0.494 -0.323 -0.807 31 16 11 0 0
0.2003 5.7511 -1.3096 0.444 -0.402 -0.800 31 16 11 0 0
0.2718 5.7154 -1.2998 0.317 -0.875 0.365 40 15 10 0 0
0.2807 5.7393 -1.3046 0.749 -0.661 0.049 39 15 11 0 0
0.3006 5.7677 -1.3101 0.830 -0.534 0.164 42 17 10 0 0
0.5676 5.6546 -1.2776 0.504 -0.352 0.789 64 27 18 0 0
1.2801 4.1865 -0.9423 0.423 -0.891 -0.164 32 48 64 0 0
1.2893 4.1955 -0.9439 0.292 -0.956 -0.027 34 50 66 0 0
1.2981 4.1982 -0.9442 0.292 -0.956 -0.027 36 52 68 0 0
1.3068 4.2009 -0.9445 0.292 -0.956 -0.027 31 47 63 0 0
1.3156 4.2036 -0.9448 0.292 -0.956 -0.027 35 52 70 0 0
1.3405 4.1953 -0.9422 -0.273 -0.947 0.170 29 47 67 0 0
1.5958 4.0749 -0.9087 -0.215 -0.593 -0.776 38 54 68 0 0
1.9269 4.0744 -0.8983 -0.634 -0.538 -0.555 190 196 196 0 0
2.0055 3.8502 -0.8480 -0.695 -0.583 0.421 152 152 152 0 0
2.1178 4.0779 -0.8931 0.274 -0.885 0.376 156 164 167 0 0
2.1251 4.0416 -0.8851 -0.420 -0.774 0.473 142 150 152 0 0
2.1411 4.0402 -0.8844 -0.134 -0.983 -0.122 113 124 128 0 0
2.1464 4.0291 -0.8818 -0.609 -0.793 0.006 100 114 122 0 0
2.1880 4.0319 -0.8811 -0.288 -0.470 -0.834 61 76 85 0 0
2.1942 4.0246 -0.8794 -0.725 -0.610 -0.321 59 73 83 0 0
2.2352 3.9961 -0.8720 0.114 -0.822 0.558 60 82 97 0 0
2.2433 3.9960 -0.8718 0.122 -0.939 0.321 59 83 97 0 0
2.2722 3.9840 -0.8683 0.372 -0.918 0.135 176 203 211 0 0
2.2810 3.9865 -0.8685 0.379 -0.912 0.155 218 238 244 0 0
2.2900 3.9896 -0.8689 0.358 -0.922 0.146 235 250 253 0 0
3.1680 3.8582 -0.8137 0.247 -0.721 -0.647 235 250 247 0 0
3.1890 3.8536 -0.8121 0.751 -0.626 0.210 234 249 246 0 0
-2.1985 5.1484 -1.2658 -0.787 -0.586 0.193 91 73 62 0 0
-2.1359 5.0695 -1.2468 -0.800 -0.599 0.022 38 22 11 0 0
-2.1017 5.0243 -1.2361 -0.800 -0.599 0.022 26 8 1 0 0
-2.1233 5.1244 -1.2583 -0.552 -0.348 0.758 32 9 6 0 0
-2.0244 4.9934 -1.2270 -0.021 -0.400 0.916 41 12 8 0 0
-1.6913 4.5483 -1.1209 -0.706 -0.639 -0.304 77 50 39 0 0
-1.6440 4.4905 -1.1070 -0.081 -0.856 -0.511 101 77 65 0 0
-1.6341 4.4892 -1.1064 -0.081 -0.856 -0.511 101 81 67 0 0
-1.6248 4.4891 -1.1061 0.095 -0.889 -0.448 96 78 64 0 0
-1.6149 4.4878 -1.1055 0.250 -0.824 -0.508 87 70 56 0 0
-1.5961 4.4871 -1.1048 0.367 -0.913 -0.179 84 70 59 0 0
-1.5805 4.4932 -1.1056 0.125 -0.984 -0.130 26 16 6 0 0
-1.5372 4.4800 -1.1014 -0.261 -0.832 -0.489 20 12 9 0 0
-1.5238 4.4711 -1.0991 -0.281 -0.706 -0.650 14 9 7 0 0
-1.4900 4.4978 -1.1038 0.840 -0.261 -0.476 8 6 4 0 0
-1.4879 4.5134 -1.1071 0.590 -0.440 -0.677 10 6 4 0 0
-1.4753 4.5060 -1.1051 -0.343 -0.805 -0.484 13 7 4 0 0
-1.4535 4.4786 -1.0985 -0.630 -0.730 -0.265 15 8 5 0 0
-1.4279 4.4631 -1.0944 -0.623 -0.718 -0.310 19 15 10 0 0
-1.3724 4.4211 -1.0837 0.516 -0.820 -0.248 105 54 40 0 0
-1.3552 4.5500 -1.1108 0.976 -0.182 -0.123 102 33 23 0 0
-1.3529 4.5662 -1.1143 0.957 -0.280 -0.079 70 12 7 0 0
-1.3536 4.8666 -1.1789 0.888 -0.456 -0.059 37 8 3 0 0
-1.3051 4.9443 -1.1941 0.973 -0.191 -0.133 45 10 3 0 0
-1.2462 4.8957 -1.1818 -0.413 -0.867 0.279 23 14 8 0 0
-1.2397 4.9046 -1.1836 -0.109 -0.994 0.031 28 17 11 0 0
-1.2288 4.9023 -1.1827 -0.212 -0.970 0.121 36 21 13 0 0
-1.2201 4.9056 -1.1832 -0.619 -0.774 -0.134 43 26 15 0 0
-1.0851 4.8079 -1.1579 -0.425 -0.807 0.410 45 20 11 0 0
-1.0736 4.8032 -1.1566 -0.106 -0.880 0.463 56 31 22 0 0
-0.6719 4.8994 -1.1648 0.215 -0.834 0.508 120 93 66 0 0
-0.5244 4.8650 -1.1529 -0.248 -0.894 0.372 41 36 14 0 0
-0.3538 4.7657 -1.1262 -0.532 -0.676 -0.510 40 43 22 0 0
-0.3450 4.7690 -1.1266 0.303 -0.568 -0.765 40 45 23 0 0
-0.3250 4.8522 -1.1439 0.345 -0.922 0.174 37 45 24 0 0
-0.2175 4.9507 -1.1618 -0.251 -0.865 0.435 22 14 6 0 0
-0.0037 5.4496 -1.2625 -0.547 -0.827 -0.129 30 11 5 0 0
-0.0578 5.8881 -1.3585 0.630 -0.125 -0.767 31 12 8 0 0
0.0222 5.6495 -1.3047 -0.663 -0.739 0.118 25 12 6 0 0
0.0350 5.6380 -1.3018 -0.641 -0.749 -0.169 24 13 7 0 0
0.0459 5.6392 -1.3017 -0.534 -0.841 -0.092 25 11 8 0 0
0.0641 5.6701 -1.3078 0.680 -0.545 -0.491 25 10 7 0 0
0.0687 5.7196 -1.3183 0.113 -0.640 -0.760 26 11 8 0 0
0.0794 5.7244 -1.3190 0.051 -0.631 -0.774 29 11 9 0 0
0.1068 5.6865 -1.3100 -0.814 -0.524 -0.248 28 13 10 0 0
0.2675 5.6506 -1.2973 0.760 -0.226 0.609 39 14 9 0 0
0.2753 5.6836 -1.3042 0.542 -0.339 0.769 39 14 9 0 0
0.2944 5.7175 -1.3109 0.529 -0.270 0.805 41 18 12 0 0
0.3627 5.4595 -1.2532 0.223 -0.888 -0.403 48 18 8 0 0
0.3733 5.4616 -1.2534 0.147 -0.923 -0.357 48 18 10 0 0
0.5450 5.6654 -1.2919 0.984 -0.124 -0.126 62 28 19 0 0
0.5785 5.6657 -1.2909 0.272 -0.252 0.929 67 29 18 0 0
0.5898 5.6613 -1.2896 0.548 -0.228 0.805 69 29 19 0 0
1.3240 4.1990 -0.9522 -0.105 -0.993 0.044 30 48 68 0 0
1.3325 4.1981 -0.9517 -0.105 -0.993 0.044 27 47 66 0 0
1.3394 4.1800 -0.9476 -0.360 -0.932 0.049 31 52 72 0 0
1.4155 4.0948 -0.9269 0.761 -0.418 0.497 26 51 73 0 0
1.4638 4.3080 -0.9713 0.192 -0.693 0.695 24 50 73 0 0
1.5223 4.2880 -0.9652 0.836 -0.289 0.466 29 49 73 0 0
1.5343 4.3148 -0.9706 0.861 -0.327 0.388 30 50 74 0 0
1.5528 4.1892 -0.9430 -0.055 -0.502 -0.863 34 52 72 0 0
1.6755 4.1586 -0.9326 0.830 -0.548 -0.107 242 251 254 0 0
1.6868 4.1768 -0.9362 0.679 -0.584 -0.444 240 250 254 0 0
1.6344 3.7471 -0.8453 0.771 -0.500 0.395 238 247 252 0 0
1.6798 3.5694 -0.8057 0.285 -0.280 0.917 219 230 232 0 0
1.8443 3.6115 -0.8096 -0.450 -0.450 -0.772 230 236 238 0 0
1.8697 3.5915 -0.8045 0.303 -0.406 -0.862 205 209 210 0 0
2.0362 4.0112 -0.8897 -0.698 -0.702 -0.139 150 151 153 0 0
2.0430 4.0054 -0.8882 -0.731 -0.682 0.011 152 153 153 0 0
2.0800 3.9907 -0.8839 0.433 -0.856 0.283 138 143 145 0 0
2.1099 4.0128 -0.8877 0.477 -0.874 -0.091 168 178 180 0 0
2.1199 4.0201 -0.8890 0.366 -0.910 -0.197 196 206 208 0 0
2.1301 4.0281 -0.8904 0.449 -0.846 -0.287 209 219 221 0 0
2.1400 4.0346 -0.8915 0.277 -0.895 -0.350 209 219 221 0 0
2.1529 4.0529 -0.8950 0.439 -0.881 0.173 205 216 220 0 0
2.1621 4.0564 -0.8955 0.218 -0.755 0.618 196 208 214 0 0
2.1729 4.0665 -0.8973 -0.604 -0.438 -0.666 183 195 200 0 0
2.1782 4.0553 -0.8948 -0.604 -0.438 -0.666 170 182 187 0 0
2.1873 4.0587 -0.8952 -0.268 -0.454 -0.850 156 167 172 0 0
2.1932 4.0499 -0.8931 -0.317 -0.437 -0.842 140 151 156 0 0
2.1955 4.0280 -0.8884 -0.594 -0.599 -0.536 124 135 140 0 0
2.2017 4.0209 -0.8866 -0.794 -0.607 -0.029 106 117 122 0 0
2.2341 3.9911 -0.8792 0.114 -0.822 0.558 53 72 81 0 0
2.2510 3.9936 -0.8792 0.133 -0.894 0.427 65 88 94 0 0
2.2721 3.9826 -0.8762 0.219 -0.945 0.245 183 206 210 0 0
2.2810 3.9852 -0.8765 0.388 -0.905 0.171 216 234 237 0 0
2.2902 3.9890 -0.8770 0.388 -0.905 0.171 227 239 242 0 0
3.1740 3.8697 -0.8239 0.149 -0.746 -0.649 235 250 247 0 0
3.1855 3.8457 -0.8184 0.732 -0.681 -0.021 235 250 247 0 0
3.2025 3.8641 -0.8218 0.732 -0.681 -0.021 234 249 246 0 0
3.2034 3.7445 -0.7961 -0.006 -0.800 -0.600 231 243 241 0 0
-2.2771 5.1011 -1.2684 -0.219 -0.174 0.960 94 71 62 0 0
-2.1350 5.0679 -1.2568 -0.811 -0.585 0.002 35 17 9 0 0
-2.0966 5.0147 -1.2440 -0.811 -0.585 0.002 27 7 1 0 0
-2.1549 5.3083 -1.3095 -0.674 -0.581 0.457 47 14 5 0 0
-1.6731 4.5305 -1.1258 -0.706 -0.639 -0.304 80 54 42 0 0
-1.6367 4.4945 -1.1169 0.098 -0.899 -0.427 80 58 45 0 0
-1.6279 4.4954 -1.1168 0.098 -0.899 -0.427 73 54 42 0 0
-1.6106 4.4981 -1.1169 0.155 -0.899 -0.410 75 58 47 0 0
-1.5407 4.4876 -1.1124 -0.261 -0.832 -0.489 28 19 14 0 0
-1.5304 4.4853 -1.1116 -0.281 -0.706 -0.650 22 16 11 0 0
-1.4292 4.4660 -1.1043 -0.577 -0.705 -0.412 17 11 8 0 0
-1.3524 4.5653 -1.1234 0.969 -0.248 0.003 76 11 5 0 0
-1.3497 4.5809 -1.1267 0.949 -0.310 -0.061 64 11 4 0 0
-1.3087 4.9284 -1.2008 0.936 -0.129 -0.326 51 9 3 0 0
-1.2447 4.8921 -1.1910 -0.413 -0.867 0.279 18 12 8 0 0
-1.2360 4.8953 -1.1914 -0.073 -0.889 0.451 21 13 9 0 0
-1.2263 4.8960 -1.1913 -0.170 -0.858 0.484 27 16 10 0 0
-1.2180 4.9003 -1.1919 -0.209 -0.978 0.026 33 20 10 0 0
-1.0830 4.8023 -1.1665 -0.254 -0.771 0.584 60 33 22 0 0
-0.6212 4.8959 -1.1724 -0.071 -0.737 0.672 61 43 17 0 0
-0.3817 4.7617 -1.1359 0.624 -0.762 0.176 37 42 22 0 0
-0.3752 4.7752 -1.1386 0.868 -0.491 -0.080 39 44 24 0 0
-0.3667 4.7799 -1.1394 0.262 -0.768 -0.585 43 48 26 0 0
-0.3588 4.7875 -1.1408 0.502 -0.547 -0.670 42 49 26 0 0
-0.3403 4.7915 -1.1411 0.199 -0.527 -0.826 41 49 27 0 0
-0.3370 4.8197 -1.1471 0.267 -0.666 -0.696 41 46 26 0 0
-0.2275 4.9520 -1.1724 0.296 -0.886 -0.356 20 13 5 0 0
-0.1886 5.2800 -1.2423 -0.233 -0.459 -0.858 21 19 6 0 0
-0.1759 5.2680 -1.2393 -0.176 -0.438 -0.882 26 22 11 0 0
-0.1227 5.2049 -1.2240 0.338 -0.314 -0.887 32 25 15 0 0
-0.1021 5.1464 -1.2107 0.641 -0.361 -0.678 29 23 12 0 0
-0.0891 5.4438 -1.2748 0.741 -0.175 -0.649 34 16 12 0 0
-0.0759 5.4292 -1.2712 0.893 -0.249 -0.374 35 14 9 0 0
-0.0011 5.4336 -1.2698 0.675 -0.695 0.246 32 11 8 0 0
0.0396 5.6063 -1.3060 -0.808 -0.464 -0.364 27 14 6 0 0
0.0983 5.6667 -1.3173 -0.864 -0.467 0.189 31 13 9 0 0
0.1507 5.6044 -1.3022 0.503 -0.474 -0.723 34 15 11 0 0
0.2757 5.6821 -1.3151 0.215 -0.171 0.962 39 14 9 0 0
0.3737 5.4600 -1.2639 0.054 -0.908 0.416 46 17 11 0 0
1.3157 4.1989 -0.9611 -0.028 -0.992 -0.126 32 51 66 0 0
1.3241 4.1969 -0.9604 -0.288 -0.951 -0.115 29 50 67 0 0
1.3335 4.2069 -0.9622 -0.678 -0.536 0.502 28 51 69 0 0
1.4109 4.1288 -0.9429 -0.211 -0.566 0.797 24 49 69 0 0
1.5874 4.1911 -0.9509 0.925 -0.379 -0.018 36 54 76 0 0
1.6752 4.1553 -0.9404 0.840 -0.524 -0.140 250 255 255 0 0
1.6885 4.1860 -0.9467 0.627 -0.578 -0.522 250 255 255 0 0
1.7684 4.0638 -0.9177 -0.494 -0.847 0.195 232 240 243 0 0
1.7755 4.0572 -0.9160 -0.145 -0.972 -0.186 232 237 241 0 0
1.7835 4.0556 -0.9155 -0.303 -0.951 -0.063 227 233 236 0 0
1.9076 4.2648 -0.9570 -0.377 -0.392 -0.839 235 240 243 0 0
1.8529 3.7215 -0.8408 0.031 -0.101 0.994 244 252 254 0 0
1.8809 3.6408 -0.8224 0.497 -0.471 -0.728 242 247 249 0 0
2.0435 4.0062 -0.8966 -0.774 -0.626 -0.097 161 165 165 0 0
2.0502 4.0002 -0.8951 -0.762 -0.607 0.224 155 157 156 0 0
2.0241 3.7954 -0.8515 -0.924 -0.122 0.363 139 143 144 0 0
2.0796 3.9880 -0.8916 0.433 -0.856 0.283 126 133 134 0 0
2.1115 4.0177 -0.8970 0.415 -0.894 -0.167 175 186 188 0 0
2.1424 4.0425 -0.9015 0.416 -0.772 -0.479 240 249 251 0 0
2.1528 4.0513 -0.9030 0.439 -0.881 0.173 245 251 252 0 0
2.1616 4.0534 -0.9032 0.259 -0.754 0.604 246 251 251 0 0
2.1792 4.0576 -0.9036 -0.729 -0.451 0.515 235 245 246 0 0
2.1942 4.0525 -0.9020 -0.382 -0.542 0.749 226 235 237 0 0
2.1996 4.0420 -0.8996 -0.664 -0.626 0.409 218 228 229 0 0
2.2057 4.0344 -0.8977 -0.538 -0.634 -0.556 207 218 219 0 0
2.2120 4.0275 -0.8960 -0.488 -0.656 -0.576 195 207 208 0 0
2.2183 4.0207 -0.8944 -0.510 -0.686 -0.519 182 195 197 0 0
2.2300 4.0043 -0.8904 -0.602 -0.796 0.067 148 163 165 0 0
2.2354 3.9947 -0.8882 -0.350 -0.704 0.619 126 142 144 0 0
2.2505 3.9905 -0.8868 0.045 -0.885 0.463 95 113 114 0 0
2.2654 3.9862 -0.8854 -0.244 -0.851 0.466 152 171 172 0 0
2.2721 3.9814 -0.8842 0.312 -0.934 0.173 205 223 223 0 0
2.2917 3.9929 -0.8861 0.536 -0.842 0.060 239 248 250 0 0
2.2925 3.9682 -0.8807 -0.318 -0.908 0.272 237 245 247 0 0
3.1734 3.8835 -0.8349 0.194 -0.668 -0.718 235 250 248 0 0
3.1828 3.8867 -0.8353 0.194 -0.668 -0.718 235 250 248 0 0
3.1866 3.8472 -0.8266 0.732 -0.681 -0.021 235 250 247 0 0
-1.7138 4.5747 -1.1461 -0.665 -0.713 -0.222 56 23 11 0 0
-1.5025 4.4851 -1.1199 0.406 -0.576 -0.710 21 18 12 0 0
-1.3761 4.4296 -1.1039 -0.104 -0.955 -0.279 85 42 37 0 0
-1.3528 4.5662 -1.1330 0.968 -0.248 -0.030 90 17 9 0 0
-1.2293 4.8782 -1.1974 -0.402 -0.899 0.175 17 10 8 0 0
-1.2175 4.8732 -1.1959 -0.402 -0.899 0.175 21 13 8 0 0
-0.8207 4.8375 -1.1758 0.430 -0.669 0.606 52 34 18 0 0
-0.3626 4.8048 -1.1544 0.301 -0.544 -0.783 40 48 25 0 0
-0.3400 4.8333 -1.1599 0.284 -0.567 -0.773 32 34 13 0 0
-0.1921 5.0272 -1.1977 0.477 -0.254 -0.841 27 27 17 0 0
-0.1892 5.0644 -1.2058 0.535 -0.220 -0.816 28 29 18 0 0
-0.2230 5.3520 -1.2697 -0.097 -0.991 -0.088 27 29 16 0 0
-0.2122 5.3512 -1.2692 -0.356 -0.831 -0.426 25 25 13 0 0
-0.1971 5.3268 -1.2634 -0.449 -0.626 -0.638 25 23 10 0 0
-0.1845 5.3159 -1.2607 -0.422 -0.640 -0.642 21 17 8 0 0
-0.1027 5.3972 -1.2759 0.831 -0.146 -0.537 32 14 10 0 0
-0.0776 5.4409 -1.2847 0.931 -0.208 0.301 31 10 5 0 0
-0.0594 5.3946 -1.2740 0.823 -0.268 0.500 31 10 5 0 0
-0.0423 5.3545 -1.2647 0.209 -0.497 0.842 34 10 6 0 0
-0.0379 5.3943 -1.2732 -0.634 -0.596 0.493 33 12 7 0 0
-0.0235 5.4405 -1.2829 -0.634 -0.761 0.139 30 11 7 0 0
-0.0219 5.6487 -1.3284 0.131 -0.354 -0.926 33 12 9 0 0
-0.0166 5.6889 -1.3370 -0.037 -0.472 -0.881 32 11 8 0 0
0.3007 5.6580 -1.3204 0.009 -0.096 0.995 43 16 9 0 0
0.4344 5.3797 -1.2554 -0.721 -0.629 0.292 44 21 15 0 0
0.4507 5.4460 -1.2693 0.494 -0.464 -0.735 38 17 12 0 0
0.8961 4.4444 -1.0364 -0.989 -0.139 0.054 75 27 17 0 0
0.9831 4.2270 -0.9862 -0.308 -0.923 0.232 151 129 115 0 0
1.3161 4.2000 -0.9699 -0.028 -0.992 -0.126 31 50 65 0 0
1.3244 4.1979 -0.9692 -0.288 -0.951 -0.115 30 51 68 0 0
1.3321 4.1874 -0.9667 -0.510 -0.749 0.424 27 50 68 0 0
1.3893 4.1632 -0.9596 -0.902 -0.316 0.293 26 47 68 0 0
1.3962 4.1470 -0.9558 -0.902 -0.316 0.293 28 49 70 0 0
1.4267 4.1170 -0.9483 -0.428 -0.494 0.757 25 52 73 0 0
1.4580 4.0971 -0.9430 -0.672 -0.536 0.511 26 53 72 0 0
1.4648 4.0834 -0.9398 -0.811 -0.380 0.445 26 53 72 0 0
1.5020 4.1861 -0.9611 -0.668 -0.717 -0.200 28 50 73 0 0
1.5098 4.1797 -0.9595 -0.522 -0.760 -0.387 29 51 75 0 0
1.5181 4.1783 -0.9589 0.000 -0.764 -0.646 30 52 76 0 0
1.5362 4.1875 -0.9603 -0.074 -0.627 -0.776 31 53 74 0 0
1.5442 4.1838 -0.9593 -0.219 -0.581 -0.784 29 54 74 0 0
1.5535 4.1897 -0.9603 -0.148 -0.558 -0.817 30 56 73 0 0
1.5615 4.1860 -0.9592 -0.148 -0.558 -0.817 32 54 75 0 0
1.6991 4.2514 -0.9692 0.938 -0.342 -0.052 254 254 254 0 0
1.7528 4.0672 -0.9273 -0.065 -0.946 0.318 248 253 254 0 0
1.7611 4.0675 -0.9271 -0.357 -0.909 0.214 248 251 254 0 0
1.7684 4.0621 -0.9257 -0.232 -0.972 0.024 247 252 254 0 0
1.7764 4.0606 -0.9251 -0.119 -0.993 -0.014 243 248 251 0 0
1.7841 4.0574 -0.9242 -0.145 -0.972 -0.186 243 248 251 0 0
1.7922 4.0565 -0.9237 -0.348 -0.907 -0.238 242 247 250 0 0
1.8220 4.0402 -0.9192 -0.519 -0.606 -0.602 233 238 241 0 0
1.8301 4.0394 -0.9188 -0.458 -0.680 -0.573 233 238 241 0 0
1.8372 4.0333 -0.9173 -0.458 -0.680 -0.573 228 233 236 0 0
1.8437 4.0250 -0.9152 -0.254 -0.680 -0.688 224 229 232 0 0
1.8512 4.0212 -0.9142 -0.372 -0.696 -0.615 221 226 229 0 0
1.9626 3.7309 -0.8472 0.763 -0.345 0.547 237 243 243 0 0
2.0409 4.0283 -0.9098 -0.410 -0.580 -0.704 231 237 237 0 0
2.0475 4.0216 -0.9082 -0.410 -0.580 -0.704 226 230 231 0 0
2.0625 4.0164 -0.9066 -0.695 -0.547 -0.467 214 216 215 0 0
2.0817 3.9950 -0.9013 0.309 -0.945 0.105 169 174 177 0 0
2.0905 3.9978 -0.9016 0.343 -0.927 -0.152 156 165 167 0 0
2.1128 4.0217 -0.9062 0.087 -0.994 0.061 195 206 209 0 0
2.1338 4.0397 -0.9094 0.569 -0.767 -0.296 243 252 252 0 0
2.1438 4.0467 -0.9107 0.501 -0.797 -0.338 249 254 255 0 0
2.1537 4.0535 -0.9118 0.124 -0.921 -0.370 252 255 254 0 0
2.1709 4.0876 -0.9187 -0.146 -0.455 -0.878 251 252 252 0 0
2.1926 4.0453 -0.9088 -0.217 -0.348 0.912 247 254 254 0 0
2.2008 4.0454 -0.9086 -0.546 -0.431 0.719 246 253 253 0 0
2.2075 4.0396 -0.9071 -0.663 -0.673 0.326 244 252 252 0 0
2.2141 4.0339 -0.9057 -0.663 -0.673 0.326 242 250 250 0 0
2.2398 4.0090 -0.8994 -0.513 -0.671 -0.535 221 231 231 0 0
2.2463 4.0032 -0.8980 -0.729 -0.651 0.213 211 222 221 0 0
2.2531 3.9985 -0.8967 -0.579 -0.783 0.227 199 210 209 0 0
2.2599 3.9939 -0.8955 -0.597 -0.749 0.287 199 210 209 0 0
2.2634 3.9781 -0.8919 0.183 -0.958 0.221 213 224 224 0 0
2.2721 3.9800 -0.8921 0.536 -0.842 0.060 233 244 243 0 0
-1.7124 4.5720 -1.1549 -0.699 -0.708 -0.100 55 21 9 0 0
-1.6933 4.5525 -1.1500 -0.699 -0.708 -0.100 58 26 15 0 0
-1.6791 4.5428 -1.1474 -0.665 -0.713 -0.222 69 40 29 0 0
-1.5023 4.4650 -1.1247 0.752 -0.397 -0.526 28 20 15 0 0
-1.5048 4.4901 -1.1304 0.568 -0.542 -0.619 26 20 14 0 0
-1.5012 4.5023 -1.1329 0.571 -0.458 -0.681 23 17 13 0 0
-1.4856 4.5289 -1.1383 -0.350 -0.842 -0.412 19 14 10 0 0
-1.3684 4.4331 -1.1136 0.371 -0.879 -0.300 78 28 17 0 0
-1.3624 4.5455 -1.1381 0.984 -0.144 0.106 114 29 11 0 0
-1.3512 4.5627 -1.1416 0.952 -0.281 0.124 104 28 11 0 0
-1.3482 4.5776 -1.1448 0.957 -0.284 0.062 92 24 9 0 0
-1.3369 4.8994 -1.2154 0.952 -0.285 0.111 75 21 12 0 0
-1.3250 4.9445 -1.2250 0.970 -0.244 0.018 51 12 6 0 0
-1.2165 4.8709 -1.2053 -0.402 -0.899 0.175 19 9 5 0 0
-0.8189 4.8321 -1.1844 0.323 -0.692 0.646 52 33 16 0 0
-0.8102 4.8356 -1.1849 0.323 -0.692 0.646 77 56 39 0 0
-0.7483 4.8254 -1.1807 -0.179 -0.950 0.255 58 36 16 0 0
-0.3695 4.8351 -1.1711 0.406 -0.907 -0.107 32 36 16 0 0
-0.2109 5.0728 -1.2185 0.310 -0.297 -0.903 33 34 21 0 0
-0.2015 5.1296 -1.2308 0.449 -0.237 -0.861 33 33 23 0 0
-0.2258 5.3675 -1.2840 0.438 -0.586 0.682 39 35 24 0 0
-0.1809 5.3560 -1.2801 -0.856 -0.501 0.131 23 14 7 0 0
-0.1665 5.3353 -1.2750 -0.869 -0.495 0.027 20 11 4 0 0
-0.1512 5.3087 -1.2687 -0.869 -0.495 0.027 20 9 3 0 0
-0.0490 5.3311 -1.2704 0.567 -0.281 0.774 31 12 6 0 0
-0.0406 5.3452 -1.2733 -0.013 -0.451 0.892 32 11 6 0 0
-0.0362 5.3853 -1.2820 -0.634 -0.596 0.493 31 12 6 0 0
-0.0239 5.3746 -1.2793 -0.878 -0.304 0.370 31 12 8 0 0
-0.0049 5.6873 -1.3476 0.432 -0.284 -0.856 32 11 6 0 0
0.0197 5.6721 -1.3435 -0.802 -0.564 -0.198 32 13 7 0 0
0.0306 5.6745 -1.3437 -0.404 -0.552 -0.730 31 14 7 0 0
0.0438 5.6601 -1.3401 -0.404 -0.552 -0.730 33 14 8 0 0
0.0903 5.6465 -1.3356 0.023 -0.735 -0.678 34 13 8 0 0
0.1014 5.6465 -1.3353 0.013 -0.675 -0.738 34 13 8 0 0
0.1516 5.6009 -1.3237 0.224 -0.632 -0.742 35 14 9 0 0
0.3254 5.6349 -1.3258 -0.226 -0.439 -0.869 46 17 11 0 0
1.2993 4.2004 -0.9792 0.437 -0.899 -0.032 64 81 97 0 0
1.3082 4.2048 -0.9799 0.437 -0.899 -0.032 33 52 69 0 0
1.3246 4.1965 -0.9775 -0.446 -0.886 -0.126 31 49 69 0 0
1.3337 4.2033 -0.9787 -0.551 -0.711 0.437 33 51 71 0 0
1.4264 4.1116 -0.9556 -0.509 -0.681 0.526 29 51 74 0 0
1.6064 4.2017 -0.9699 -0.121 -0.841 -0.528 35 58 76 0 0
1.7206 4.0223 -0.9268 0.898 -0.363 0.250 253 254 255 0 0
1.7527 4.0648 -0.9352 -0.210 -0.902 0.378 252 255 255 0 0
1.7608 4.0643 -0.9348 -0.063 -0.946 0.317 253 254 255 0 0
1.7692 4.0648 -0.9347 0.050 -0.982 0.184 249 253 255 0 0
1.7767 4.0607 -0.9335 -0.040 -0.999 0.006 249 253 255 0 0
1.7849 4.0604 -0.9332 0.044 -0.997 -0.070 250 254 255 0 0
1.7930 4.0592 -0.9327 -0.260 -0.949 -0.175 250 254 255 0 0
1.8240 4.0488 -0.9294 -0.429 -0.790 -0.437 246 250 253 0 0
1.8313 4.0442 -0.9282 -0.429 -0.790 -0.437 244 248 251 0 0
1.8382 4.0373 -0.9264 -0.401 -0.753 -0.522 247 251 253 0 0
1.8449 4.0296 -0.9245 -0.290 -0.777 -0.558 245 249 252 0 0
1.8525 4.0262 -0.9235 -0.260 -0.763 -0.592 241 245 248 0 0
1.8594 4.0198 -0.9219 -0.426 -0.704 -0.568 238 242 245 0 0
1.8487 3.6633 -0.8436 -0.248 -0.433 -0.867 219 229 231 0 0
2.0926 4.0047 -0.9113 0.164 -0.979 0.123 227 235 238 0 0
2.1009 4.0056 -0.9113 0.189 -0.975 0.114 222 232 236 0 0
2.1095 4.0072 -0.9114 0.189 -0.975 0.114 227 236 241 0 0
2.1187 4.0115 -0.9120 0.354 -0.935 0.024 236 246 249 0 0
2.1277 4.0149 -0.9125 0.354 -0.935 0.024 245 251 254 0 0
2.1363 4.0164 -0.9125 0.059 -0.949 -0.310 250 254 255 0 0
2.1547 4.0559 -0.9207 0.515 -0.838 -0.182 253 254 254 0 0
2.1823 4.1299 -0.9361 -0.091 -0.435 -0.896 254 254 254 0 0
