ply
format ascii 1.0
element vertex 847
property float x
property float y
property float z
property float nx
property float ny
property float nz
property uchar diffuse_red
property uchar diffuse_green
property uchar diffuse_blue
property uchar class
property uchar detection
end_header
2.9015 4.4300 0.3661 -0.583 -0.795 0.168 116 154 171 0 0
2.9092 4.4280 0.3662 -0.553 -0.828 0.091 127 169 186 0 0
2.9319 4.4218 0.3665 0.025 -0.995 0.099 144 185 204 0 0
2.9395 4.4199 0.3666 0.212 -0.962 -0.169 145 181 198 0 0
2.9495 4.4222 0.3669 0.142 -0.956 -0.255 146 176 192 0 0
2.9593 4.4243 0.3672 0.241 -0.966 -0.097 154 180 195 0 0
2.9724 4.4323 0.3677 -0.089 -0.981 0.171 159 185 199 0 0
2.9827 4.4352 0.3680 -0.514 -0.822 0.245 156 181 196 0 0
3.0302 4.3960 0.3677 -0.553 -0.625 0.551 123 156 178 0 0
3.0676 4.4007 0.3687 0.583 -0.810 0.063 112 151 177 0 0
3.0830 4.4125 0.3694 0.307 -0.827 0.470 107 148 174 0 0
3.1055 4.4065 0.3697 -0.336 -0.649 0.682 93 139 171 0 0
3.1170 4.3963 0.3696 -0.109 -0.821 0.561 73 126 164 0 0
3.1518 4.3675 0.3694 -0.367 -0.835 0.409 64 122 159 0 0
-3.2144 6.8999 0.3053 -0.780 -0.589 -0.212 78 37 25 0 0
-3.1380 6.8421 0.3052 0.339 -0.799 -0.497 91 66 53 0 0
-3.1269 6.8443 0.3055 0.141 -0.847 -0.513 92 69 57 0 0
-2.9994 6.6503 0.3022 -0.200 -0.639 0.743 96 76 66 0 0
-2.9414 6.6270 0.3027 -0.849 -0.496 -0.183 107 87 78 0 0
-2.3367 5.4901 0.2805 0.254 -0.803 0.539 122 105 99 0 0
-2.3318 5.5013 0.2809 -0.137 -0.930 0.341 129 114 108 0 0
-2.3213 5.4999 0.2811 -0.245 -0.866 0.437 132 118 113 0 0
-2.2894 5.4727 0.2810 -0.713 -0.687 -0.142 97 86 82 0 0
-2.2638 5.6928 0.2882 -0.575 -0.730 0.369 102 88 88 0 0
-2.2499 5.6840 0.2883 -0.724 -0.618 0.307 107 92 95 0 0
-2.2020 5.5942 0.2865 0.273 -0.767 0.581 112 97 100 0 0
-2.1801 5.5660 0.2861 -0.317 -0.839 0.443 117 102 105 0 0
-2.1341 5.5516 0.2866 -0.537 -0.750 0.385 126 114 116 0 0
-2.0738 5.4527 0.2849 -0.391 -0.622 0.678 128 116 118 0 0
-2.0626 5.4495 0.2850 -0.107 -0.626 0.772 129 117 119 0 0
-2.0455 5.4560 0.2855 0.437 -0.706 0.557 130 119 123 0 0
-1.7278 5.0795 0.2807 -0.785 -0.534 0.313 133 121 123 0 0
-1.5768 5.1812 0.2869 -0.388 -0.796 0.464 146 136 141 0 0
-1.6174 5.6341 0.3000 -0.798 -0.517 0.310 106 75 70 0 0
-1.1072 5.6025 0.3097 0.313 -0.920 -0.234 66 36 35 0 0
-1.1064 5.6868 0.3123 0.300 -0.941 -0.157 80 49 47 0 0
0.2560 6.6586 0.3706 0.134 -0.967 -0.218 116 97 91 0 0
0.5220 6.5472 0.3727 -0.489 -0.683 -0.542 135 123 127 0 0
0.5600 6.6006 0.3751 0.968 -0.236 -0.085 175 164 170 0 0
0.6001 6.6902 0.3787 -0.610 -0.688 -0.392 114 105 108 0 0
0.6113 6.6641 0.3782 -0.926 -0.311 -0.216 35 29 29 0 0
0.7179 5.0975 0.3324 -0.602 -0.784 -0.150 69 117 155 0 0
0.7290 5.1179 0.3332 0.415 -0.892 -0.178 53 117 161 0 0
0.7388 5.1192 0.3335 0.200 -0.968 -0.149 43 117 166 0 0
0.8368 5.5823 0.3497 0.858 -0.242 -0.453 42 122 173 0 0
0.8196 5.2714 0.3398 0.087 -0.328 -0.941 43 123 174 0 0
0.8391 5.2683 0.3402 -0.320 -0.366 -0.874 43 123 172 0 0
0.9499 5.5657 0.3516 0.874 -0.244 -0.421 44 127 177 0 0
1.3717 6.7241 0.3959 -0.107 -0.242 0.964 39 133 184 0 0
1.3891 5.3990 0.3557 0.851 -0.462 0.251 43 135 186 0 0
1.4186 5.4472 0.3578 0.767 -0.622 0.159 41 135 187 0 0
1.4689 5.5479 0.3619 0.831 -0.448 0.330 35 132 183 0 0
1.5022 5.6111 0.3645 0.765 -0.440 0.471 32 132 184 0 0
1.5156 4.5327 0.3318 -0.825 -0.412 0.387 33 134 190 0 0
2.4338 5.9554 0.3946 -0.498 -0.058 0.865 27 132 189 0 0
1.9673 4.3742 0.3364 -0.777 -0.281 -0.564 27 131 189 0 0
1.9705 4.3592 0.3360 -0.605 -0.403 -0.687 26 131 189 0 0
1.9726 4.3408 0.3354 -0.202 -0.893 -0.403 27 132 190 0 0
3.3329 6.4575 0.4288 -0.866 -0.138 -0.480 29 127 179 0 0
2.4060 3.9886 0.3337 -0.872 -0.375 0.313 30 126 178 0 0
2.7098 4.4630 0.3546 0.523 -0.765 -0.375 30 124 176 0 0
2.7631 4.4825 0.3563 0.037 -0.953 -0.300 55 142 181 0 0
2.7720 4.4827 0.3565 0.037 -0.953 -0.300 55 137 180 0 0
2.7895 4.4825 0.3569 0.149 -0.866 -0.477 36 126 177 0 0
2.8658 4.4440 0.3573 -0.194 -0.947 0.255 118 162 188 0 0
2.8698 4.4351 0.3571 0.344 -0.938 -0.048 90 147 177 0 0
2.8801 4.4382 0.3574 -0.156 -0.951 0.267 85 145 177 0 0
2.8882 4.4371 0.3576 -0.086 -0.979 0.186 100 155 187 0 0
2.9077 4.4248 0.3576 -0.563 -0.765 -0.313 129 177 201 0 0
2.9140 4.4202 0.3576 -0.563 -0.765 -0.313 112 163 192 0 0
2.9319 4.4213 0.3580 0.049 -0.998 0.043 102 157 185 0 0
2.9408 4.4217 0.3582 0.212 -0.962 -0.169 109 164 188 0 0
2.9613 4.4433 0.3593 -0.668 -0.733 0.129 118 170 192 0 0
2.9597 4.4245 0.3587 0.184 -0.980 -0.082 126 176 196 0 0
2.9719 4.4309 0.3591 -0.089 -0.981 0.171 133 180 201 0 0
3.0277 4.3910 0.3591 -0.684 -0.557 0.471 155 184 202 0 0
3.0703 4.4049 0.3604 0.473 -0.739 0.481 123 154 173 0 0
3.0791 4.4052 0.3606 0.233 -0.790 0.566 118 151 168 0 0
3.1137 4.3902 0.3608 -0.072 -0.829 0.555 112 145 169 0 0
3.1435 4.3675 0.3608 0.023 -0.999 -0.045 119 153 176 0 0
3.1496 4.3632 0.3608 0.186 -0.982 -0.040 112 148 175 0 0
-3.2258 6.9237 0.2934 -0.827 -0.506 -0.244 77 37 25 0 0
-3.1336 6.8330 0.2927 0.538 -0.655 -0.530 92 65 53 0 0
-3.1290 6.8490 0.2932 0.586 -0.619 -0.523 92 69 56 0 0
-2.9366 6.5662 0.2891 -0.243 -0.804 0.543 101 80 72 0 0
-2.7905 6.3007 0.2844 -0.824 -0.436 -0.361 106 85 77 0 0
-2.6604 6.0662 0.2804 -0.815 -0.446 -0.371 109 90 81 0 0
-2.3362 5.4890 0.2704 0.027 -0.899 0.437 121 104 97 0 0
-2.3300 5.4973 0.2708 -0.137 -0.930 0.341 128 111 105 0 0
-2.3200 5.4971 0.2710 -0.413 -0.884 0.220 131 116 111 0 0
-2.3108 5.4988 0.2712 -0.691 -0.719 -0.073 124 111 105 0 0
-2.2910 5.4764 0.2710 -0.713 -0.687 -0.142 101 90 86 0 0
-2.2483 5.6805 0.2778 -0.632 -0.704 0.323 106 92 94 0 0
-2.2045 5.6003 0.2764 0.404 -0.626 0.667 111 97 99 0 0
-2.1061 5.5324 0.2765 -0.116 -0.696 0.709 128 116 118 0 0
-2.1357 5.6300 0.2787 -0.306 -0.445 0.841 129 118 120 0 0
-2.0668 5.5091 0.2766 -0.482 -0.574 0.662 129 119 120 0 0
-1.5932 5.1742 0.2768 -0.438 -0.823 0.361 155 142 147 0 0
-1.6310 5.6452 0.2897 -0.789 -0.545 0.283 112 83 77 0 0
-1.6129 5.6527 0.2903 -0.811 -0.577 0.095 110 84 80 0 0
-1.3139 5.3231 0.2870 -0.311 -0.918 -0.245 147 126 119 0 0
-1.1074 5.6036 0.2994 0.435 -0.881 -0.184 68 34 35 0 0
-1.1087 5.6972 0.3021 0.472 -0.794 -0.383 76 45 43 0 0
0.0398 6.5742 0.3514 0.207 -0.944 -0.258 147 136 132 0 0
0.4424 6.8047 0.3664 -0.912 -0.408 -0.048 119 104 109 0 0
0.5224 6.5553 0.3609 0.157 -0.885 -0.438 135 123 127 0 0
0.5352 6.5772 0.3618 0.785 -0.617 -0.054 145 132 139 0 0
0.5605 6.6084 0.3632 0.967 -0.239 -0.087 176 163 170 0 0
0.5888 6.7108 0.3668 0.956 -0.280 -0.084 169 158 162 0 0
0.6006 6.6956 0.3666 -0.636 -0.662 -0.397 112 103 106 0 0
0.6118 6.6700 0.3661 -0.938 -0.289 -0.192 34 28 28 0 0
0.6939 5.1630 0.3242 -0.136 -0.986 -0.096 11 21 31 0 0
0.7294 5.1200 0.3237 0.497 -0.842 -0.210 55 118 162 0 0
0.7391 5.1207 0.3239 0.200 -0.968 -0.149 43 117 166 0 0
0.7496 5.1316 0.3245 0.448 -0.884 -0.136 40 120 171 0 0
0.8201 5.5056 0.3368 0.828 -0.187 -0.529 43 123 172 0 0
0.8137 5.3141 0.3311 -0.234 -0.164 -0.958 43 123 174 0 0
0.9810 4.8251 0.3204 -0.467 -0.290 0.836 43 131 181 0 0
1.3644 6.6729 0.3819 -0.093 -0.253 0.963 39 133 184 0 0
1.4079 5.4438 0.3472 0.824 -0.566 0.020 41 135 186 0 0
1.4220 5.4643 0.3481 0.722 -0.669 -0.176 44 135 188 0 0
1.4541 5.5240 0.3505 0.893 -0.436 0.108 37 133 184 0 0
1.4699 5.5518 0.3517 0.884 -0.464 0.057 35 132 183 0 0
2.1604 4.6719 0.3406 0.849 -0.454 -0.269 31 131 190 0 0
2.2503 4.5102 0.3378 -0.552 -0.176 -0.815 35 132 185 0 0
2.4335 4.8111 0.3503 0.427 -0.344 -0.836 34 131 186 0 0
2.4693 4.8760 0.3530 0.666 -0.528 -0.528 33 129 184 0 0
2.6666 4.5933 0.3489 -0.977 -0.115 0.181 30 126 177 0 0
2.7115 4.4839 0.3467 0.469 -0.629 -0.619 30 126 180 0 0
2.7087 4.4604 0.3459 0.705 -0.652 -0.279 28 125 179 0 0
2.7271 4.4799 0.3469 0.110 -0.864 -0.491 26 127 179 0 0
2.7642 4.4841 0.3478 0.237 -0.942 -0.237 57 142 180 0 0
2.7737 4.4855 0.3480 0.037 -0.953 -0.300 57 139 179 0 0
2.7942 4.4914 0.3486 0.305 -0.942 -0.137 41 130 179 0 0
2.8196 4.4723 0.3486 -0.183 -0.950 -0.252 60 132 170 0 0
2.8260 4.4678 0.3486 -0.234 -0.939 -0.253 63 132 168 0 0
2.8342 4.4666 0.3487 -0.492 -0.870 0.018 56 125 164 0 0
2.8662 4.4443 0.3488 -0.070 -0.909 0.411 103 155 186 0 0
2.8704 4.4358 0.3486 0.344 -0.938 -0.048 67 132 167 0 0
2.8790 4.4355 0.3488 -0.074 -0.968 0.241 59 128 167 0 0
2.9324 4.4216 0.3495 0.010 -0.993 -0.119 59 128 167 0 0
2.9421 4.4236 0.3497 0.207 -0.976 -0.070 62 132 168 0 0
2.9598 4.4400 0.3506 -0.477 -0.778 0.409 68 138 170 0 0
3.0255 4.3865 0.3504 -0.684 -0.557 0.471 117 163 188 0 0
3.0413 4.3840 0.3507 0.443 -0.837 0.322 119 163 186 0 0
3.0525 4.3885 0.3510 0.672 -0.710 0.210 115 158 182 0 0
3.0655 4.3961 0.3515 0.473 -0.739 0.481 109 152 176 0 0
3.0751 4.3977 0.3518 0.233 -0.790 0.566 106 149 171 0 0
3.0983 4.3929 0.3521 -0.415 -0.627 0.660 127 163 183 0 0
3.1045 4.3887 0.3521 -0.415 -0.627 0.660 127 160 180 0 0
3.1108 4.3846 0.3521 -0.072 -0.829 0.555 123 153 175 0 0
3.1174 4.3812 0.3522 -0.387 -0.653 0.651 121 150 172 0 0
3.1441 4.3679 0.3523 0.023 -0.999 -0.045 136 164 182 0 0
3.1502 4.3637 0.3524 0.307 -0.952 -0.009 131 158 179 0 0
-3.1285 6.8226 0.2802 0.676 -0.455 -0.579 92 63 52 0 0
-3.1229 6.8363 0.2806 0.805 -0.335 -0.489 92 66 55 0 0
-2.9755 6.7012 0.2800 -0.779 -0.438 -0.449 107 84 76 0 0
-2.9293 6.6266 0.2790 -0.758 -0.486 -0.434 109 86 78 0 0
-2.3324 5.4808 0.2602 -0.045 -0.884 0.465 120 102 95 0 0
-2.3269 5.4905 0.2606 -0.241 -0.874 0.423 126 109 102 0 0
-2.3156 5.4875 0.2608 -0.241 -0.874 0.423 131 117 109 0 0
-2.3049 5.4857 0.2609 -0.452 -0.868 0.207 128 116 108 0 0
-2.2913 5.4771 0.2610 -0.698 -0.709 -0.097 111 100 94 0 0
-2.2738 5.4600 0.2609 -0.698 -0.709 -0.097 85 76 71 0 0
-2.2481 5.6801 0.2674 -0.315 -0.827 0.465 104 92 94 0 0
-2.0599 5.4433 0.2649 0.034 -0.673 0.739 128 118 119 0 0
-2.0517 5.4718 0.2658 -0.431 -0.669 0.605 129 121 119 0 0
-1.7429 5.0958 0.2620 0.036 -0.986 -0.163 133 120 122 0 0
-1.7614 5.1958 0.2644 -0.884 -0.459 0.091 134 122 126 0 0
-1.6275 5.6346 0.2791 -0.789 -0.545 0.283 113 92 87 0 0
-1.6238 5.6550 0.2797 -0.679 -0.624 -0.387 115 94 90 0 0
-1.6060 5.6313 0.2794 -0.818 -0.572 -0.065 116 95 91 0 0
-1.3146 5.3256 0.2772 -0.232 -0.953 -0.194 146 126 119 0 0
-1.1077 5.6055 0.2891 0.435 -0.881 -0.184 69 31 31 0 0
-1.1096 5.7017 0.2917 0.472 -0.794 -0.383 75 44 42 0 0
-1.1004 5.7070 0.2920 0.510 -0.743 -0.434 78 50 47 0 0
-0.3434 6.4334 0.3275 -0.842 -0.527 -0.114 86 71 74 0 0
-0.2196 6.3554 0.3280 0.375 -0.865 -0.333 201 151 154 0 0
0.5610 6.6138 0.3512 0.966 -0.242 -0.089 180 168 172 0 0
0.5752 6.6706 0.3531 0.963 -0.250 -0.098 193 182 186 0 0
0.5892 6.7143 0.3546 0.958 -0.278 -0.075 168 157 161 0 0
0.6033 6.7581 0.3560 0.955 -0.290 -0.060 105 96 97 0 0
0.7493 5.1257 0.3147 0.244 -0.967 0.074 40 122 170 0 0
0.7770 5.2284 0.3181 -0.473 -0.844 0.253 42 122 173 0 0
0.8273 5.3531 0.3225 -0.319 -0.126 -0.939 47 125 173 0 0
0.9704 5.7550 0.3364 -0.413 -0.100 -0.905 46 129 179 0 0
0.9779 5.7241 0.3357 -0.390 -0.102 -0.915 46 129 181 0 0
0.9902 5.7389 0.3364 0.930 -0.365 0.044 47 130 182 0 0
1.0039 4.7215 0.3090 -0.860 -0.509 -0.026 41 133 184 0 0
1.2545 5.4445 0.3339 -0.341 -0.555 0.759 48 134 185 0 0
1.4222 5.4640 0.3379 0.584 -0.332 -0.741 45 135 188 0 0
1.4747 5.5753 0.3420 -0.034 -0.505 0.863 37 131 183 0 0
1.4846 3.6885 0.2909 -0.603 -0.143 -0.785 34 135 191 0 0
1.5150 3.5269 0.2872 -0.912 -0.086 -0.402 33 132 189 0 0
2.3039 4.5341 0.3309 -0.278 -0.242 -0.930 33 133 188 0 0
2.0838 3.8725 0.3084 -0.963 -0.186 -0.192 37 134 189 0 0
3.3205 6.3998 0.4028 -0.981 -0.128 0.147 29 128 183 0 0
2.6607 4.5802 0.3396 -0.972 -0.128 0.197 30 126 177 0 0
2.6357 4.3986 0.3342 0.097 -0.239 0.966 27 124 177 0 0
2.7299 4.4851 0.3385 0.110 -0.864 -0.491 23 127 182 0 0
2.7658 4.4866 0.3393 0.237 -0.942 -0.237 57 142 183 0 0
2.7749 4.4873 0.3395 0.032 -0.970 -0.242 55 138 178 0 0
2.7842 4.4883 0.3397 0.253 -0.967 -0.030 48 134 176 0 0
2.7943 4.4910 0.3400 0.253 -0.967 -0.030 46 137 184 0 0
2.8192 4.4710 0.3399 -0.311 -0.936 -0.168 115 169 199 0 0
2.8267 4.4685 0.3400 -0.311 -0.936 -0.168 111 160 184 0 0
2.8339 4.4655 0.3401 -0.546 -0.838 0.001 107 155 186 0 0
2.8628 4.4373 0.3399 -0.355 -0.915 0.190 91 152 189 0 0
2.8711 4.4365 0.3401 0.344 -0.938 -0.048 69 137 176 0 0
2.8782 4.4334 0.3402 -0.078 -0.972 0.221 62 135 175 0 0
2.9159 4.4389 0.3411 0.226 -0.966 -0.125 70 145 183 0 0
2.9207 4.4317 0.3410 -0.308 -0.736 -0.603 54 136 178 0 0
2.9434 4.4253 0.3413 0.100 -0.991 0.091 40 123 171 0 0
2.9581 4.4364 0.3419 -0.531 -0.746 0.402 41 125 170 0 0
2.9700 4.4264 0.3419 -0.236 -0.759 0.608 43 132 173 0 0
3.0242 4.3838 0.3418 -0.586 -0.717 0.377 47 123 163 0 0
3.0208 4.3625 0.3412 -0.591 -0.495 0.637 52 128 164 0 0
3.0390 4.3794 0.3420 0.443 -0.837 0.322 62 135 170 0 0
3.0491 4.3820 0.3423 0.543 -0.802 0.250 67 137 176 0 0
3.0629 4.3911 0.3428 0.424 -0.790 0.442 64 131 171 0 0
3.0711 4.3903 0.3430 0.233 -0.790 0.566 59 126 164 0 0
3.0953 4.3872 0.3434 -0.396 -0.665 0.633 105 154 184 0 0
3.1007 4.3816 0.3434 -0.380 -0.677 0.631 109 153 181 0 0
3.1078 4.3791 0.3435 -0.072 -0.829 0.555 105 147 175 0 0
3.1137 4.3743 0.3434 -0.357 -0.648 0.673 98 142 170 0 0
3.1434 4.3663 0.3438 0.193 -0.929 0.317 122 156 176 0 0
3.1506 4.3639 0.3439 0.307 -0.952 -0.009 116 146 163 0 0
-3.1284 6.8226 0.2678 0.717 -0.523 -0.461 91 62 51 0 0
-3.1216 6.8337 0.2683 0.904 -0.303 -0.302 92 65 54 0 0
-2.9350 6.4886 0.2634 0.854 -0.231 0.467 95 72 61 0 0
-2.9832 6.6161 0.2656 0.526 -0.456 0.718 96 73 63 0 0
-3.0873 6.9165 0.2711 -0.299 -0.407 -0.863 103 80 72 0 0
-3.0034 6.7616 0.2689 -0.778 -0.436 -0.451 105 82 74 0 0
-2.3127 5.4812 0.2506 -0.200 -0.855 0.478 129 115 106 0 0
-2.2917 5.4784 0.2510 -0.692 -0.721 -0.044 115 105 97 0 0
-2.2746 5.4619 0.2509 -0.692 -0.721 -0.044 92 83 78 0 0
-2.0925 5.4992 0.2556 -0.701 -0.645 0.304 127 116 119 0 0
-2.0680 5.4634 0.2552 -0.024 -0.727 0.686 128 118 119 0 0
-1.7429 5.0959 0.2526 0.009 -0.979 -0.203 133 121 122 0 0
-1.7201 5.0595 0.2522 -0.559 -0.824 0.095 133 121 123 0 0
-1.1109 5.7076 0.2813 0.671 -0.674 -0.309 74 44 42 0 0
-0.3579 6.4629 0.3162 -0.874 -0.480 -0.079 81 69 71 0 0
-0.3431 6.4318 0.3157 -0.889 -0.434 -0.146 85 70 73 0 0
0.0279 6.5813 0.3272 0.425 -0.856 -0.293 143 132 128 0 0
0.4550 6.7896 0.3413 -0.514 -0.740 -0.434 123 106 112 0 0
0.5615 6.6212 0.3393 0.965 -0.241 -0.101 184 172 176 0 0
0.5757 6.6773 0.3410 0.963 -0.250 -0.098 193 181 185 0 0
0.5896 6.7180 0.3423 0.947 -0.302 -0.111 167 157 158 0 0
0.6036 6.7594 0.3437 0.935 -0.338 -0.111 104 95 96 0 0
0.6845 5.1618 0.3047 -0.222 -0.905 -0.363 12 15 20 0 0
0.7494 5.1250 0.3051 0.244 -0.967 0.074 39 123 170 0 0
0.7821 5.1695 0.3069 0.574 -0.604 0.553 46 123 175 0 0
0.7991 5.1422 0.3065 0.389 -0.808 0.441 48 126 174 0 0
0.8242 5.3155 0.3115 -0.642 -0.384 -0.664 46 127 174 0 0
0.9572 4.7768 0.3005 -0.393 -0.459 -0.797 44 132 182 0 0
1.2786 5.8672 0.3349 -0.945 -0.167 -0.280 46 133 186 0 0
1.2789 5.7987 0.3332 -0.971 -0.236 -0.020 47 135 185 0 0
1.2488 5.4079 0.3226 -0.253 -0.272 0.928 49 135 186 0 0
1.2671 5.3952 0.3227 -0.215 -0.255 0.943 49 137 187 0 0
1.4616 5.5608 0.3309 -0.346 -0.489 0.801 41 132 185 0 0
2.1224 5.2265 0.3361 0.560 -0.617 -0.552 35 134 191 0 0
2.1436 5.2614 0.3375 0.385 -0.895 -0.224 35 134 191 0 0
2.1322 5.1952 0.3355 0.639 -0.529 0.558 36 135 192 0 0
2.1515 5.1936 0.3359 0.407 -0.674 0.616 36 135 190 0 0
2.0099 4.5724 0.3171 -0.662 -0.709 -0.242 33 134 188 0 0
1.9781 4.3545 0.3109 0.111 -0.949 -0.296 33 134 190 0 0
2.0226 4.2909 0.3102 -0.400 -0.085 0.913 32 133 189 0 0
2.0283 4.2834 0.3102 -0.426 -0.073 0.902 32 133 189 0 0
2.0558 4.3360 0.3121 0.472 -0.313 0.824 32 133 189 0 0
2.3624 4.1167 0.3129 -0.300 -0.079 0.950 33 130 183 0 0
2.6478 4.5333 0.3294 -0.989 -0.147 0.019 33 129 180 0 0
2.6429 4.5043 0.3285 -0.957 -0.168 0.236 32 128 179 0 0
2.6441 4.4882 0.3282 -0.690 -0.625 -0.364 32 128 179 0 0
2.6481 4.4782 0.3280 -0.806 -0.491 -0.330 32 128 179 0 0
2.6525 4.4692 0.3279 -0.799 -0.399 -0.450 32 128 180 0 0
2.6498 4.4454 0.3272 -0.351 -0.463 -0.814 30 127 180 0 0
2.7314 4.4875 0.3300 0.066 -0.922 -0.381 23 126 181 0 0
2.7763 4.4895 0.3309 0.032 -0.970 -0.242 57 143 184 0 0
2.7847 4.4887 0.3311 0.253 -0.967 -0.030 45 133 176 0 0
2.7946 4.4911 0.3314 0.347 -0.936 0.059 36 128 173 0 0
2.8028 4.4898 0.3315 -0.307 -0.949 0.076 47 134 181 0 0
2.8338 4.4649 0.3315 -0.547 -0.833 0.085 125 166 194 0 0
2.8622 4.4357 0.3313 -0.355 -0.915 0.190 71 141 183 0 0
2.8717 4.4371 0.3316 0.344 -0.938 -0.048 61 135 178 0 0
2.8774 4.4315 0.3316 -0.078 -0.972 0.221 65 142 187 0 0
2.9169 4.4403 0.3326 0.226 -0.966 -0.125 40 125 166 0 0
2.9251 4.4392 0.3327 0.265 -0.963 0.041 36 126 172 0 0
3.0368 4.3749 0.3334 0.443 -0.837 0.322 40 125 169 0 0
3.0481 4.3797 0.3338 0.547 -0.793 0.268 41 125 172 0 0
3.0593 4.3843 0.3341 0.424 -0.790 0.442 42 125 174 0 0
3.0680 4.3844 0.3343 0.207 -0.794 0.571 43 125 172 0 0
3.0917 4.3805 0.3347 -0.350 -0.774 0.527 86 149 186 0 0
3.0985 4.3773 0.3348 -0.306 -0.789 0.532 94 152 188 0 0
3.1049 4.3735 0.3348 -0.072 -0.829 0.555 85 141 176 0 0
3.1102 4.3678 0.3348 -0.388 -0.686 0.615 71 128 164 0 0
3.1442 4.3671 0.3354 0.177 -0.984 -0.013 95 141 169 0 0
3.1517 4.3652 0.3356 0.195 -0.980 -0.045 101 143 166 0 0
-3.1011 6.6170 0.2512 -0.032 -0.138 -0.990 73 30 19 0 0
-3.1330 6.7072 0.2527 0.190 -0.165 -0.968 71 30 18 0 0
-3.1306 6.8272 0.2556 0.815 -0.394 -0.425 90 61 50 0 0
-3.1182 6.8266 0.2558 0.892 -0.333 -0.306 91 64 53 0 0
-2.9348 6.4884 0.2516 0.923 -0.221 0.315 94 71 60 0 0
-2.9371 6.5180 0.2523 0.917 -0.204 0.343 95 73 63 0 0
-3.0336 6.8272 0.2576 -0.778 -0.436 -0.451 104 81 73 0 0
-2.2931 5.4817 0.2410 -0.697 -0.716 0.029 121 111 102 0 0
-2.2750 5.4629 0.2409 -0.692 -0.721 -0.044 100 90 85 0 0
-2.3117 5.5690 0.2427 0.908 -0.268 0.322 76 66 64 0 0
-2.3077 5.5829 0.2431 0.908 -0.268 0.322 67 57 56 0 0
-2.2901 5.6591 0.2453 0.594 -0.151 0.790 80 70 71 0 0
-2.1957 5.5797 0.2453 0.080 -0.745 0.662 108 96 98 0 0
-2.1861 5.5810 0.2456 0.080 -0.745 0.662 112 100 102 0 0
-2.0468 5.4355 0.2450 0.129 -0.882 0.453 129 120 121 0 0
-1.7433 5.0972 0.2432 0.015 -0.995 -0.098 134 121 123 0 0
-1.7283 5.0817 0.2432 0.032 -0.994 0.104 134 122 124 0 0
-1.5944 5.1784 0.2483 -0.183 -0.981 -0.066 148 139 144 0 0
-1.5955 5.2097 0.2490 0.391 -0.900 -0.193 138 129 133 0 0
-1.6445 5.6882 0.2593 -0.784 -0.616 -0.077 102 87 82 0 0
-1.4102 5.5564 0.2610 -0.907 -0.420 -0.040 133 115 110 0 0
-1.3799 5.4863 0.2600 -0.913 -0.397 -0.097 133 116 109 0 0
-1.2437 5.3890 0.2605 -0.294 -0.926 -0.236 189 150 143 0 0
-1.1954 5.5089 0.2643 -0.195 -0.820 -0.538 175 80 95 0 0
-0.3578 6.4639 0.3043 -0.875 -0.457 -0.159 78 66 68 0 0
-0.3433 6.4363 0.3040 -0.875 -0.457 -0.159 82 67 70 0 0
-0.3157 6.3924 0.3035 -0.833 -0.538 -0.125 101 81 82 0 0
-0.2897 6.3637 0.3034 -0.396 -0.890 -0.225 183 163 162 0 0
0.0280 6.5838 0.3152 0.440 -0.847 -0.299 141 130 126 0 0
0.5356 6.5683 0.3253 0.866 -0.494 -0.075 151 136 141 0 0
0.5619 6.6268 0.3272 0.964 -0.240 -0.111 186 174 176 0 0
0.5763 6.6851 0.3289 0.951 -0.280 -0.131 191 179 181 0 0
0.5901 6.7240 0.3301 0.947 -0.302 -0.111 163 153 154 0 0
0.6041 6.7647 0.3314 0.935 -0.338 -0.111 102 93 94 0 0
0.7494 5.1217 0.2954 -0.069 -0.916 -0.395 40 123 173 0 0
0.7994 5.1430 0.2969 0.525 -0.669 0.527 48 129 176 0 0
0.9865 5.9013 0.3188 -0.368 -0.141 -0.919 45 131 180 0 0
1.0255 5.8572 0.3185 -0.955 -0.135 0.264 44 130 181 0 0
1.4148 5.4766 0.3176 0.597 -0.294 -0.747 45 139 190 0 0
1.4331 5.5192 0.3190 0.562 -0.308 -0.768 46 138 189 0 0
1.5860 5.4092 0.3195 -0.780 -0.427 -0.457 30 137 191 0 0
1.7327 5.7821 0.3314 -0.488 -0.342 0.803 28 137 194 0 0
1.4969 3.7305 0.2778 -0.508 -0.109 -0.854 36 139 197 0 0
2.1452 5.2656 0.3277 0.400 -0.861 -0.313 35 136 192 0 0
2.1454 5.2046 0.3262 0.585 -0.695 0.419 36 137 193 0 0
2.0374 4.5747 0.3090 -0.416 -0.478 -0.773 34 135 191 0 0
2.2406 4.5969 0.3138 0.379 -0.262 -0.888 32 133 187 0 0
2.2923 4.6150 0.3153 0.063 -0.261 -0.963 35 134 189 0 0
2.3197 4.5720 0.3148 -0.845 -0.153 -0.512 34 133 188 0 0
2.3227 4.5574 0.3145 -0.876 -0.142 -0.462 34 133 188 0 0
2.1010 3.8945 0.2942 -0.527 -0.340 -0.779 36 133 188 0 0
2.6582 4.5737 0.3219 -0.965 -0.127 0.229 35 131 182 0 0
2.6415 4.5194 0.3202 -0.971 -0.179 0.156 35 131 182 0 0
2.7352 4.5306 0.3224 -0.734 -0.221 -0.642 31 127 177 0 0
2.7601 4.4742 0.3216 0.565 -0.813 0.141 59 143 189 0 0
2.7716 4.4797 0.3220 0.090 -0.971 0.219 52 141 184 0 0
2.7851 4.4891 0.3225 0.253 -0.967 -0.030 43 134 178 0 0
2.7952 4.4918 0.3227 0.253 -0.967 -0.030 34 127 175 0 0
2.8019 4.4876 0.3228 -0.284 -0.934 -0.216 35 125 175 0 0
2.9971 4.3959 0.3246 -0.255 -0.841 0.477 49 126 174 0 0
3.0262 4.3862 0.3250 0.206 -0.933 -0.293 38 123 174 0 0
3.0345 4.3704 0.3248 0.443 -0.837 0.322 40 123 170 0 0
3.0431 4.3705 0.3250 0.424 -0.790 0.442 38 123 173 0 0
3.0557 4.3775 0.3254 0.424 -0.790 0.442 36 124 177 0 0
3.0642 4.3771 0.3256 0.207 -0.794 0.571 37 128 177 0 0
3.0896 4.3765 0.3261 -0.444 -0.715 0.540 54 133 176 0 0
3.0960 4.3725 0.3261 -0.306 -0.789 0.532 58 133 176 0 0
3.1020 4.3680 0.3262 -0.072 -0.829 0.555 56 128 170 0 0
3.1088 4.3650 0.3262 -0.484 -0.736 0.473 52 122 165 0 0
3.1446 4.3673 0.3270 0.177 -0.984 -0.013 68 129 169 0 0
3.1523 4.3657 0.3271 0.195 -0.980 -0.045 68 128 164 0 0
-3.1269 6.8196 0.2432 0.800 -0.429 -0.420 90 60 49 0 0
-3.1205 6.8317 0.2436 0.892 -0.333 -0.306 91 65 53 0 0
-2.9342 6.4874 0.2399 0.956 -0.225 0.190 93 70 60 0 0
-2.9288 6.5003 0.2403 0.963 -0.247 0.107 95 72 62 0 0
-2.3054 5.5779 0.2328 0.861 -0.282 0.424 66 56 55 0 0
-2.1996 5.5894 0.2353 -0.515 -0.815 0.266 108 96 98 0 0
-2.1803 5.5673 0.2352 0.169 -0.885 0.433 112 100 102 0 0
-1.9326 5.2470 0.2332 -0.278 -0.554 0.785 132 122 121 0 0
-1.7502 5.0910 0.2336 -0.029 -0.953 -0.300 134 121 121 0 0
-1.7386 5.0848 0.2337 0.088 -0.977 -0.195 133 120 122 0 0
-1.7278 5.0808 0.2338 0.032 -0.994 0.104 133 121 123 0 0
-1.6146 5.1826 0.2384 -0.005 -0.989 0.148 156 146 150 0 0
-1.6045 5.1806 0.2385 -0.444 -0.894 0.062 153 144 148 0 0
-1.2443 5.3917 0.2506 -0.294 -0.926 -0.236 193 158 151 0 0
-0.9106 5.8588 0.2678 -0.663 -0.711 -0.235 122 99 88 0 0
-0.3435 6.4407 0.2923 -0.876 -0.447 -0.180 80 66 66 0 0
-0.3292 6.4132 0.2920 -0.772 -0.607 -0.187 87 71 72 0 0
-0.2898 6.3667 0.2917 -0.396 -0.890 -0.225 183 163 162 0 0
0.5905 6.7284 0.3179 0.942 -0.307 -0.139 159 149 150 0 0
0.6046 6.7712 0.3191 0.942 -0.307 -0.139 97 88 89 0 0
0.7499 5.1257 0.2859 0.052 -0.841 -0.539 40 123 173 0 0
0.7829 5.1751 0.2876 0.222 -0.841 0.492 45 127 177 0 0
0.7929 5.1773 0.2879 0.065 -0.818 0.571 47 127 178 0 0
0.7989 5.1351 0.2871 0.482 -0.693 0.536 48 128 177 0 0
0.8352 5.3221 0.2920 -0.654 -0.199 -0.730 48 130 178 0 0
1.0355 5.8470 0.3076 -0.932 -0.171 -0.318 46 132 183 0 0
0.9766 5.0066 0.2879 0.714 -0.283 -0.641 46 134 184 0 0
1.4546 5.5762 0.3103 0.318 -0.307 -0.897 44 138 189 0 0
1.4711 5.5531 0.3102 0.868 -0.488 -0.094 40 136 187 0 0
2.1486 5.2753 0.3180 0.461 -0.726 -0.511 35 136 192 0 0
2.0517 4.7206 0.3038 -0.991 -0.091 -0.100 35 136 190 0 0
2.2603 4.7187 0.3081 -0.595 -0.269 0.758 34 135 191 0 0
2.2677 4.7141 0.3081 -0.413 -0.251 0.875 34 135 191 0 0
2.3493 4.8546 0.3129 -0.674 -0.452 -0.584 34 134 188 0 0
2.3693 4.8102 0.3123 -0.776 -0.452 -0.441 35 134 189 0 0
2.4991 4.4955 0.3081 -0.849 -0.525 -0.061 35 134 189 0 0
2.6614 4.5799 0.3133 -0.979 -0.134 0.154 35 131 182 0 0
2.6658 4.4776 0.3111 -0.615 -0.696 -0.371 34 131 184 0 0
2.7630 4.4794 0.3132 0.258 -0.926 0.275 59 144 190 0 0
2.7709 4.4777 0.3133 0.037 -0.944 0.328 53 143 187 0 0
2.7856 4.4895 0.3139 0.253 -0.967 -0.030 45 138 182 0 0
2.7957 4.4921 0.3141 0.253 -0.967 -0.030 38 133 181 0 0
2.8030 4.4892 0.3142 -0.404 -0.888 -0.219 38 130 179 0 0
2.8086 4.4830 0.3142 -0.682 -0.681 -0.268 52 137 184 0 0
2.8217 4.4743 0.3143 -0.358 -0.927 -0.110 118 176 205 0 0
2.8290 4.4714 0.3144 -0.399 -0.911 -0.101 135 182 207 0 0
2.8355 4.4671 0.3144 -0.326 -0.945 -0.008 124 171 198 0 0
2.8503 4.4618 0.3146 -0.389 -0.907 -0.159 65 138 176 0 0
2.8567 4.4574 0.3146 -0.236 -0.922 -0.306 48 131 172 0 0
3.0359 4.4029 0.3171 -0.025 -0.735 -0.677 35 122 172 0 0
3.0334 4.3831 0.3166 0.492 -0.816 -0.304 38 123 171 0 0
3.0471 4.3921 0.3171 0.470 -0.859 -0.201 40 125 171 0 0
3.0596 4.3988 0.3175 0.470 -0.859 -0.201 38 124 174 0 0
3.0695 4.4010 0.3178 0.144 -0.968 -0.206 36 124 177 0 0
3.0741 4.3939 0.3177 -0.683 -0.728 -0.060 35 125 176 0 0
3.0873 4.3718 0.3175 -0.601 -0.618 0.507 39 125 173 0 0
3.0935 4.3677 0.3175 -0.306 -0.789 0.532 40 123 172 0 0
3.1460 4.3692 0.3187 0.093 -0.993 -0.070 53 126 173 0 0
3.1535 4.3672 0.3188 0.172 -0.984 -0.040 53 127 169 0 0
-3.1243 6.8398 0.2314 0.888 -0.439 -0.140 91 64 53 0 0
-2.9230 6.4882 0.2284 0.948 -0.273 0.166 94 71 63 0 0
-2.9119 6.5141 0.2291 0.510 -0.345 0.788 98 75 67 0 0
-2.5521 5.8769 0.2236 -0.851 -0.438 -0.288 110 90 83 0 0
-2.5824 5.9669 0.2248 -0.840 -0.466 -0.279 112 92 85 0 0
-2.2766 5.4668 0.2210 -0.677 -0.736 -0.026 114 103 97 0 0
-2.3024 5.5710 0.2225 0.855 -0.208 0.476 68 58 57 0 0
-2.1912 5.5694 0.2248 0.049 -0.945 0.324 106 94 96 0 0
-2.1823 5.5723 0.2250 0.123 -0.952 0.282 112 100 102 0 0
-1.7460 5.0802 0.2240 -0.429 -0.783 -0.451 133 121 121 0 0
-1.7354 5.0764 0.2242 0.312 -0.854 -0.417 132 120 121 0 0
-1.7282 5.0819 0.2244 0.188 -0.975 -0.118 133 121 123 0 0
-1.6195 5.1971 0.2290 -0.498 -0.841 0.210 154 144 148 0 0
-1.6072 5.1890 0.2291 -0.318 -0.948 -0.014 149 141 145 0 0
-1.6035 5.2337 0.2301 0.561 -0.821 -0.107 120 116 118 0 0
-1.4962 5.5408 0.2385 -0.803 -0.570 -0.176 125 112 106 0 0
-1.2467 5.4011 0.2408 -0.210 -0.879 -0.429 205 176 168 0 0
-1.2050 5.5081 0.2438 0.600 -0.732 0.324 222 186 185 0 0
-0.3438 6.4454 0.2805 -0.875 -0.457 -0.159 80 66 66 0 0
-0.3255 6.3762 0.2795 0.900 -0.418 -0.123 87 71 72 0 0
-0.2776 6.3630 0.2802 -0.131 -0.969 -0.210 200 180 179 0 0
0.4071 6.8842 0.3049 0.315 -0.941 -0.124 107 91 92 0 0
0.5910 6.7351 0.3056 0.931 -0.317 -0.179 156 146 145 0 0
0.6052 6.7785 0.3068 0.934 -0.303 -0.188 92 84 82 0 0
0.7497 5.1202 0.2762 0.058 -0.976 -0.211 40 123 173 0 0
0.7815 5.1557 0.2775 -0.545 -0.662 0.515 45 127 177 0 0
0.7912 5.1560 0.2777 -0.364 -0.598 0.714 46 128 178 0 0
0.8005 5.1505 0.2778 -0.325 -0.615 0.718 47 129 177 0 0
1.0366 5.8541 0.2969 -0.948 -0.227 -0.224 47 135 185 0 0
1.0220 5.1390 0.2821 0.657 -0.248 -0.712 45 135 187 0 0
1.1819 5.0458 0.2835 -0.744 -0.350 -0.569 43 137 188 0 0
1.4443 5.5756 0.2997 -0.498 -0.408 -0.765 47 139 190 0 0
1.4395 3.8155 0.2639 -0.439 -0.878 0.190 31 136 193 0 0
2.0886 4.3315 0.2877 0.452 -0.294 0.842 36 135 192 0 0
2.2557 4.7056 0.2987 -0.546 -0.244 0.802 36 135 192 0 0
2.2613 4.6965 0.2987 -0.311 -0.346 0.885 35 134 191 0 0
2.2792 4.6958 0.2990 -0.126 -0.239 0.963 36 135 190 0 0
2.2065 4.2478 0.2884 -0.117 -0.133 -0.984 35 134 189 0 0
2.3339 3.8821 0.2836 -0.967 -0.218 0.136 36 131 185 0 0
2.7703 4.4759 0.3046 0.154 -0.984 -0.083 56 146 190 0 0
2.7794 4.4766 0.3048 0.206 -0.975 0.079 50 141 186 0 0
2.7959 4.4746 0.3051 -0.096 -0.993 -0.062 40 135 183 0 0
2.8225 4.4752 0.3057 -0.407 -0.899 -0.162 122 182 209 0 0
2.8358 4.4671 0.3058 -0.326 -0.945 -0.008 132 179 202 0 0
2.8432 4.4643 0.3059 -0.069 -0.992 0.101 107 163 190 0 0
2.8507 4.4620 0.3060 -0.326 -0.945 -0.008 70 142 177 0 0
2.8610 4.4650 0.3063 -0.046 -0.998 -0.039 54 133 172 0 0
2.8992 4.4545 0.3069 -0.130 -0.970 -0.205 76 132 178 0 0
2.9039 4.4470 0.3068 0.374 -0.901 0.221 75 130 176 0 0
2.9201 4.4610 0.3074 -0.603 -0.793 0.091 72 129 173 0 0
2.9590 4.4201 0.3074 -0.466 -0.885 0.006 53 127 170 0 0
3.0418 4.4283 0.3093 -0.150 -0.917 0.369 33 123 173 0 0
3.0525 4.4165 0.3092 -0.777 -0.630 -0.017 37 127 171 0 0
3.0604 4.4151 0.3094 -0.588 -0.786 0.193 39 126 171 0 0
3.0614 4.4016 0.3091 0.190 -0.966 -0.175 39 123 171 0 0
-2.9836 6.5431 0.2164 0.177 -0.905 -0.386 89 63 52 0 0
-2.9090 6.5329 0.2177 0.482 -0.435 0.761 97 77 68 0 0
-2.5778 5.9336 0.2134 -0.851 -0.438 -0.288 110 90 83 0 0
-2.5977 6.0009 0.2143 -0.840 -0.466 -0.279 112 92 85 0 0
-2.5315 5.8781 0.2133 -0.837 -0.454 -0.307 113 93 87 0 0
-2.2767 5.4673 0.2109 -0.677 -0.736 -0.026 119 108 102 0 0
-1.8047 5.2115 0.2159 0.102 -0.176 0.979 131 120 122 0 0
-1.7368 5.0804 0.2148 0.312 -0.854 -0.417 132 120 122 0 0
-1.7093 5.1065 0.2159 0.858 -0.499 -0.120 149 139 144 0 0
-1.7073 5.1264 0.2163 0.903 -0.429 0.018 151 142 147 0 0
-1.7021 5.1378 0.2166 0.871 -0.489 0.045 150 141 146 0 0
-1.6183 5.1940 0.2194 -0.498 -0.841 0.210 150 142 145 0 0
-1.6124 5.2045 0.2197 0.089 -0.994 -0.062 142 137 140 0 0
-1.6737 5.7153 0.2279 -0.424 -0.714 -0.557 97 84 78 0 0
-1.4508 5.4905 0.2283 0.276 -0.958 0.080 127 114 108 0 0
-1.4416 5.4930 0.2285 0.009 -0.996 -0.085 128 114 109 0 0
-1.1943 5.5458 0.2346 0.394 -0.872 -0.290 196 186 179 0 0
-1.1638 5.5863 0.2360 0.599 -0.753 -0.272 217 191 184 0 0
-0.9120 5.8673 0.2463 -0.742 -0.659 -0.122 117 96 84 0 0
-0.3256 6.3794 0.2679 0.900 -0.418 -0.123 86 72 72 0 0
-0.2777 6.3656 0.2686 -0.131 -0.969 -0.210 198 178 177 0 0
0.4074 6.8876 0.2923 0.266 -0.963 -0.042 107 91 92 0 0
0.4434 6.7802 0.2911 -0.976 -0.198 0.091 121 104 110 0 0
0.6341 6.8630 0.2965 0.876 -0.357 -0.325 45 41 38 0 0
0.7503 5.1254 0.2667 0.034 -0.996 0.084 38 124 173 0 0
0.7904 5.1433 0.2678 -0.440 -0.561 0.701 46 128 178 0 0
0.9977 4.6027 0.2620 -0.719 -0.425 -0.550 42 136 187 0 0
1.1920 5.0482 0.2743 -0.874 -0.438 -0.208 45 137 188 0 0
1.1610 4.7981 0.2690 -0.576 -0.418 0.703 48 138 190 0 0
1.1684 4.7878 0.2690 -0.576 -0.418 0.703 48 138 190 0 0
1.5892 5.5156 0.2911 -0.896 -0.320 -0.307 33 138 196 0 0
1.7695 5.8431 0.3009 0.413 -0.442 0.796 30 139 196 0 0
1.7808 5.8443 0.3011 0.073 -0.422 0.903 33 139 199 0 0
1.4434 4.0053 0.2601 -0.795 -0.324 0.513 32 138 198 0 0
1.4459 3.9844 0.2598 -0.453 -0.369 0.812 31 137 195 0 0
1.4577 3.7455 0.2556 -0.690 -0.274 0.670 33 138 195 0 0
2.1820 5.3142 0.2995 0.706 -0.700 0.108 36 140 195 0 0
2.1960 5.3260 0.3000 0.646 -0.763 0.033 35 139 194 0 0
2.0027 4.3738 0.2784 -0.925 -0.261 -0.277 36 137 193 0 0
2.0242 4.3625 0.2786 0.164 -0.302 -0.939 36 137 193 0 0
2.2311 4.2466 0.2807 -0.715 -0.302 -0.630 36 134 189 0 0
2.5097 4.7029 0.2949 -0.993 -0.118 0.007 36 135 187 0 0
2.3297 3.8564 0.2755 -0.870 -0.331 0.365 37 132 186 0 0
2.7721 4.4790 0.2961 -0.060 -0.995 -0.082 58 146 192 0 0
2.7802 4.4777 0.2963 0.166 -0.983 -0.080 54 142 188 0 0
2.7964 4.4750 0.2966 -0.268 -0.963 -0.003 41 135 183 0 0
2.8420 4.4616 0.2972 0.145 -0.955 0.260 102 157 185 0 0
2.8520 4.4640 0.2975 0.296 -0.955 0.034 66 137 175 0 0
2.8613 4.4650 0.2977 -0.137 -0.936 0.325 55 133 175 0 0
2.8876 4.4652 0.2982 0.023 -0.996 -0.090 100 161 198 0 0
2.8965 4.4654 0.2984 0.052 -0.996 -0.069 103 158 195 0 0
2.9028 4.4444 0.2982 0.374 -0.901 0.221 100 148 189 0 0
3.0441 4.4474 0.3011 -0.091 -0.491 0.866 43 125 173 0 0
3.0382 4.4213 0.3005 -0.165 -0.913 0.373 41 127 175 0 0
3.0467 4.4210 0.3007 0.060 -0.981 0.182 40 127 174 0 0
3.0558 4.4217 0.3009 -0.276 -0.823 0.496 42 126 172 0 0
3.0631 4.4193 0.3010 -0.276 -0.823 0.496 45 126 171 0 0
3.0693 4.4148 0.3010 -0.229 -0.716 0.659 46 124 171 0 0
3.0240 4.3204 0.2984 -0.453 -0.849 0.273 45 123 173 0 0
3.0536 4.3127 0.2988 0.288 -0.945 0.154 38 125 180 0 0
3.0667 4.3206 0.2992 0.466 -0.884 0.037 38 126 181 0 0
3.0907 4.3471 0.3002 0.699 -0.715 -0.025 35 127 178 0 0
3.1209 4.3547 0.3010 0.525 -0.731 0.436 38 126 171 0 0
-3.2222 6.8920 0.2055 -0.859 -0.509 -0.046 69 28 16 0 0
-2.9751 6.5252 0.2044 0.508 -0.858 -0.075 89 62 52 0 0
-2.8986 6.5611 0.2066 -0.872 -0.447 -0.199 103 80 74 0 0
-2.6132 6.0352 0.2036 -0.840 -0.466 -0.279 111 91 84 0 0
-2.2763 5.4665 0.2009 -0.646 -0.763 0.012 124 113 107 0 0
-2.2408 5.4305 0.2010 -0.608 -0.780 0.145 75 65 63 0 0
-2.0999 5.4697 0.2046 -0.692 -0.715 -0.100 125 113 115 0 0
-1.7022 5.1384 0.2071 0.597 -0.714 0.366 149 140 143 0 0
-1.6956 5.1462 0.2074 0.567 -0.757 0.325 145 136 139 0 0
-1.6225 5.2063 0.2099 -0.060 -0.997 0.050 150 141 144 0 0
-1.6766 5.7247 0.2175 -0.610 -0.693 -0.385 90 78 74 0 0
-1.2255 5.4718 0.2225 0.523 -0.745 -0.415 200 187 180 0 0
-1.1648 5.5912 0.2257 0.662 -0.710 -0.239 213 191 183 0 0
-0.9606 5.8437 0.2342 -0.173 -0.892 -0.417 21 11 9 0 0
-0.3252 6.3772 0.2561 0.923 -0.378 -0.077 85 71 70 0 0
0.6350 6.8797 0.2842 0.864 -0.377 -0.335 45 41 38 0 0
0.7504 5.1243 0.2570 -0.039 -0.970 0.238 39 125 176 0 0
0.7629 5.1603 0.2579 0.784 -0.544 -0.298 39 127 177 0 0
0.7736 5.1723 0.2583 -0.668 -0.705 0.237 40 128 178 0 0
0.7816 5.1518 0.2581 -0.698 -0.571 0.433 42 128 179 0 0
0.7903 5.1403 0.2581 -0.461 -0.647 0.608 45 128 178 0 0
0.8454 4.9166 0.2555 0.796 -0.463 0.389 46 132 183 0 0
1.0052 4.5919 0.2533 -0.690 -0.627 -0.361 44 138 189 0 0
1.0128 4.5835 0.2533 -0.690 -0.627 -0.361 48 140 191 0 0
1.1665 4.7748 0.2597 -0.489 -0.440 0.753 52 140 188 0 0
1.1737 4.7632 0.2596 -0.673 -0.475 0.567 51 139 187 0 0
1.7520 5.8138 0.2891 0.359 -0.624 0.694 32 138 196 0 0
1.7661 5.8275 0.2896 -0.040 -0.443 0.896 33 140 196 0 0
1.7751 5.8188 0.2897 0.073 -0.422 0.903 34 139 197 0 0
1.4628 3.7103 0.2478 -0.646 -0.302 0.702 35 140 197 0 0
2.0589 4.7669 0.2778 -0.830 -0.132 -0.542 37 137 196 0 0
2.0669 4.6313 0.2757 -0.658 -0.151 -0.738 37 137 196 0 0
2.0705 4.6158 0.2755 -0.534 -0.288 -0.795 37 137 196 0 0
1.9979 4.3595 0.2697 -0.906 -0.243 -0.345 36 136 195 0 0
2.9109 6.1558 0.3185 0.725 -0.516 -0.455 40 135 189 0 0
2.2400 4.2475 0.2727 -0.647 -0.283 -0.708 37 136 191 0 0
2.3329 3.8465 0.2679 -0.815 -0.275 0.510 37 132 186 0 0
2.7728 4.4798 0.2875 -0.105 -0.983 -0.147 60 147 194 0 0
2.7805 4.4777 0.2877 0.073 -0.997 -0.039 57 144 193 0 0
2.7961 4.4738 0.2879 -0.181 -0.976 -0.125 40 134 182 0 0
2.8418 4.4607 0.2886 0.198 -0.980 0.035 102 156 190 0 0
2.8522 4.4639 0.2889 0.414 -0.910 0.006 71 142 186 0 0
2.8609 4.4638 0.2891 0.140 -0.989 0.055 58 137 185 0 0
2.8972 4.4662 0.2899 0.023 -0.996 -0.090 104 162 195 0 0
2.9017 4.4417 0.2895 0.390 -0.875 0.287 110 161 196 0 0
3.0579 4.4249 0.2924 0.237 -0.970 0.048 61 132 181 0 0
3.0687 4.4286 0.2927 0.344 -0.937 0.055 64 132 179 0 0
3.1120 4.3683 0.2926 0.099 -0.965 0.243 34 128 177 0 0
3.1212 4.3693 0.2928 0.099 -0.965 0.243 34 128 173 0 0
3.1157 4.3454 0.2923 0.369 -0.747 0.553 36 127 171 0 0
3.1490 4.3728 0.2934 0.263 -0.964 -0.031 48 132 178 0 0
3.1593 4.3756 0.2937 0.263 -0.964 -0.031 51 133 180 0 0
-3.0014 6.5077 0.1918 0.934 -0.324 -0.149 78 43 32 0 0
-3.0011 6.5558 0.1926 0.792 -0.549 -0.269 87 58 47 0 0
-2.9707 6.5162 0.1926 0.534 -0.815 -0.226 89 62 51 0 0
-3.1151 6.8465 0.1946 0.761 -0.618 -0.198 89 65 55 0 0
-2.9152 6.5718 0.1945 -0.196 -0.852 0.485 98 78 69 0 0
-2.6997 6.2014 0.1934 -0.837 -0.454 -0.307 108 87 80 0 0
-2.6289 6.0699 0.1928 -0.840 -0.466 -0.279 110 90 83 0 0
-2.2750 5.4638 0.1909 -0.614 -0.775 0.148 130 117 111 0 0
-2.2584 5.4485 0.1910 -0.756 -0.651 -0.071 107 96 92 0 0
-2.2269 5.5593 0.1933 -0.201 -0.967 0.156 83 73 74 0 0
-2.1976 5.5852 0.1943 -0.048 -0.999 0.023 105 93 95 0 0
-2.1867 5.5834 0.1945 -0.477 -0.878 0.047 111 99 101 0 0
-2.1297 5.4942 0.1943 -0.682 -0.731 -0.019 119 107 109 0 0
-2.1135 5.4791 0.1944 -0.682 -0.731 -0.019 123 111 113 0 0
-2.1059 5.4846 0.1946 -0.645 -0.730 0.226 126 114 116 0 0
-1.9981 5.2920 0.1939 -0.021 -1.000 -0.012 128 116 120 0 0
-1.7080 5.1289 0.1974 0.754 -0.657 -0.011 150 141 144 0 0
-1.6310 5.2038 0.2001 0.208 -0.895 -0.394 154 141 145 0 0
-1.8263 6.0520 0.2089 -0.333 -0.430 0.839 86 69 68 0 0
-1.6774 5.7275 0.2070 -0.644 -0.707 -0.291 99 86 83 0 0
-1.2294 5.4874 0.2126 -0.063 -0.992 -0.110 191 184 181 0 0
-1.2192 5.4864 0.2127 0.259 -0.960 -0.112 182 175 174 0 0
-1.1340 5.6335 0.2167 0.670 -0.691 -0.273 50 21 20 0 0
-0.9741 5.8581 0.2233 -0.044 -0.990 -0.132 22 12 10 0 0
-0.6956 5.9254 0.2300 -0.065 -0.942 -0.329 82 78 74 0 0
-0.2777 6.3707 0.2453 -0.206 -0.955 -0.212 200 182 180 0 0
0.1598 6.6797 0.2589 0.216 -0.946 -0.243 172 158 157 0 0
0.6868 5.1786 0.2470 -0.219 -0.928 -0.303 14 14 22 0 0
0.7636 5.1666 0.2483 0.784 -0.544 -0.298 40 128 178 0 0
0.7737 5.1713 0.2486 -0.621 -0.754 0.214 41 129 179 0 0
0.8342 5.0911 0.2486 -0.082 -0.529 0.845 45 131 182 0 0
0.8647 5.0132 0.2481 0.851 -0.356 0.386 45 133 183 0 0
0.8773 5.0442 0.2488 0.851 -0.356 0.386 46 134 184 0 0
1.0005 4.6198 0.2449 -0.912 -0.389 -0.132 44 138 189 0 0
1.0071 4.6042 0.2448 -0.912 -0.389 -0.132 44 138 189 0 0
1.0137 4.5888 0.2447 -0.912 -0.389 -0.132 47 139 190 0 0
1.0195 4.5679 0.2445 -0.918 -0.367 -0.149 47 139 190 0 0
1.0251 4.5464 0.2443 -0.962 -0.272 0.012 48 138 190 0 0
1.0427 4.4898 0.2438 0.889 -0.395 0.230 52 135 189 0 0
1.0573 4.3626 0.2422 -0.870 -0.388 0.305 49 140 195 0 0
1.4615 5.5522 0.2684 0.893 -0.430 -0.135 42 137 193 0 0
1.7340 5.7819 0.2774 0.626 -0.585 0.516 33 138 195 0 0
1.7492 5.8003 0.2780 -0.031 -0.734 0.678 33 138 195 0 0
1.7616 5.8069 0.2783 -0.241 -0.469 0.849 33 140 196 0 0
1.7726 5.8069 0.2786 -0.024 -0.488 0.873 34 139 196 0 0
1.8002 5.8777 0.2802 0.418 -0.457 -0.785 35 138 196 0 0
1.4723 3.5428 0.2383 -0.065 -0.786 -0.615 33 138 195 0 0
2.0622 4.7489 0.2685 -0.793 -0.098 -0.601 37 137 196 0 0
2.0641 4.7273 0.2682 -0.798 -0.098 -0.595 38 138 197 0 0
2.0751 4.6284 0.2669 -0.633 -0.187 -0.751 37 137 196 0 0
2.2461 4.3647 0.2665 -0.283 -0.120 -0.951 36 135 190 0 0
2.5033 4.6866 0.2766 -0.992 -0.123 0.025 39 136 190 0 0
2.5106 4.6824 0.2766 -0.988 -0.114 -0.102 38 137 189 0 0
2.5060 4.5889 0.2751 -0.988 -0.137 0.073 36 135 190 0 0
2.5848 4.3599 0.2733 -0.131 -0.213 0.968 37 132 186 0 0
2.7740 4.4816 0.2790 -0.061 -0.905 -0.420 57 145 193 0 0
2.7969 4.4750 0.2793 -0.147 -0.969 -0.199 44 136 184 0 0
2.8420 4.4604 0.2800 0.198 -0.980 0.035 97 152 187 0 0
2.8526 4.4640 0.2803 0.414 -0.910 0.006 63 137 184 0 0
2.8618 4.4649 0.2805 0.190 -0.982 0.003 48 131 183 0 0
2.9321 4.4491 0.2817 0.126 -0.949 0.290 81 145 186 0 0
2.9406 4.4486 0.2819 -0.022 -0.998 -0.060 69 137 180 0 0
2.9509 4.4516 0.2821 0.410 -0.904 0.122 57 130 173 0 0
3.0580 4.4245 0.2839 0.237 -0.970 0.048 85 150 197 0 0
3.0687 4.4281 0.2842 0.344 -0.937 0.055 87 148 193 0 0
3.0529 4.3851 0.2832 0.091 -0.995 0.030 80 141 185 0 0
3.0630 4.3877 0.2835 -0.137 -0.905 0.402 69 136 179 0 0
3.1306 4.3702 0.2846 -0.351 -0.861 -0.368 38 127 172 0 0
-3.0296 6.5183 0.1796 0.886 -0.463 0.029 70 30 19 0 0
-3.1343 6.8615 0.1821 -0.279 -0.915 -0.290 89 62 51 0 0
-3.1168 6.8503 0.1823 0.889 -0.457 -0.021 89 65 53 0 0
-2.9258 6.4701 0.1811 -0.092 -0.891 -0.444 90 67 56 0 0
-2.9240 6.5658 0.1824 0.808 -0.462 0.365 96 76 67 0 0
-2.9168 6.5754 0.1827 -0.259 -0.922 0.289 98 78 69 0 0
-2.6561 6.1299 0.1820 -0.811 -0.487 -0.323 109 88 83 0 0
-2.6118 6.0562 0.1819 -0.811 -0.487 -0.323 112 91 86 0 0
-2.2746 5.4629 0.1809 -0.624 -0.780 0.058 132 119 113 0 0
-2.2594 5.4509 0.1810 -0.748 -0.659 -0.083 114 103 99 0 0
-2.2255 5.5563 0.1831 -0.238 -0.971 -0.021 81 71 72 0 0
-2.1902 5.5919 0.1843 -0.648 -0.745 0.158 112 100 102 0 0
-2.1302 5.4956 0.1842 -0.699 -0.712 0.066 119 107 109 0 0
-2.0915 5.4739 0.1847 0.149 -0.803 0.577 126 114 116 0 0
-2.0072 5.3146 0.1843 -0.294 -0.956 -0.022 130 118 122 0 0
-1.7189 5.1079 0.1874 0.838 -0.484 -0.252 149 138 142 0 0
-1.7897 5.9742 0.1975 0.664 -0.412 0.624 90 73 70 0 0
-1.2296 5.4885 0.2024 -0.063 -0.992 -0.110 186 187 187 0 0
-1.1347 5.6369 0.2064 0.670 -0.691 -0.273 42 18 18 0 0
-0.6960 5.9293 0.2192 -0.065 -0.942 -0.329 88 83 80 0 0
-0.3871 6.4154 0.2319 -0.223 -0.732 -0.644 63 53 52 0 0
0.3321 6.8275 0.2521 0.518 -0.843 -0.144 81 63 63 0 0
0.7643 5.1728 0.2387 0.784 -0.544 -0.298 41 129 179 0 0
0.8243 5.0857 0.2388 -0.790 -0.585 0.181 45 131 182 0 0
0.8421 5.0716 0.2390 -0.065 -0.746 0.663 45 131 182 0 0
0.8924 5.0949 0.2403 0.857 -0.354 0.376 45 135 185 0 0
1.0319 4.4728 0.2348 0.930 -0.367 0.023 53 136 186 0 0
1.0456 4.5081 0.2356 0.931 -0.349 0.111 56 140 187 0 0
1.0604 4.5489 0.2364 0.945 -0.301 0.131 51 137 186 0 0
1.0771 4.6017 0.2375 0.942 -0.331 0.061 47 137 189 0 0
1.2616 5.0051 0.2466 -0.512 -0.025 0.859 49 141 192 0 0
1.4103 5.5001 0.2562 0.946 -0.254 -0.199 48 142 196 0 0
1.4663 5.5218 0.2577 0.422 -0.525 -0.739 40 137 190 0 0
1.7306 5.7656 0.2663 -0.784 -0.619 0.044 35 140 197 0 0
1.7380 5.7506 0.2663 -0.828 -0.501 -0.252 35 140 197 0 0
1.7555 5.7793 0.2670 -0.222 -0.586 0.779 35 140 195 0 0
1.7682 5.7871 0.2674 -0.024 -0.488 0.873 36 140 195 0 0
2.5059 4.7134 0.2680 -0.989 -0.120 0.084 40 137 192 0 0
2.5019 4.6827 0.2675 -0.991 -0.119 0.054 40 137 191 0 0
2.5049 4.6685 0.2674 -0.992 -0.116 -0.042 40 137 190 0 0
2.5074 4.6118 0.2667 -0.962 -0.161 -0.223 40 137 192 0 0
2.3008 3.9421 0.2535 -0.824 -0.129 -0.551 36 136 188 0 0
2.7585 4.5385 0.2708 -0.984 -0.141 -0.108 38 132 183 0 0
2.8421 4.4601 0.2715 0.198 -0.980 0.035 92 151 185 0 0
2.8529 4.4641 0.2717 0.414 -0.910 0.006 52 132 180 0 0
2.8621 4.4649 0.2719 0.190 -0.982 0.003 42 133 187 0 0
2.9222 4.4464 0.2729 0.365 -0.926 0.096 55 138 185 0 0
2.9303 4.4452 0.2730 0.134 -0.956 0.261 55 139 187 0 0
2.9420 4.4508 0.2734 0.138 -0.975 -0.172 54 138 188 0 0
2.9515 4.4522 0.2736 0.445 -0.841 -0.308 48 132 184 0 0
2.9932 4.4327 0.2742 -0.824 -0.524 0.215 61 141 182 0 0
3.0577 4.4234 0.2753 0.328 -0.890 0.316 82 147 187 0 0
3.0687 4.4276 0.2756 0.344 -0.937 0.055 91 148 187 0 0
3.0516 4.3823 0.2747 0.042 -0.999 -0.009 85 143 181 0 0
3.0610 4.3836 0.2749 -0.226 -0.956 0.187 76 139 176 0 0
3.0693 4.3829 0.2750 -0.695 -0.717 -0.051 72 136 175 0 0
3.0764 4.3803 0.2752 -0.500 -0.801 0.329 68 135 176 0 0
3.0886 4.3716 0.2753 -0.642 -0.657 0.394 51 129 176 0 0
-3.0155 6.5131 0.1680 0.943 -0.317 0.101 72 34 23 0 0
-3.1292 6.8511 0.1697 -0.632 -0.690 -0.353 88 61 50 0 0
-3.1141 6.8447 0.1699 0.192 -0.840 -0.507 88 64 52 0 0
-2.9278 6.4747 0.1694 -0.287 -0.910 -0.299 89 66 55 0 0
-2.9097 6.5100 0.1702 0.917 -0.223 0.330 93 73 64 0 0
-2.9245 6.5669 0.1705 0.499 -0.801 0.331 95 75 66 0 0
-2.6228 5.9859 0.1699 -0.631 -0.758 -0.165 102 81 73 0 0
-2.5747 5.9981 0.1710 -0.831 -0.470 -0.298 113 92 87 0 0
-2.2653 5.4420 0.1708 0.394 -0.870 0.298 135 120 115 0 0
-2.2604 5.4533 0.1710 -0.748 -0.659 -0.083 122 109 103 0 0
-2.2255 5.5566 0.1729 -0.238 -0.971 -0.021 81 71 72 0 0
-2.1128 5.4777 0.1743 -0.513 -0.812 0.279 123 111 113 0 0
-2.0990 5.4682 0.1745 -0.410 -0.813 0.414 125 113 115 0 0
-2.0885 5.4667 0.1747 -0.019 -0.821 0.570 126 114 116 0 0
-1.7671 5.0879 0.1768 -0.716 -0.486 0.501 132 120 124 0 0
-1.7566 5.0847 0.1769 -0.152 -0.317 0.936 133 121 123 0 0
-1.7423 5.0960 0.1774 0.109 -0.841 0.531 135 124 125 0 0
-1.7198 5.1107 0.1780 0.912 -0.392 -0.120 150 139 143 0 0
-1.7095 5.1335 0.1785 0.676 -0.691 -0.257 147 138 141 0 0
-1.6792 5.2064 0.1799 0.276 -0.960 -0.050 140 128 130 0 0
-1.6364 5.2755 0.1816 -0.394 -0.867 -0.305 109 106 107 0 0
-1.2302 5.4911 0.1923 -0.041 -0.960 -0.276 164 169 172 0 0
-1.2200 5.4906 0.1925 -0.041 -0.960 -0.276 164 169 173 0 0
-1.1330 5.6306 0.1959 0.165 -0.918 -0.361 38 20 18 0 0
-1.1240 5.6358 0.1962 0.105 -0.917 -0.384 36 15 14 0 0
-0.9749 5.8634 0.2018 0.246 -0.969 0.009 21 10 9 0 0
-0.3980 6.4094 0.2199 -0.763 -0.620 -0.182 60 50 49 0 0
-0.3882 6.4281 0.2203 -0.127 -0.746 -0.654 62 52 50 0 0
-0.2427 6.3751 0.2226 0.564 -0.787 -0.250 207 187 186 0 0
0.3324 6.8298 0.2396 0.657 -0.749 -0.087 79 61 61 0 0
0.4533 6.6041 0.2394 -0.963 -0.268 -0.003 123 106 112 0 0
0.7658 5.1888 0.2293 0.292 -0.908 -0.299 42 130 180 0 0
0.7757 5.1897 0.2295 -0.172 -0.983 -0.058 39 129 179 0 0
0.8428 5.0760 0.2295 -0.203 -0.742 0.639 46 132 183 0 0
1.0409 5.3576 0.2368 0.084 -0.436 -0.896 45 137 188 0 0
1.0241 4.4772 0.2262 0.668 -0.502 0.550 51 139 189 0 0
1.0464 4.5116 0.2271 0.872 -0.386 0.301 52 139 182 0 0
1.0763 4.5382 0.2280 -0.900 -0.224 0.374 46 140 191 0 0
1.0816 4.5166 0.2279 -0.900 -0.224 0.374 43 139 190 0 0
1.0872 4.4972 0.2277 -0.860 -0.322 0.395 44 138 192 0 0
1.1311 4.4518 0.2281 -0.100 -0.230 0.968 60 140 189 0 0
1.1449 4.4330 0.2282 -0.179 -0.236 0.955 59 139 190 0 0
1.4648 5.5667 0.2478 0.642 -0.356 -0.680 45 139 190 0 0
1.4649 5.5132 0.2472 0.371 -0.407 -0.835 43 139 190 0 0
1.7391 5.7542 0.2556 -0.828 -0.501 -0.252 36 141 198 0 0
1.7532 5.7685 0.2560 -0.388 -0.523 0.759 36 141 198 0 0
1.7820 5.8447 0.2575 0.801 -0.520 -0.297 36 141 198 0 0
2.0861 6.5661 0.2720 0.582 -0.484 -0.653 35 140 197 0 0
2.0689 4.2096 0.2443 -0.745 -0.328 -0.581 40 139 196 0 0
2.2587 4.3946 0.2503 -0.983 -0.157 -0.094 37 137 192 0 0
2.0890 3.7893 0.2398 -0.720 -0.288 0.632 40 137 192 0 0
2.5019 4.6820 0.2586 -0.993 -0.115 0.030 40 137 191 0 0
2.5034 4.6644 0.2584 -0.991 -0.126 -0.040 41 136 190 0 0
2.5055 4.6482 0.2582 -0.991 -0.126 -0.040 41 137 192 0 0
2.5074 4.6320 0.2581 -0.987 -0.138 -0.085 41 138 193 0 0
2.3241 3.8425 0.2452 0.620 -0.583 0.524 39 134 188 0 0
2.7516 4.5061 0.2616 -0.271 -0.957 -0.100 37 135 184 0 0
2.7751 4.4826 0.2618 0.165 -0.915 -0.368 58 149 196 0 0
2.8422 4.4599 0.2629 0.198 -0.980 0.035 87 150 185 0 0
2.8624 4.4650 0.2633 0.190 -0.982 0.003 43 137 193 0 0
2.8908 4.4360 0.2636 0.188 -0.982 0.006 42 133 184 0 0
2.8998 4.4365 0.2638 0.370 -0.929 0.015 41 132 184 0 0
2.9108 4.4409 0.2640 0.370 -0.929 0.015 43 132 183 0 0
2.9219 4.4453 0.2643 0.370 -0.929 0.015 44 133 183 0 0
2.9330 4.4498 0.2646 0.365 -0.926 0.096 44 135 186 0 0
2.9415 4.4492 0.2648 0.256 -0.963 -0.080 43 134 187 0 0
2.9484 4.4458 0.2649 0.536 -0.841 0.081 41 134 188 0 0
2.9897 4.4736 0.2660 -0.612 -0.215 -0.761 37 134 182 0 0
2.9950 4.4671 0.2660 -0.745 -0.258 -0.615 41 133 183 0 0
2.9915 4.4290 0.2655 -0.763 -0.576 0.293 45 133 179 0 0
2.9966 4.4226 0.2656 -0.789 -0.551 0.272 51 134 180 0 0
3.0558 4.4197 0.2667 0.328 -0.890 0.316 60 131 171 0 0
3.0687 4.4271 0.2671 0.344 -0.937 0.055 69 134 173 0 0
3.0519 4.3824 0.2662 0.042 -0.999 -0.009 74 138 177 0 0
3.0604 4.3821 0.2664 -0.226 -0.956 0.187 78 143 180 0 0
3.0690 4.3819 0.2666 -0.592 -0.806 0.018 83 146 183 0 0
3.0751 4.3776 0.2666 -0.659 -0.715 0.233 86 151 189 0 0
3.1155 4.3729 0.2674 0.154 -0.946 -0.285 38 127 177 0 0
-3.1403 6.8745 0.1573 -0.390 -0.676 -0.625 87 61 49 0 0
-3.0893 6.8180 0.1578 -0.712 -0.597 -0.369 89 66 55 0 0
-2.6047 5.9698 0.1592 -0.688 -0.676 -0.266 104 81 75 0 0
-2.5981 5.9789 0.1594 -0.235 -0.945 -0.228 106 83 78 0 0
-2.7602 6.3597 0.1599 -0.875 -0.438 -0.208 107 86 81 0 0
-2.5511 5.9696 0.1603 -0.874 -0.445 -0.196 113 94 88 0 0
-2.2639 5.4391 0.1608 0.401 -0.866 0.298 135 120 115 0 0
-2.2604 5.4534 0.1610 -0.642 -0.766 -0.005 127 114 108 0 0
-2.2314 5.5705 0.1628 0.837 -0.484 0.257 80 70 71 0 0
-2.1090 5.4686 0.1642 -0.436 -0.801 0.409 124 112 114 0 0
-2.1099 5.5193 0.1647 -0.796 -0.580 0.172 127 115 117 0 0
-1.7558 5.0582 0.1673 -0.726 -0.568 0.388 132 120 124 0 0
-1.7482 5.0627 0.1675 -0.127 -0.481 0.867 133 121 123 0 0
-1.7452 5.0793 0.1677 0.574 -0.503 0.646 134 122 124 0 0
-1.7839 5.9573 0.1756 -0.731 -0.496 0.468 96 81 78 0 0
-1.1338 5.6345 0.1856 0.165 -0.918 -0.361 34 20 17 0 0
-1.1249 5.6401 0.1858 0.105 -0.917 -0.384 35 18 18 0 0
-0.9747 5.8633 0.1911 0.246 -0.969 0.009 22 11 10 0 0
-0.3892 6.4396 0.2086 -0.063 -0.790 -0.610 60 50 48 0 0
-0.3782 6.4474 0.2089 -0.247 -0.935 -0.253 62 52 50 0 0
0.1601 6.7003 0.2223 0.354 -0.854 -0.381 174 160 159 0 0
0.3326 6.8326 0.2271 0.538 -0.826 -0.166 82 64 62 0 0
0.4303 6.6694 0.2274 -0.936 -0.240 -0.258 117 100 106 0 0
0.4536 6.6048 0.2272 -0.936 -0.293 -0.194 123 106 112 0 0
0.6091 6.8401 0.2327 0.937 -0.289 -0.198 77 69 67 0 0
0.8392 5.0366 0.2195 -0.787 -0.498 0.366 46 134 184 0 0
0.8682 5.0416 0.2202 0.342 -0.856 0.387 46 136 188 0 0
0.8955 5.1204 0.2215 0.313 -0.353 0.882 45 135 187 0 0
1.0495 5.3441 0.2268 -0.902 -0.430 0.023 46 137 190 0 0
0.9999 4.4854 0.2173 -0.387 -0.421 0.820 47 139 190 0 0
1.0064 4.4714 0.2173 -0.096 -0.412 0.906 47 139 190 0 0
1.0214 4.4566 0.2175 0.841 -0.541 -0.025 49 140 187 0 0
1.0811 4.6845 0.2209 0.896 -0.444 0.007 44 139 183 0 0
1.0732 4.5167 0.2191 -0.882 -0.217 0.418 45 141 191 0 0
1.0792 4.4999 0.2191 -0.838 -0.287 0.465 43 139 190 0 0
1.0976 4.4539 0.2190 -0.586 -0.219 0.780 58 138 189 0 0
1.1432 4.4217 0.2196 0.057 -0.373 0.926 78 136 182 0 0
1.3817 5.5694 0.2358 0.714 -0.309 0.628 65 139 186 0 0
1.3662 4.2084 0.2220 -0.610 -0.193 0.769 32 141 200 0 0
2.2633 4.3632 0.2416 -0.979 -0.157 -0.133 37 138 192 0 0
2.7445 4.5089 0.2528 -0.314 -0.938 0.146 37 133 183 0 0
2.7522 4.5068 0.2529 -0.221 -0.974 0.049 37 134 185 0 0
2.7652 4.4798 0.2529 0.473 -0.881 -0.009 52 146 194 0 0
2.7773 4.4864 0.2532 0.165 -0.915 -0.368 58 149 196 0 0
2.7869 4.4881 0.2534 0.165 -0.915 -0.368 60 145 195 0 0
2.8627 4.4650 0.2547 0.190 -0.982 0.003 39 133 188 0 0
