ply
format ascii 1.0
element vertex 842
property float x
property float y
property float z
property float nx
property float ny
property float nz
property uchar diffuse_red
property uchar diffuse_green
property uchar diffuse_blue
property uchar class
property uchar detection
end_header
0.8770 5.0543 0.2427 0.810 -0.467 0.355 37 156 224 0 0
0.9452 5.0836 0.2444 -0.596 -0.523 -0.609 34 157 224 0 0
0.9593 5.0677 0.2442 -0.520 -0.520 -0.677 36 158 223 0 0
0.9717 5.0836 0.2448 0.479 -0.805 -0.351 36 158 223 0 0
0.9809 5.0847 0.2449 -0.434 -0.900 -0.029 36 158 223 0 0
1.2321 4.5770 0.2350 -0.196 -0.123 0.973 27 157 223 0 0
1.2335 4.5558 0.2344 -0.016 -0.226 0.974 25 157 222 0 0
1.2348 4.5346 0.2339 0.349 -0.289 0.892 26 156 223 0 0
1.3385 4.6585 0.2385 -0.100 -0.119 0.988 21 159 227 0 0
1.3976 4.6890 0.2401 -0.314 -0.304 0.900 20 158 231 0 0
1.6150 3.7398 0.2182 -0.886 -0.107 0.450 22 153 225 0 0
2.8663 5.8836 0.2913 0.809 -0.581 0.089 27 154 223 0 0
2.9287 5.9640 0.2943 -0.709 -0.451 0.543 25 152 221 0 0
2.9266 5.9400 0.2936 -0.587 -0.176 0.790 26 153 222 0 0
2.2979 4.6724 0.2518 -0.545 -0.305 0.781 30 154 222 0 0
-2.6683 4.5274 0.1732 0.156 -0.957 -0.243 104 92 85 0 0
-2.6289 4.5420 0.1741 0.206 -0.844 -0.494 112 108 61 0 0
-2.6135 4.5727 0.1751 0.940 -0.153 -0.303 98 79 47 0 0
-2.6161 4.5928 0.1755 0.964 -0.169 0.203 115 96 70 0 0
-2.4917 4.7146 0.1802 -0.045 -0.651 -0.758 50 41 36 0 0
-2.4857 4.7189 0.1804 0.193 -0.693 -0.694 64 54 52 0 0
-2.4018 4.7147 0.1814 0.010 -0.402 -0.915 140 130 127 0 0
-2.3759 4.6942 0.1812 -0.588 -0.674 -0.448 143 137 141 0 0
-2.3325 4.6703 0.1812 0.910 -0.164 0.380 93 83 79 0 0
-3.0674 6.6925 0.2209 0.942 -0.294 -0.162 102 76 67 0 0
-2.1799 5.5926 0.2059 0.429 -0.795 0.428 128 122 126 0 0
-1.7654 5.1250 0.2000 -0.580 -0.807 0.108 146 140 145 0 0
-1.7370 5.0899 0.1996 -0.151 -0.987 0.048 148 141 148 0 0
-1.7278 5.0889 0.1997 0.344 -0.931 0.123 150 144 151 0 0
-1.7195 5.0906 0.1998 0.748 -0.661 0.068 154 149 155 0 0
-1.6088 5.2380 0.2049 0.520 -0.726 -0.450 138 134 141 0 0
-1.5940 5.2167 0.2046 -0.656 -0.743 0.131 119 115 122 0 0
-1.5758 5.6238 0.2148 -0.419 -0.860 -0.290 114 108 110 0 0
-1.5648 5.6184 0.2148 -0.419 -0.860 -0.290 110 104 106 0 0
-1.4154 5.4733 0.2133 0.142 -0.642 -0.753 142 132 131 0 0
-1.3549 5.4126 0.2126 -0.504 -0.828 -0.245 144 134 133 0 0
-1.3453 5.4120 0.2127 -0.172 -0.940 -0.295 146 134 134 0 0
-1.3469 5.4640 0.2140 0.209 -0.936 -0.283 151 137 137 0 0
-1.3372 5.4633 0.2141 -0.154 -0.950 -0.272 170 155 156 0 0
-1.3274 5.4613 0.2142 -0.394 -0.893 -0.218 198 183 182 0 0
-1.3169 5.4567 0.2142 -0.394 -0.893 -0.218 222 208 202 0 0
-1.3124 5.4810 0.2149 0.379 -0.919 -0.111 226 213 205 0 0
-1.3007 5.4701 0.2148 -0.240 -0.946 -0.217 226 213 205 0 0
-1.1512 5.5971 0.2199 0.310 -0.879 -0.362 222 211 209 0 0
-1.1420 5.6000 0.2201 0.395 -0.842 -0.368 181 171 170 0 0
-0.9684 5.9097 0.2300 0.460 -0.859 -0.226 37 25 27 0 0
-0.9600 5.9239 0.2305 0.471 -0.877 -0.095 52 36 38 0 0
-0.6630 5.9436 0.2350 -0.225 -0.911 -0.345 22 26 35 0 0
-0.6399 6.0503 0.2379 0.737 -0.578 0.352 16 26 38 0 0
-0.5408 5.9741 0.2374 -0.334 -0.927 -0.173 195 184 188 0 0
-0.3538 6.3805 0.2499 -0.633 -0.712 -0.304 85 79 83 0 0
-0.3303 6.3206 0.2487 0.335 -0.881 -0.334 88 79 84 0 0
-0.2648 6.3492 0.2503 0.254 -0.913 -0.318 216 212 213 0 0
-0.2209 6.4138 0.2525 0.647 -0.762 0.035 224 191 200 0 0
-0.1537 6.4759 0.2549 0.151 -0.976 -0.157 199 195 196 0 0
-0.1425 6.4650 0.2548 0.002 -0.950 -0.312 152 147 153 0 0
-0.0161 6.5707 0.2591 0.515 -0.857 0.019 187 185 196 0 0
-0.0044 6.5794 0.2594 0.510 -0.858 -0.057 187 186 194 0 0
0.0073 6.5870 0.2598 0.555 -0.829 -0.069 172 171 176 0 0
0.0306 6.6002 0.2604 -0.001 -1.000 0.011 155 151 152 0 0
0.0421 6.6002 0.2606 -0.001 -1.000 0.011 159 153 155 0 0
0.2105 6.7321 0.2661 -0.098 -0.930 0.353 131 119 121 0 0
0.2210 6.7127 0.2658 0.481 -0.855 -0.196 130 118 120 0 0
0.2347 6.7437 0.2667 0.424 -0.869 0.257 135 123 123 0 0
0.3476 6.8385 0.2705 0.347 -0.859 -0.376 84 69 76 0 0
0.3885 6.9005 0.2726 0.358 -0.831 -0.425 108 97 101 0 0
0.4488 6.7762 0.2704 -0.930 -0.347 -0.122 135 123 133 0 0
0.5418 5.1751 0.2324 -0.661 -0.750 0.025 43 44 48 0 0
0.5745 5.1524 0.2323 -0.615 -0.721 0.318 28 28 36 0 0
0.5824 5.1447 0.2322 -0.575 -0.724 0.380 21 23 35 0 0
0.5914 5.1454 0.2323 -0.592 -0.687 0.420 14 18 29 0 0
0.7335 5.1377 0.2340 -0.176 -0.965 -0.193 51 148 208 0 0
0.7712 5.1967 0.2360 0.864 -0.415 -0.287 35 150 213 0 0
0.8175 5.2978 0.2391 0.891 -0.410 -0.197 37 152 219 0 0
0.8931 5.4468 0.2438 -0.748 -0.265 0.609 35 152 219 0 0
0.8257 5.0175 0.2323 -0.873 -0.432 0.224 35 154 220 0 0
0.8302 4.9965 0.2319 -0.627 -0.649 0.431 35 154 220 0 0
0.8443 4.9801 0.2317 -0.580 -0.633 0.513 33 155 220 0 0
0.8510 4.9708 0.2315 -0.777 -0.367 0.511 34 156 223 0 0
0.8742 5.0398 0.2335 0.801 -0.595 -0.063 35 157 224 0 0
0.8865 5.0569 0.2341 -0.420 -0.785 -0.456 37 156 224 0 0
0.9631 5.0447 0.2348 -0.898 -0.428 -0.102 38 160 225 0 0
0.9685 5.0297 0.2346 -0.544 -0.778 -0.316 40 159 225 0 0
1.2163 4.4996 0.2249 0.024 -0.217 0.976 45 156 218 0 0
1.2171 4.4771 0.2244 0.386 -0.363 0.848 44 156 218 0 0
1.3200 4.6009 0.2288 -0.043 -0.104 0.994 29 155 222 0 0
1.4153 4.6446 0.2311 0.062 -0.160 0.985 22 156 228 0 0
1.2815 4.1906 0.2182 -0.923 -0.351 -0.157 22 158 227 0 0
1.2852 4.1803 0.2180 -0.955 -0.291 -0.050 22 159 227 0 0
1.2885 4.1688 0.2178 -0.959 -0.284 -0.017 22 159 227 0 0
1.2901 4.1529 0.2174 -0.972 -0.209 0.106 21 159 226 0 0
1.3691 4.1900 0.2194 -0.813 -0.096 0.575 23 159 227 0 0
1.4013 4.2370 0.2209 -0.020 -0.148 0.989 23 160 229 0 0
2.8602 5.8909 0.2812 0.220 -0.284 -0.933 26 153 223 0 0
2.8816 5.9124 0.2820 0.146 -0.208 -0.967 26 153 222 0 0
2.9211 5.9487 0.2834 -0.638 -0.311 0.705 24 153 221 0 0
2.9158 5.9187 0.2826 -0.550 -0.210 0.808 25 153 222 0 0
-2.6827 4.5538 0.1658 -0.413 -0.715 -0.564 115 95 93 0 0
-2.6635 4.5328 0.1655 0.278 -0.916 -0.289 99 87 81 0 0
-2.6383 4.5446 0.1662 0.904 -0.281 0.321 124 125 91 0 0
-2.6270 4.5679 0.1668 0.839 -0.461 0.288 126 110 59 0 0
-2.5704 4.7408 0.1715 -0.511 -0.855 -0.083 100 87 71 0 0
-2.4005 4.7295 0.1736 -0.022 -0.422 -0.906 137 129 127 0 0
-2.3782 4.6990 0.1732 -0.587 -0.680 -0.440 138 132 134 0 0
-2.3662 4.6906 0.1731 -0.583 -0.691 -0.427 147 140 147 0 0
-2.3300 4.6648 0.1730 0.910 -0.164 0.380 115 108 106 0 0
-2.8831 6.4983 0.2074 0.662 -0.208 0.720 112 95 93 0 0
-2.1784 5.5883 0.1961 0.442 -0.784 0.437 127 121 125 0 0
-2.1703 5.5930 0.1964 0.442 -0.784 0.437 133 127 131 0 0
-1.7368 5.0893 0.1907 -0.085 -0.995 -0.057 147 141 148 0 0
-1.7205 5.0939 0.1910 0.806 -0.509 -0.303 155 150 156 0 0
-1.6332 5.1946 0.1945 -0.351 -0.932 -0.093 171 163 174 0 0
-1.5249 5.5738 0.2046 -0.462 -0.881 0.100 109 100 101 0 0
-1.3561 5.4182 0.2033 -0.549 -0.821 -0.159 145 133 133 0 0
-1.3458 5.4141 0.2034 -0.255 -0.947 -0.195 146 134 136 0 0
-1.3474 5.4667 0.2046 0.209 -0.936 -0.283 150 135 137 0 0
-1.3378 5.4661 0.2047 -0.154 -0.950 -0.272 170 154 155 0 0
-1.3278 5.4639 0.2048 -0.394 -0.893 -0.218 199 183 182 0 0
-1.3174 5.4592 0.2048 -0.394 -0.893 -0.218 224 209 204 0 0
-1.3126 5.4820 0.2054 0.379 -0.919 -0.111 225 212 204 0 0
-1.3007 5.4703 0.2053 -0.459 -0.888 0.015 225 212 203 0 0
-1.2212 5.5029 0.2071 0.659 -0.748 0.080 198 201 210 0 0
-1.2132 5.5114 0.2074 0.609 -0.775 0.167 182 189 199 0 0
-1.1573 5.5759 0.2096 0.518 -0.820 -0.246 227 215 215 0 0
-1.1518 5.6009 0.2103 0.310 -0.879 -0.362 219 209 208 0 0
-1.1426 5.6039 0.2105 0.395 -0.842 -0.368 178 166 166 0 0
-0.6632 5.9475 0.2247 -0.225 -0.911 -0.345 16 23 31 0 0
-0.6218 6.0940 0.2286 -0.849 -0.512 0.131 22 34 50 0 0
-0.5045 6.0778 0.2299 -0.417 -0.850 -0.322 202 193 196 0 0
-0.4939 6.0774 0.2300 -0.119 -0.942 -0.315 196 187 190 0 0
-0.3411 6.3157 0.2375 -0.658 -0.748 -0.085 88 77 81 0 0
-0.3298 6.3032 0.2374 0.008 -0.902 -0.432 89 78 82 0 0
-0.1535 6.4784 0.2437 0.106 -0.988 -0.117 198 194 195 0 0
-0.1423 6.4686 0.2437 0.002 -0.950 -0.312 152 147 153 0 0
-0.0158 6.5753 0.2478 0.485 -0.865 -0.128 187 185 198 0 0
-0.0041 6.5833 0.2481 0.445 -0.881 -0.162 190 189 197 0 0
0.0075 6.5896 0.2484 0.456 -0.886 -0.086 174 173 178 0 0
0.0191 6.5955 0.2487 0.456 -0.886 -0.086 152 147 151 0 0
0.0308 6.6001 0.2490 -0.001 -1.000 0.011 156 152 153 0 0
0.2098 6.7170 0.2541 0.353 -0.935 0.043 122 110 112 0 0
0.2218 6.7215 0.2543 0.353 -0.935 0.043 127 115 117 0 0
0.2347 6.7419 0.2550 0.323 -0.943 0.077 134 120 120 0 0
0.3482 6.8439 0.2588 0.364 -0.792 -0.491 88 73 80 0 0
0.5420 5.1751 0.2234 -0.551 -0.820 0.154 42 43 47 0 0
0.5742 5.1488 0.2232 -0.615 -0.721 0.318 28 28 36 0 0
0.5822 5.1426 0.2232 -0.519 -0.795 0.316 20 22 34 0 0
0.6640 4.9910 0.2208 0.885 -0.436 -0.164 15 27 43 0 0
0.7340 5.1396 0.2252 -0.109 -0.956 -0.271 47 148 211 0 0
0.8184 5.3017 0.2300 0.888 -0.442 -0.126 38 151 217 0 0
0.8430 4.9730 0.2228 -0.605 -0.433 0.668 37 156 222 0 0
0.8487 4.9588 0.2226 -0.739 -0.302 0.602 35 157 224 0 0
0.9401 5.0988 0.2270 0.550 -0.466 -0.693 35 158 225 0 0
0.9479 5.0940 0.2270 0.414 -0.369 -0.832 34 157 224 0 0
0.9572 5.0565 0.2263 -0.897 -0.441 0.037 40 159 225 0 0
0.9695 5.0331 0.2259 -0.410 -0.851 -0.328 41 158 225 0 0
1.0998 4.3693 0.2125 0.788 -0.529 0.314 88 155 205 0 0
1.1643 4.4569 0.2154 -0.237 -0.307 0.922 101 159 199 0 0
1.2062 4.4413 0.2156 0.373 -0.310 0.874 78 156 211 0 0
1.2311 4.4712 0.2166 0.576 -0.389 0.719 75 156 215 0 0
1.2479 4.4994 0.2175 0.599 -0.434 0.672 72 158 217 0 0
1.2621 4.5193 0.2181 0.763 -0.645 0.036 68 158 218 0 0
1.2652 4.5044 0.2178 0.156 -0.913 0.378 64 157 218 0 0
1.3006 4.5163 0.2186 -0.040 -0.130 0.991 51 155 222 0 0
1.3002 4.4914 0.2180 0.076 -0.192 0.978 49 155 223 0 0
1.3066 4.4868 0.2180 0.119 -0.239 0.964 47 155 223 0 0
1.3226 4.5115 0.2188 0.172 -0.203 0.964 45 156 225 0 0
1.3709 4.5608 0.2205 0.139 -0.181 0.974 33 158 226 0 0
1.3717 4.5400 0.2201 0.070 -0.194 0.978 32 157 226 0 0
1.3947 4.1990 0.2126 -0.097 -0.177 0.979 22 159 231 0 0
1.4710 4.1327 0.2121 -0.254 -0.139 0.957 20 158 229 0 0
1.4760 4.1270 0.2121 -0.121 -0.176 0.977 20 158 230 0 0
1.4817 4.1233 0.2121 -0.160 -0.159 0.974 20 158 230 0 0
1.4867 4.1180 0.2120 -0.160 -0.159 0.974 20 158 229 0 0
1.6435 4.1971 0.2159 -0.890 -0.152 0.429 19 157 229 0 0
1.6831 3.7978 0.2074 0.353 -0.903 -0.247 23 156 223 0 0
2.8596 5.9089 0.2713 -0.060 -0.191 -0.980 26 154 225 0 0
2.8794 5.9275 0.2720 0.109 -0.208 -0.972 26 154 225 0 0
-2.6876 4.5627 0.1580 -0.451 -0.701 -0.552 122 93 94 0 0
-2.4939 4.7357 0.1642 0.426 -0.516 -0.743 39 29 25 0 0
-2.4872 4.7388 0.1644 0.429 -0.558 -0.711 60 48 48 0 0
-2.4801 4.7583 0.1649 0.828 -0.454 -0.328 104 90 87 0 0
-2.4459 4.7559 0.1653 -0.596 -0.652 -0.468 141 127 116 0 0
-2.4202 4.7539 0.1656 -0.099 -0.410 -0.907 142 132 123 0 0
-2.4003 4.7466 0.1657 -0.721 -0.571 -0.393 136 130 131 0 0
-2.3700 4.6988 0.1651 -0.583 -0.691 -0.427 142 135 141 0 0
-2.3292 4.6628 0.1649 0.888 -0.223 0.403 135 129 130 0 0
-3.0738 6.6532 0.1968 0.965 -0.255 0.065 94 55 46 0 0
-2.8818 6.4142 0.1944 0.340 -0.591 0.732 107 89 85 0 0
-2.8884 6.5943 0.1981 -0.125 -0.866 0.485 118 100 98 0 0
-2.9114 6.6792 0.1996 -0.156 -0.773 0.614 119 103 100 0 0
-2.1683 5.5324 0.1854 0.402 -0.889 0.220 122 116 120 0 0
-2.1765 5.5830 0.1864 0.450 -0.826 0.339 127 121 125 0 0
-2.1684 5.5875 0.1866 0.450 -0.826 0.339 132 126 130 0 0
-1.7146 5.1337 0.1831 0.820 -0.457 -0.344 164 161 169 0 0
-1.6411 5.1906 0.1853 0.205 -0.979 -0.012 172 165 173 0 0
-1.6300 5.2158 0.1860 -0.185 -0.917 -0.352 163 157 167 0 0
-1.5776 5.6311 0.1954 -0.588 -0.794 -0.157 126 120 122 0 0
-1.5027 5.5621 0.1950 -0.163 -0.947 0.278 123 114 115 0 0
-1.4027 5.5463 0.1960 0.141 -0.972 0.187 144 133 131 0 0
-1.3482 5.4703 0.1951 0.094 -0.957 -0.273 148 133 136 0 0
-1.3283 5.4664 0.1953 -0.394 -0.893 -0.218 198 182 181 0 0
-1.3179 5.4618 0.1954 -0.394 -0.893 -0.218 223 208 203 0 0
-1.3128 5.4833 0.1959 0.187 -0.972 -0.145 227 212 205 0 0
-1.2131 5.5112 0.1978 0.595 -0.804 -0.008 179 189 201 0 0
-1.1577 5.5786 0.2000 0.518 -0.820 -0.246 226 216 215 0 0
-1.1435 5.6095 0.2008 0.495 -0.817 -0.297 174 161 162 0 0
-0.6215 6.0907 0.2180 -0.849 -0.512 0.131 24 33 48 0 0
-0.5046 6.0820 0.2194 -0.470 -0.855 -0.218 199 190 193 0 0
-0.3297 6.3054 0.2265 -0.159 -0.894 -0.419 89 78 82 0 0
-0.2755 6.3485 0.2281 0.382 -0.916 -0.122 215 213 214 0 0
-0.1421 6.4723 0.2325 0.002 -0.950 -0.312 153 148 154 0 0
-0.0155 6.5803 0.2365 0.364 -0.931 -0.004 185 183 196 0 0
-0.0039 6.5845 0.2367 0.333 -0.940 -0.072 191 190 198 0 0
0.0077 6.5912 0.2370 0.413 -0.903 -0.116 170 169 174 0 0
0.0193 6.5965 0.2373 0.413 -0.903 -0.116 150 145 149 0 0
0.0311 6.6047 0.2376 0.243 -0.958 -0.150 155 151 152 0 0
0.3491 6.8523 0.2471 0.410 -0.799 -0.440 82 67 74 0 0
0.4500 6.7846 0.2471 -0.937 -0.294 -0.191 134 122 132 0 0
0.5736 5.1434 0.2141 -0.676 -0.704 0.218 31 31 39 0 0
0.6091 5.2001 0.2158 0.051 -0.780 0.623 14 18 30 0 0
0.6626 5.1397 0.2153 0.862 -0.507 0.011 14 20 34 0 0
0.6651 4.9965 0.2123 0.885 -0.436 -0.164 13 25 41 0 0
0.7906 5.3001 0.2204 0.670 -0.232 -0.705 38 153 216 0 0
0.8028 5.3160 0.2209 0.598 -0.276 -0.752 38 154 215 0 0
0.8755 5.0442 0.2161 -0.223 -0.963 -0.151 36 158 225 0 0
0.8910 5.0762 0.2170 0.040 -0.648 -0.761 36 158 225 0 0
0.9416 5.1049 0.2183 0.670 -0.477 -0.569 35 158 225 0 0
1.0520 4.3349 0.2035 -0.687 -0.726 -0.020 46 159 224 0 0
1.0731 4.3294 0.2037 0.059 -0.981 -0.183 90 155 207 0 0
1.0814 4.3319 0.2039 0.239 -0.889 -0.390 96 149 190 0 0
1.0923 4.3430 0.2043 0.641 -0.767 -0.001 100 143 178 0 0
1.1749 4.3895 0.2064 -0.132 -0.184 0.974 121 154 196 0 0
1.2189 4.4318 0.2078 0.465 -0.331 0.821 110 158 201 0 0
1.2410 4.4771 0.2091 0.728 -0.523 0.443 109 160 204 0 0
1.2622 4.5190 0.2103 0.763 -0.645 0.036 105 160 206 0 0
1.2643 4.5009 0.2099 0.156 -0.913 0.378 101 159 206 0 0
1.2828 4.4377 0.2088 0.076 -0.192 0.978 82 158 213 0 0
1.3327 4.4706 0.2102 0.200 -0.221 0.955 61 159 218 0 0
1.3538 4.4868 0.2108 0.070 -0.194 0.978 57 158 217 0 0
1.4198 4.1682 0.2050 0.133 -0.264 0.955 26 158 228 0 0
1.4239 4.1598 0.2049 0.100 -0.247 0.964 26 159 228 0 0
1.4633 4.2239 0.2067 -0.032 -0.103 0.994 25 158 227 0 0
1.6997 4.2240 0.2099 -0.811 -0.529 0.249 26 157 229 0 0
1.6925 3.8164 0.2012 0.599 -0.738 -0.310 23 158 224 0 0
1.7022 3.8227 0.2015 0.658 -0.752 0.033 22 155 223 0 0
-2.6740 4.5518 0.1500 -0.401 -0.734 -0.548 121 95 96 0 0
-2.4888 4.7420 0.1562 0.266 -0.778 -0.569 50 39 36 0 0
-2.4647 4.7606 0.1569 0.775 -0.627 -0.083 133 118 110 0 0
-2.3882 4.7203 0.1571 -0.271 -0.467 -0.842 133 129 128 0 0
-2.3659 4.7075 0.1572 -0.680 -0.651 -0.338 145 138 145 0 0
-2.3259 4.6732 0.1571 0.921 -0.217 0.322 113 103 102 0 0
-3.0705 6.6992 0.1862 0.971 -0.223 -0.083 101 72 64 0 0
-2.8810 6.4121 0.1832 0.405 -0.566 0.718 108 90 86 0 0
-2.8484 6.3603 0.1827 -0.681 -0.529 -0.506 108 91 87 0 0
-2.8862 6.5887 0.1866 -0.365 -0.811 0.458 118 100 98 0 0
-2.8980 6.6460 0.1875 0.000 -0.712 0.703 119 101 99 0 0
-2.3108 5.4296 0.1719 0.981 -0.192 -0.019 133 126 126 0 0
-2.2571 5.5129 0.1742 0.428 -0.775 0.465 80 76 77 0 0
-2.2545 5.6643 0.1772 0.578 -0.652 0.490 98 91 98 0 0
-2.2206 5.6246 0.1769 -0.258 -0.958 0.127 111 104 112 0 0
-1.6441 5.2011 0.1765 -0.204 -0.959 0.198 172 165 173 0 0
-1.6662 5.7096 0.1860 -0.264 -0.726 -0.635 111 102 105 0 0
-1.4355 5.5210 0.1855 -0.372 -0.909 -0.191 133 123 122 0 0
-1.4264 5.5230 0.1856 0.038 -0.948 -0.317 139 129 128 0 0
-1.4038 5.5517 0.1865 0.369 -0.926 -0.081 144 134 132 0 0
-1.3465 5.4178 0.1847 -0.186 -0.960 -0.211 146 134 136 0 0
-1.3487 5.4729 0.1857 0.094 -0.957 -0.273 150 135 140 0 0
-1.3387 5.4706 0.1858 -0.073 -0.971 -0.225 170 154 156 0 0
-1.3290 5.4697 0.1859 -0.195 -0.950 -0.244 200 182 182 0 0
-1.3184 5.4643 0.1859 -0.394 -0.893 -0.218 221 206 200 0 0
-1.3134 5.4867 0.1864 0.531 -0.805 -0.263 227 213 204 0 0
-1.2131 5.5113 0.1883 0.595 -0.804 -0.008 178 192 205 0 0
-1.1581 5.5812 0.1904 0.518 -0.820 -0.246 223 214 213 0 0
-1.1528 5.6074 0.1909 0.495 -0.817 -0.297 214 204 203 0 0
-1.1440 5.6127 0.1912 0.495 -0.817 -0.297 171 161 162 0 0
-1.0987 5.8239 0.1959 -0.050 -0.984 -0.171 91 66 70 0 0
-0.9595 5.9219 0.1996 0.413 -0.853 -0.319 50 34 37 0 0
-0.7430 5.9179 0.2025 0.288 -0.956 0.062 198 189 190 0 0
-0.6375 6.1676 0.2087 0.262 -0.860 0.438 19 31 45 0 0
-0.6212 6.0875 0.2074 -0.849 -0.512 0.131 25 34 49 0 0
-0.5047 6.0865 0.2089 -0.557 -0.795 -0.239 199 190 193 0 0
-0.4936 6.0760 0.2089 -0.099 -0.993 0.059 187 178 181 0 0
-0.4724 6.0739 0.2091 -0.099 -0.993 0.059 141 130 134 0 0
-0.4620 6.0772 0.2093 0.318 -0.914 -0.251 165 154 158 0 0
-0.3297 6.3118 0.2156 0.004 -0.852 -0.523 86 77 80 0 0
-0.2754 6.3500 0.2171 0.382 -0.916 -0.122 214 212 213 0 0
-0.2644 6.3570 0.2174 0.593 -0.798 -0.106 214 210 211 0 0
-0.2536 6.3779 0.2180 0.566 -0.813 -0.137 223 212 216 0 0
-0.2317 6.4222 0.2191 -0.069 -0.785 -0.616 226 205 210 0 0
-0.1982 6.4296 0.2197 0.444 -0.846 -0.294 201 170 178 0 0
-0.1420 6.4759 0.2214 0.002 -0.950 -0.312 150 145 151 0 0
-0.0154 6.5765 0.2250 0.466 -0.885 -0.002 185 183 196 0 0
-0.0038 6.5835 0.2253 0.573 -0.819 0.015 190 189 197 0 0
0.0079 6.5916 0.2256 0.591 -0.807 -0.005 171 170 175 0 0
0.0198 6.6056 0.2260 0.628 -0.758 -0.177 148 143 147 0 0
0.0314 6.6087 0.2263 0.169 -0.930 -0.327 156 152 153 0 0
0.3094 6.7958 0.2336 0.541 -0.828 -0.146 86 69 75 0 0
0.3218 6.8039 0.2339 0.541 -0.828 -0.146 106 89 95 0 0
0.3495 6.8549 0.2353 0.422 -0.873 -0.244 84 69 76 0 0
0.3618 6.8601 0.2356 0.127 -0.926 -0.355 100 87 94 0 0
0.4167 6.9422 0.2379 0.617 -0.710 -0.340 117 108 109 0 0
0.4639 6.5661 0.2313 0.968 -0.244 -0.060 140 128 140 0 0
0.5655 5.1483 0.2052 -0.676 -0.704 0.218 40 40 48 0 0
0.5734 5.1408 0.2051 -0.676 -0.704 0.218 35 35 43 0 0
0.6074 5.1877 0.2065 -0.071 -0.966 0.248 13 17 29 0 0
0.6619 5.1342 0.2062 0.809 -0.470 -0.352 15 21 35 0 0
0.7088 5.2521 0.2091 -0.991 -0.136 0.010 13 25 39 0 0
0.8860 5.3602 0.2136 -0.849 -0.202 0.488 40 155 220 0 0
0.8943 5.0906 0.2085 0.133 -0.837 -0.530 36 158 223 0 0
1.0106 4.4333 0.1973 -0.873 -0.289 0.394 39 161 228 0 0
1.0143 4.4187 0.1971 -0.907 -0.290 0.306 39 161 228 0 0
1.0185 4.4054 0.1969 -0.933 -0.290 0.213 39 161 228 0 0
1.0542 4.4792 0.1988 -0.868 -0.497 0.004 41 160 228 0 0
1.0815 4.3315 0.1963 0.389 -0.911 0.139 108 135 160 0 0
1.0897 4.3335 0.1965 0.657 -0.749 -0.083 115 133 150 0 0
1.1003 4.3438 0.1968 0.665 -0.746 0.013 123 137 150 0 0
1.1119 4.3573 0.1972 0.449 -0.799 0.400 134 143 154 0 0
1.1813 4.3849 0.1987 0.465 -0.792 0.395 147 154 172 0 0
1.1885 4.3833 0.1988 0.675 -0.558 0.484 148 155 175 0 0
1.2243 4.4481 0.2005 0.826 -0.562 0.045 142 155 174 0 0
1.3776 4.4423 0.2025 0.165 -0.202 0.965 77 157 211 0 0
1.3875 4.4483 0.2027 0.203 -0.236 0.950 72 157 213 0 0
1.3993 4.4597 0.2031 0.245 -0.236 0.940 69 158 216 0 0
1.4113 4.4716 0.2035 0.240 -0.230 0.943 66 159 218 0 0
1.4226 4.4812 0.2038 0.224 -0.262 0.939 63 159 220 0 0
1.4329 4.4883 0.2041 0.201 -0.297 0.933 61 158 221 0 0
1.3728 4.1199 0.1962 -0.105 -0.181 0.978 38 158 225 0 0
1.3790 4.1174 0.1962 -0.097 -0.180 0.979 35 156 225 0 0
1.4309 4.1585 0.1977 0.106 -0.170 0.980 30 159 228 0 0
1.5106 4.2682 0.2009 0.008 -0.137 0.991 26 159 231 0 0
1.5195 4.2719 0.2011 0.039 -0.153 0.987 25 159 231 0 0
1.6728 4.3694 0.2050 -0.977 -0.154 0.147 20 158 230 0 0
1.6753 4.3573 0.2048 -0.979 -0.160 0.125 19 157 229 0 0
1.6775 4.3446 0.2046 -0.974 -0.152 0.167 19 158 230 0 0
1.7764 4.2947 0.2050 -0.338 -0.130 0.932 23 159 228 0 0
1.6786 3.9873 0.1977 -0.967 -0.150 0.204 21 158 228 0 0
1.6951 3.8213 0.1947 0.599 -0.738 -0.310 23 156 225 0 0
1.7032 3.8241 0.1949 0.620 -0.783 -0.043 23 155 224 0 0
1.7154 3.8353 0.1953 0.488 -0.782 -0.387 23 156 225 0 0
2.3202 4.6355 0.2189 0.718 -0.688 0.106 26 155 223 0 0
2.3702 4.6980 0.2208 -0.347 -0.784 -0.515 28 157 225 0 0
2.3712 4.6846 0.2205 -0.598 -0.268 -0.755 27 156 224 0 0
-2.6271 4.5527 0.1428 0.841 -0.525 0.127 123 118 88 0 0
-2.4819 4.7445 0.1481 0.187 -0.886 -0.425 66 54 52 0 0
-2.4746 4.7465 0.1482 0.273 -0.948 -0.165 88 75 71 0 0
-2.3616 4.6801 0.1486 0.284 -0.480 -0.830 135 129 130 0 0
-2.3239 4.6686 0.1489 0.947 -0.273 0.168 128 123 121 0 0
-3.0838 6.6492 0.1736 0.110 -0.926 -0.360 87 42 35 0 0
-2.9064 6.6381 0.1758 -0.100 -0.508 0.856 116 98 96 0 0
-2.2546 5.5063 0.1646 0.196 -0.955 0.222 80 76 77 0 0
-2.2357 5.6394 0.1672 0.643 -0.654 0.399 104 97 105 0 0
-2.2201 5.6232 0.1671 -0.258 -0.958 0.127 110 103 111 0 0
-2.1073 5.4948 0.1664 -0.513 -0.855 0.069 137 132 136 0 0
-1.6436 5.1994 0.1674 -0.162 -0.954 0.253 170 164 172 0 0
-1.6379 5.2115 0.1677 -0.335 -0.937 0.105 166 160 170 0 0
-1.6387 5.2808 0.1689 -0.389 -0.881 -0.268 139 136 143 0 0
-1.4360 5.5232 0.1759 -0.372 -0.909 -0.191 121 111 110 0 0
-1.4268 5.5248 0.1761 -0.045 -0.909 -0.415 136 126 125 0 0
-1.3469 5.4199 0.1753 -0.186 -0.960 -0.211 145 135 136 0 0
-1.3487 5.4730 0.1762 0.150 -0.964 -0.218 150 135 140 0 0
-1.3391 5.4728 0.1763 -0.073 -0.971 -0.225 172 156 158 0 0
-1.3295 5.4721 0.1764 -0.255 -0.943 -0.212 201 183 183 0 0
-1.3195 5.4698 0.1765 -0.025 -0.976 -0.216 223 206 201 0 0
-1.3141 5.4902 0.1770 0.569 -0.758 -0.319 226 212 203 0 0
-1.2212 5.5036 0.1785 0.573 -0.801 -0.175 175 191 204 0 0
-1.1585 5.5838 0.1807 0.518 -0.820 -0.246 224 214 213 0 0
-1.1533 5.6106 0.1813 0.495 -0.817 -0.297 212 202 202 0 0
-1.1443 5.6148 0.1814 0.488 -0.823 -0.290 165 156 157 0 0
-1.0989 5.8257 0.1858 -0.050 -0.984 -0.171 90 65 69 0 0
-0.6398 6.0539 0.1960 0.563 -0.811 -0.161 19 29 41 0 0
-0.6370 6.1623 0.1979 0.262 -0.860 0.438 18 30 44 0 0
-0.5047 6.0893 0.1984 -0.493 -0.797 -0.350 201 192 195 0 0
-0.4936 6.0787 0.1984 -0.135 -0.982 -0.129 194 185 188 0 0
-0.4724 6.0764 0.1986 -0.089 -0.979 -0.184 157 146 150 0 0
-0.3409 6.3248 0.2048 0.056 -0.944 -0.325 85 76 79 0 0
-0.2972 6.3441 0.2057 0.162 -0.975 -0.152 125 121 122 0 0
-0.2862 6.3437 0.2058 -0.178 -0.962 -0.208 187 183 184 0 0
-0.2751 6.3399 0.2059 -0.415 -0.896 -0.156 213 211 212 0 0
-0.2315 6.4203 0.2079 0.301 -0.768 -0.565 227 208 212 0 0
-0.1418 6.4791 0.2102 0.073 -0.945 -0.320 148 143 149 0 0
-0.0499 6.5601 0.2128 0.351 -0.923 -0.157 154 152 166 0 0
-0.0153 6.5767 0.2136 0.533 -0.845 -0.028 188 186 199 0 0
0.1260 6.6621 0.2170 0.118 -0.966 -0.230 164 157 164 0 0
0.2600 6.7608 0.2205 0.391 -0.915 -0.093 119 103 104 0 0
0.2719 6.7630 0.2207 0.348 -0.915 -0.204 89 73 74 0 0
0.2849 6.7803 0.2212 0.501 -0.833 -0.234 80 64 67 0 0
0.2972 6.7877 0.2215 0.501 -0.833 -0.234 86 70 73 0 0
0.3097 6.7976 0.2219 0.546 -0.827 -0.135 88 71 77 0 0
0.3222 6.8058 0.2222 0.546 -0.827 -0.135 103 86 92 0 0
0.3501 6.8606 0.2235 0.603 -0.796 -0.059 84 69 76 0 0
0.3624 6.8640 0.2237 -0.031 -0.988 -0.154 99 86 93 0 0
0.5405 5.1605 0.1961 -0.556 -0.691 0.461 42 43 47 0 0
0.5553 5.1384 0.1959 -0.308 -0.949 0.072 43 42 47 0 0
0.5633 5.1321 0.1959 0.338 -0.927 0.163 40 40 48 0 0
0.5728 5.1356 0.1961 0.338 -0.927 0.163 34 34 42 0 0
0.6075 5.1870 0.1975 -0.059 -0.998 0.038 12 16 28 0 0
0.8942 5.3537 0.2043 -0.679 -0.290 -0.674 40 155 220 0 0
0.9003 5.3375 0.2041 -0.667 -0.244 -0.704 41 156 221 0 0
0.8798 5.0627 0.1990 -0.668 -0.600 -0.440 37 156 222 0 0
0.9055 5.1006 0.2000 0.664 -0.536 -0.522 37 159 224 0 0
0.9365 5.1203 0.2007 -0.345 -0.600 -0.722 37 159 224 0 0
0.9611 5.1506 0.2016 0.791 -0.476 -0.385 38 160 225 0 0
0.9749 5.1722 0.2022 0.814 -0.399 -0.422 40 159 225 0 0
0.9558 5.0476 0.1997 -0.699 -0.253 0.669 42 161 229 0 0
1.0029 4.4329 0.1895 -0.779 -0.622 -0.081 41 163 230 0 0
1.0075 4.4210 0.1894 -0.917 -0.392 -0.073 40 162 229 0 0
1.0408 4.3472 0.1885 -0.251 -0.887 0.387 47 160 224 0 0
1.0468 4.3416 0.1885 -0.758 -0.651 -0.042 58 160 220 0 0
1.0667 4.3320 0.1886 -0.488 -0.831 0.267 100 139 175 0 0
1.0814 4.3302 0.1888 0.299 -0.886 0.355 122 131 144 0 0
1.0902 4.3347 0.1890 0.665 -0.746 0.013 130 134 140 0 0
1.1966 4.4586 0.1926 0.129 -0.397 0.909 164 155 160 0 0
1.2058 4.4630 0.1928 0.136 -0.394 0.909 163 155 159 0 0
1.2151 4.4678 0.1930 0.175 -0.396 0.901 162 156 160 0 0
1.2186 4.4540 0.1928 0.582 -0.514 0.630 161 154 160 0 0
1.2089 4.3987 0.1917 0.715 -0.634 -0.294 160 154 160 0 0
1.2149 4.3933 0.1917 0.451 -0.892 0.033 159 155 161 0 0
1.2352 4.4089 0.1922 -0.695 -0.370 0.617 155 154 164 0 0
1.2392 4.3972 0.1921 -0.785 -0.230 0.575 152 155 166 0 0
1.2529 4.4158 0.1926 -0.552 -0.188 0.812 150 155 168 0 0
1.2984 4.3679 0.1923 0.181 -0.241 0.953 135 159 183 0 0
1.3097 4.3789 0.1927 0.145 -0.220 0.965 132 159 186 0 0
1.3697 4.3971 0.1938 0.203 -0.236 0.950 107 160 201 0 0
1.3840 4.4157 0.1943 0.274 -0.308 0.911 104 161 204 0 0
1.3958 4.4273 0.1947 0.274 -0.308 0.911 100 162 206 0 0
1.4097 4.4445 0.1952 0.251 -0.306 0.919 98 163 209 0 0
1.4203 4.4523 0.1955 0.194 -0.306 0.932 96 162 211 0 0
1.3771 4.0742 0.1882 0.000 -0.221 0.975 56 159 221 0 0
1.5528 4.2248 0.1932 -0.038 -0.096 0.995 28 158 226 0 0
1.5593 4.2227 0.1933 -0.038 -0.096 0.995 28 159 228 0 0
1.5659 4.2207 0.1933 -0.038 -0.096 0.995 28 160 229 0 0
1.6822 4.2000 0.1945 -0.813 -0.096 0.574 26 159 228 0 0
1.6970 4.2167 0.1950 -0.796 -0.571 0.200 27 158 228 0 0
1.7002 4.2074 0.1949 -0.739 -0.649 0.180 27 158 227 0 0
1.8620 4.2689 0.1982 -0.568 -0.088 0.818 23 157 226 0 0
1.7106 3.8388 0.1886 0.443 -0.806 -0.393 25 156 227 0 0
1.9328 4.2312 0.1985 -0.760 -0.434 0.483 24 155 227 0 0
1.9287 4.2080 0.1980 -0.096 -0.554 0.827 26 157 227 0 0
1.9377 4.2114 0.1982 0.386 -0.652 0.653 24 155 227 0 0
1.9504 4.2221 0.1985 -0.247 -0.733 -0.634 23 156 226 0 0
2.1873 4.6606 0.2095 -0.735 -0.305 -0.606 23 158 224 0 0
2.3736 4.7036 0.2127 -0.398 -0.685 -0.610 28 157 225 0 0
-2.6756 4.5692 0.1345 -0.367 -0.760 -0.537 122 93 93 0 0
-2.6590 4.5531 0.1344 -0.082 -0.845 -0.528 110 93 87 0 0
-2.4841 4.7489 0.1399 -0.145 -0.893 -0.425 56 45 40 0 0
-2.4761 4.7494 0.1400 -0.339 -0.886 -0.316 76 63 57 0 0
-2.3348 4.6746 0.1407 0.059 -0.879 -0.474 150 144 148 0 0
-2.3208 4.6796 0.1410 0.977 -0.190 0.095 106 100 95 0 0
-3.0887 6.6604 0.1622 0.033 -0.870 -0.492 87 42 35 0 0
-2.8488 6.4145 0.1615 0.435 -0.164 0.885 108 91 88 0 0
-2.8249 6.4104 0.1617 -0.020 -0.607 0.794 113 95 93 0 0
-2.9074 6.6688 0.1647 0.315 -0.419 0.852 117 99 98 0 0
-2.8937 6.6634 0.1648 -0.007 -0.348 0.937 120 102 102 0 0
-2.2539 5.5042 0.1550 0.196 -0.955 0.222 80 76 77 0 0
-2.2498 5.6512 0.1574 0.483 -0.817 0.316 99 92 99 0 0
-2.2207 5.6247 0.1574 -0.525 -0.851 0.026 109 104 111 0 0
-2.1071 5.4941 0.1568 -0.567 -0.821 0.060 138 133 137 0 0
-2.0952 5.4873 0.1569 -0.531 -0.843 0.089 140 135 139 0 0
-1.7889 5.1724 0.1560 -0.782 -0.623 0.002 147 140 147 0 0
-1.7137 5.1611 0.1568 0.713 -0.500 -0.492 158 153 160 0 0
-1.6855 5.1878 0.1576 -0.031 -0.986 -0.163 155 145 153 0 0
-1.6441 5.2012 0.1584 -0.469 -0.883 -0.008 170 162 173 0 0
-1.6704 5.7261 0.1664 -0.553 -0.779 -0.294 112 103 106 0 0
-1.3573 5.4243 0.1658 -0.238 -0.952 -0.193 143 135 133 0 0
-1.3474 5.4221 0.1659 -0.186 -0.960 -0.211 144 135 136 0 0
-1.3491 5.4752 0.1667 0.074 -0.979 -0.187 149 137 139 0 0
-1.3396 5.4754 0.1669 -0.122 -0.977 -0.174 172 156 157 0 0
-1.3298 5.4739 0.1670 -0.274 -0.945 -0.179 201 183 183 0 0
-1.3199 5.4719 0.1671 -0.025 -0.976 -0.216 223 205 201 0 0
-1.2300 5.4998 0.1687 0.581 -0.803 -0.133 196 204 216 0 0
-1.2216 5.5061 0.1689 0.481 -0.851 -0.211 184 196 212 0 0
-1.1589 5.5865 0.1711 0.518 -0.820 -0.246 226 212 212 0 0
-1.1537 5.6128 0.1715 0.488 -0.823 -0.290 212 200 200 0 0
-1.1448 5.6179 0.1717 0.488 -0.823 -0.290 159 153 153 0 0
-1.0991 5.8274 0.1757 -0.050 -0.984 -0.171 90 65 69 0 0
-1.0891 5.8281 0.1758 -0.234 -0.945 -0.227 114 92 95 0 0
-0.9527 5.9501 0.1796 0.087 -0.904 -0.418 69 50 52 0 0
-0.7030 5.9331 0.1827 0.347 -0.891 -0.293 178 172 176 0 0
-0.6398 6.0560 0.1855 0.563 -0.811 -0.161 18 28 40 0 0
-0.5048 6.0935 0.1879 -0.519 -0.810 -0.275 201 190 194 0 0
-0.4826 6.0710 0.1879 -0.114 -0.945 0.306 195 184 188 0 0
-0.3639 6.3671 0.1942 -0.720 -0.680 -0.137 80 71 74 0 0
-0.3408 6.3285 0.1939 0.056 -0.944 -0.325 82 76 78 0 0
-0.2971 6.3459 0.1947 0.162 -0.975 -0.152 127 123 124 0 0
-0.2861 6.3461 0.1949 -0.178 -0.962 -0.208 187 183 184 0 0
-0.2750 6.3445 0.1950 -0.187 -0.962 -0.201 213 209 210 0 0
-0.2534 6.3935 0.1961 -0.344 -0.883 -0.318 221 209 213 0 0
-0.2091 6.4392 0.1974 0.087 -0.902 -0.422 204 174 182 0 0
-0.0497 6.5623 0.2015 0.354 -0.929 -0.110 139 137 150 0 0
0.2719 6.7605 0.2090 0.032 -0.996 0.086 113 99 99 0 0
0.2976 6.7908 0.2098 0.196 -0.979 0.059 100 85 88 0 0
0.3634 6.8742 0.2120 0.017 -0.927 -0.375 98 85 92 0 0
0.4741 6.9066 0.2140 -0.809 -0.531 0.251 136 126 135 0 0
0.5551 5.1360 0.1869 0.303 -0.948 -0.101 43 42 47 0 0
0.5618 5.1204 0.1868 0.495 -0.861 -0.115 39 39 47 0 0
0.5720 5.1289 0.1871 0.501 -0.833 -0.236 33 33 41 0 0
0.5818 5.1348 0.1873 0.793 -0.589 -0.152 19 21 33 0 0
0.6076 5.1867 0.1885 -0.059 -0.998 0.038 12 16 28 0 0
0.8677 5.1322 0.1911 -0.844 -0.237 -0.481 46 159 225 0 0
0.9083 5.1126 0.1913 0.627 -0.628 -0.462 40 159 225 0 0
0.9265 5.1141 0.1916 -0.221 -0.706 -0.673 39 161 226 0 0
0.9526 5.0325 0.1907 -0.699 -0.253 0.669 39 161 228 0 0
1.0089 4.4256 0.1818 -0.923 -0.343 -0.174 40 163 231 0 0
1.0326 4.3174 0.1804 0.277 -0.664 -0.695 50 159 224 0 0
1.0458 4.3374 0.1809 -0.773 -0.633 0.029 67 162 222 0 0
1.2382 4.4174 0.1847 -0.216 -0.227 0.950 161 156 155 0 0
1.2585 4.4086 0.1848 -0.260 -0.315 0.913 161 156 161 0 0
1.2635 4.4006 0.1848 -0.208 -0.352 0.913 160 157 162 0 0
1.2865 4.4003 0.1851 0.527 -0.736 0.424 159 157 164 0 0
1.2916 4.3924 0.1850 0.730 -0.683 -0.033 158 156 164 0 0
1.3165 4.3313 0.1844 -0.069 -0.139 0.988 150 158 171 0 0
1.3578 4.3627 0.1855 0.281 -0.349 0.894 140 159 180 0 0
1.3697 4.3746 0.1858 0.356 -0.381 0.853 138 160 182 0 0
1.3835 4.3921 0.1863 0.524 -0.480 0.703 136 160 185 0 0
1.3968 4.4077 0.1867 0.456 -0.432 0.778 134 161 187 0 0
1.3586 4.0066 0.1798 -0.527 -0.215 0.822 91 160 213 0 0
1.5026 4.1550 0.1841 0.082 -0.158 0.984 48 157 224 0 0
1.5093 4.1534 0.1842 0.067 -0.150 0.986 43 156 222 0 0
1.7002 4.4147 0.1909 0.032 -0.099 0.995 27 161 228 0 0
1.7513 4.2548 0.1890 -0.315 -0.115 0.942 26 159 232 0 0
1.7533 4.2428 0.1889 -0.313 -0.108 0.944 26 160 232 0 0
1.7558 4.2320 0.1887 -0.334 -0.114 0.936 25 158 231 0 0
1.9305 4.2258 0.1910 -0.647 -0.437 0.624 25 156 230 0 0
1.9320 4.2142 0.1908 -0.751 -0.392 0.531 26 157 229 0 0
2.0971 4.4664 0.1970 0.233 -0.336 -0.912 24 157 224 0 0
1.8332 3.8413 0.1836 -0.057 -0.316 -0.947 24 157 225 0 0
1.9826 4.0460 0.1888 -0.687 -0.235 0.688 26 155 224 0 0
-2.7169 4.6157 0.1267 -0.493 -0.620 -0.610 71 38 42 0 0
-2.5727 4.7118 0.1300 0.975 -0.154 0.162 113 94 79 0 0
-2.5736 4.7298 0.1302 0.953 -0.121 0.278 134 115 100 0 0
-2.4866 4.7541 0.1317 -0.107 -0.948 -0.300 51 40 31 0 0
-2.4349 4.7849 0.1328 -0.542 -0.706 -0.456 143 130 121 0 0
-2.3365 4.6782 0.1327 -0.005 -0.834 -0.552 147 140 145 0 0
-2.3290 4.6796 0.1328 0.218 -0.849 -0.482 142 141 142 0 0
-2.3206 4.6790 0.1329 0.934 -0.347 -0.085 121 117 114 0 0
-2.3186 4.6926 0.1331 0.972 -0.216 0.090 83 65 60 0 0
-3.1363 6.8802 0.1531 -0.216 -0.631 -0.745 101 77 70 0 0
-3.1214 6.8734 0.1532 -0.229 -0.678 -0.698 101 80 73 0 0
-3.0021 6.6463 0.1516 0.954 -0.292 -0.062 103 84 78 0 0
-2.8599 6.5795 0.1526 0.074 -0.421 0.904 119 101 101 0 0
-2.8571 6.6011 0.1529 -0.285 -0.518 0.806 120 103 103 0 0
-2.8385 6.5832 0.1529 -0.532 -0.555 0.640 121 105 105 0 0
-2.2600 5.4948 0.1453 0.788 -0.577 0.216 108 104 104 0 0
-2.1070 5.4938 0.1473 -0.535 -0.840 0.088 139 134 138 0 0
-1.7162 5.1697 0.1480 0.485 -0.554 -0.677 157 152 159 0 0
-1.7230 5.8130 0.1570 -0.856 -0.516 0.029 104 93 97 0 0
-1.6828 5.7355 0.1564 -0.306 -0.902 -0.304 121 112 115 0 0
-1.5749 5.6203 0.1562 -0.679 -0.724 -0.121 126 122 121 0 0
-1.3571 5.4235 0.1564 -0.350 -0.909 -0.224 142 134 132 0 0
-1.3474 5.4225 0.1565 -0.142 -0.954 -0.266 144 135 136 0 0
-1.3495 5.4770 0.1572 0.074 -0.979 -0.187 148 136 138 0 0
-1.3400 5.4771 0.1574 -0.122 -0.977 -0.174 171 155 155 0 0
-1.3302 5.4758 0.1575 -0.274 -0.945 -0.179 200 182 182 0 0
-1.3203 5.4740 0.1576 -0.025 -0.976 -0.216 223 205 200 0 0
-1.3158 5.4986 0.1580 0.522 -0.808 -0.273 225 210 203 0 0
-1.1993 5.4891 0.1594 0.724 -0.654 -0.219 168 181 200 0 0
-1.1595 5.5906 0.1614 0.435 -0.852 -0.290 226 210 210 0 0
-1.1541 5.6159 0.1618 0.488 -0.823 -0.290 213 199 198 0 0
-1.1453 5.6211 0.1620 0.488 -0.823 -0.290 154 149 149 0 0
-1.1078 5.8183 0.1653 0.385 -0.877 -0.286 85 63 66 0 0
-1.0227 5.8606 0.1671 0.512 -0.854 0.092 75 59 62 0 0
-0.9532 5.9552 0.1693 -0.149 -0.892 -0.428 68 49 51 0 0
-0.7031 5.9357 0.1724 0.288 -0.906 -0.310 178 172 176 0 0
-0.6537 6.1016 0.1754 0.945 -0.184 0.269 16 26 38 0 0
-0.6390 6.0461 0.1749 0.670 -0.670 -0.321 18 28 40 0 0
-0.5044 6.0877 0.1773 -0.469 -0.882 -0.052 202 191 195 0 0
-0.3408 6.3306 0.1829 0.179 -0.962 -0.204 82 76 78 0 0
-0.2750 6.3497 0.1841 0.087 -0.956 -0.282 213 209 210 0 0
-0.2533 6.3968 0.1850 -0.040 -0.927 -0.373 225 210 215 0 0
-0.2202 6.4400 0.1861 0.225 -0.786 -0.576 220 203 209 0 0
-0.2090 6.4430 0.1863 0.225 -0.786 -0.576 208 183 189 0 0
0.0324 6.6231 0.1921 0.475 -0.858 -0.194 154 148 148 0 0
0.0916 6.6607 0.1934 0.243 -0.966 -0.090 168 159 164 0 0
0.2606 6.7638 0.1971 0.161 -0.982 -0.103 118 104 104 0 0
0.2721 6.7595 0.1972 0.032 -0.996 0.086 103 89 89 0 0
0.3640 6.8790 0.2001 0.017 -0.927 -0.375 98 85 92 0 0
0.4720 6.5268 0.1966 0.420 -0.775 0.473 141 131 140 0 0
0.3951 4.3980 0.1654 0.843 -0.520 0.139 53 51 54 0 0
0.5554 5.1364 0.1780 0.278 -0.915 -0.292 42 41 47 0 0
0.5727 5.1328 0.1782 0.693 -0.648 -0.316 31 31 39 0 0
0.5834 5.1441 0.1785 0.693 -0.648 -0.316 18 20 32 0 0
0.5940 5.1554 0.1788 0.693 -0.648 -0.316 12 16 27 0 0
0.6076 5.1853 0.1794 -0.072 -0.993 -0.099 11 17 29 0 0
0.7689 5.1777 0.1815 0.854 -0.342 0.393 39 155 214 0 0
0.8811 5.1093 0.1820 -0.824 -0.292 -0.486 41 156 221 0 0
0.9220 5.1338 0.1829 -0.102 -0.743 -0.662 39 161 226 0 0
0.9285 5.1227 0.1828 -0.281 -0.675 -0.682 39 161 226 0 0
0.9499 5.0193 0.1817 -0.824 -0.121 0.553 38 160 227 0 0
1.0129 4.9898 0.1821 -0.024 -0.190 0.981 37 162 228 0 0
1.0173 4.3990 0.1738 -0.770 -0.475 -0.426 44 166 233 0 0
1.0201 4.2991 0.1724 0.401 -0.464 -0.790 48 162 228 0 0
1.0357 4.3276 0.1730 -0.152 -0.654 -0.741 58 162 226 0 0
1.0526 4.3341 0.1733 -0.734 -0.611 0.297 89 143 187 0 0
1.0592 4.3305 0.1734 -0.577 -0.668 0.470 104 133 163 0 0
1.0654 4.3258 0.1734 -0.535 -0.668 0.518 123 129 145 0 0
1.0724 4.3240 0.1735 -0.350 -0.634 0.690 137 131 136 0 0
1.2178 4.4254 0.1769 -0.628 -0.153 0.763 165 156 151 0 0
1.2338 4.4030 0.1768 0.124 -0.547 0.828 165 155 150 0 0
1.2373 4.3901 0.1766 -0.370 -0.714 -0.594 166 157 152 0 0
1.2437 4.3863 0.1766 -0.262 -0.646 -0.717 167 157 154 0 0
1.2516 4.3869 0.1768 -0.140 -0.709 -0.691 168 157 155 0 0
1.2586 4.3850 0.1768 0.057 -0.744 -0.666 167 157 155 0 0
1.2841 4.2582 0.1754 -0.220 -0.239 0.946 163 156 156 0 0
1.3639 4.3576 0.1779 0.496 -0.498 0.712 155 157 165 0 0
1.3771 4.3734 0.1783 0.524 -0.480 0.703 155 156 167 0 0
1.3832 4.3691 0.1783 0.370 -0.395 0.841 154 157 167 0 0
1.6020 4.2529 0.1796 0.023 -0.064 0.998 57 157 222 0 0
1.6074 4.2482 0.1796 -0.108 -0.134 0.985 53 157 222 0 0
1.6124 4.2423 0.1796 -0.069 -0.146 0.987 50 156 221 0 0
1.6452 4.3023 0.1809 0.052 -0.109 0.993 48 157 222 0 0
1.7598 4.2240 0.1813 -0.050 -0.158 0.986 29 159 229 0 0
1.9081 4.1952 0.1829 -0.576 -0.368 0.730 26 158 232 0 0
1.9258 4.2159 0.1834 -0.531 -0.350 0.772 25 158 231 0 0
1.9748 4.0441 0.1816 -0.552 -0.216 0.805 27 156 224 0 0
-2.7252 4.6309 0.1187 -0.450 -0.643 -0.620 55 29 33 0 0
-2.7108 4.6192 0.1188 -0.506 -0.631 -0.587 78 45 48 0 0
-2.6595 4.5683 0.1188 -0.188 -0.887 -0.422 112 91 89 0 0
-2.6252 4.5635 0.1192 0.591 -0.730 -0.344 126 116 91 0 0
-2.6182 4.5652 0.1193 0.726 -0.684 -0.064 127 120 85 0 0
-2.4315 4.7775 0.1245 -0.536 -0.694 -0.481 143 130 121 0 0
-2.3311 4.6840 0.1247 0.021 -0.871 -0.491 144 141 145 0 0
-2.3207 4.6790 0.1247 0.915 -0.402 -0.030 134 130 130 0 0
-2.3172 4.6893 0.1249 0.933 -0.359 0.017 99 86 82 0 0
-3.1360 6.8795 0.1412 -0.373 -0.730 -0.573 100 75 69 0 0
-3.1237 6.8786 0.1413 -0.652 -0.646 -0.398 100 79 73 0 0
-3.0024 6.6469 0.1401 0.975 -0.209 0.073 103 84 78 0 0
-2.8447 6.5416 0.1409 -0.528 -0.526 0.667 117 99 99 0 0
-2.5826 6.0216 0.1379 0.572 -0.800 0.182 126 113 114 0 0
-2.2594 5.6774 0.1380 0.172 -0.829 0.532 97 90 97 0 0
-2.2486 5.6748 0.1381 0.059 -0.878 0.475 102 96 103 0 0
-2.1544 5.5197 0.1374 0.175 -0.977 0.120 126 121 127 0 0
-2.1393 5.5589 0.1381 -0.113 -0.948 0.296 137 132 138 0 0
-2.1057 5.4899 0.1377 -0.262 -0.955 0.139 139 134 139 0 0
-1.7609 5.0810 0.1373 0.302 -0.344 -0.889 146 141 145 0 0
-1.6831 5.7366 0.1465 -0.666 -0.693 0.276 109 100 103 0 0
-1.6573 5.7138 0.1465 -0.691 -0.710 0.136 124 118 120 0 0
-1.5755 5.6230 0.1465 -0.606 -0.766 -0.216 108 104 103 0 0
-1.4174 5.5261 0.1474 -0.227 -0.970 -0.086 144 134 135 0 0
-1.3575 5.4254 0.1470 -0.235 -0.919 -0.315 140 135 132 0 0
-1.3489 5.4294 0.1471 -0.254 -0.890 -0.379 142 137 134 0 0
-1.3499 5.4792 0.1478 0.220 -0.943 -0.249 148 136 136 0 0
-1.3405 5.4798 0.1479 -0.321 -0.916 -0.240 171 155 154 0 0
-1.3302 5.4761 0.1480 -0.503 -0.841 -0.198 201 181 180 0 0
-1.3207 5.4761 0.1481 -0.025 -0.976 -0.216 222 204 199 0 0
-1.2070 5.4791 0.1497 0.343 -0.939 -0.016 151 173 186 0 0
-1.1600 5.5936 0.1517 0.435 -0.852 -0.290 227 209 209 0 0
-1.1511 5.5981 0.1519 0.435 -0.852 -0.290 211 198 197 0 0
-1.1457 5.6242 0.1523 0.488 -0.823 -0.290 150 144 144 0 0
-1.1082 5.8214 0.1553 0.385 -0.877 -0.286 79 57 60 0 0
-0.8604 5.8676 0.1592 0.447 -0.875 -0.187 190 180 179 0 0
-0.7740 5.9229 0.1610 -0.109 -0.931 -0.349 178 172 174 0 0
-0.7635 5.9206 0.1611 -0.199 -0.925 -0.324 163 154 155 0 0
-0.6560 6.1342 0.1652 0.847 -0.488 -0.211 16 26 38 0 0
-0.6395 6.2015 0.1663 0.133 -0.822 -0.553 18 27 42 0 0
-0.5040 6.0812 0.1666 -0.452 -0.848 0.275 204 192 196 0 0
-0.3407 6.3328 0.1719 0.200 -0.945 -0.259 82 76 78 0 0
-0.2749 6.3539 0.1731 0.152 -0.954 -0.258 214 210 211 0 0
-0.2532 6.3950 0.1739 0.056 -0.970 -0.238 225 210 215 0 0
0.0443 6.6284 0.1808 0.321 -0.942 -0.100 162 153 154 0 0
0.2607 6.7625 0.1854 -0.232 -0.949 0.215 112 100 102 0 0
0.2723 6.7597 0.1855 -0.232 -0.949 0.215 91 79 81 0 0
0.3646 6.8838 0.1883 0.017 -0.927 -0.375 98 85 92 0 0
0.4792 6.8317 0.1892 -0.892 -0.354 -0.281 137 127 136 0 0
0.5562 5.1406 0.1692 0.243 -0.889 -0.389 42 41 47 0 0
0.5741 5.1410 0.1694 0.445 -0.793 -0.416 31 31 39 0 0
0.5844 5.1494 0.1696 0.641 -0.693 -0.330 18 20 32 0 0
0.5948 5.1589 0.1699 0.641 -0.693 -0.330 12 16 27 0 0
0.6078 5.1856 0.1704 -0.132 -0.977 -0.165 12 18 30 0 0
0.8758 5.4967 0.1779 -0.920 -0.239 -0.311 39 159 222 0 0
0.9237 5.1408 0.1741 -0.105 -0.600 -0.793 40 162 227 0 0
0.9335 5.1038 0.1738 -0.852 -0.158 0.499 42 161 227 0 0
0.9962 4.9555 0.1728 -0.733 -0.126 0.668 37 162 228 0 0
1.0009 4.9390 0.1726 0.027 -0.229 0.973 37 162 228 0 0
1.0510 4.4931 0.1677 -0.907 -0.269 -0.324 45 164 231 0 0
1.0565 4.4845 0.1677 -0.908 -0.354 -0.223 44 163 229 0 0
1.0250 4.3157 0.1652 0.416 -0.511 -0.752 52 163 228 0 0
1.0379 4.3348 0.1656 -0.193 -0.659 -0.727 69 165 226 0 0
1.0469 4.3398 0.1658 -0.920 -0.384 0.084 81 152 204 0 0
1.0518 4.3305 0.1657 -0.796 -0.562 0.227 97 136 172 0 0
1.0579 4.3254 0.1658 -0.687 -0.629 0.364 118 130 150 0 0
1.0645 4.3219 0.1658 -0.559 -0.651 0.513 134 128 136 0 0
1.1056 4.3588 0.1668 0.561 -0.816 -0.135 168 157 154 0 0
1.2188 4.3795 0.1686 -0.471 -0.876 0.105 161 148 145 0 0
1.2240 4.3719 0.1686 0.499 -0.851 -0.164 162 148 145 0 0
1.2408 4.3764 0.1688 0.060 -0.650 -0.758 164 152 148 0 0
1.2496 4.3802 0.1690 -0.014 -0.697 -0.716 166 153 149 0 0
1.2758 4.2334 0.1675 0.053 -0.488 0.871 168 158 156 0 0
1.2900 4.2533 0.1680 -0.157 -0.586 0.795 168 158 156 0 0
1.3079 4.2835 0.1686 0.249 -0.838 0.485 168 159 157 0 0
1.3180 4.2910 0.1688 0.502 -0.627 0.596 167 159 157 0 0
1.3292 4.3015 0.1691 0.531 -0.564 0.632 167 158 156 0 0
1.3707 4.3548 0.1703 0.524 -0.480 0.703 163 157 156 0 0
1.3835 4.3693 0.1707 0.524 -0.480 0.703 162 156 156 0 0
1.7440 4.1890 0.1733 -0.069 -0.205 0.976 38 158 224 0 0
1.8251 4.2522 0.1752 -0.607 -0.474 0.637 28 157 225 0 0
1.9005 4.1793 0.1753 -0.331 -0.270 0.904 26 160 230 0 0
1.9359 4.2356 0.1764 -0.610 -0.543 -0.578 24 160 230 0 0
1.9812 4.0159 0.1743 -0.447 -0.574 0.686 27 156 224 0 0
1.9597 3.9500 0.1732 -0.026 -0.358 0.933 26 156 224 0 0
1.9747 3.9143 0.1730 -0.896 -0.243 0.373 25 156 224 0 0
-2.7153 4.6124 0.1106 -0.070 -0.796 -0.601 44 24 25 0 0
-2.7188 4.6336 0.1108 -0.484 -0.645 -0.591 61 34 36 0 0
-2.6631 4.5749 0.1109 -0.197 -0.858 -0.474 117 89 91 0 0
-2.6217 4.5716 0.1114 0.575 -0.775 -0.262 128 122 89 0 0
-2.6152 4.5743 0.1115 0.892 -0.451 0.041 117 113 74 0 0
-2.3327 4.6875 0.1165 0.033 -0.910 -0.412 144 138 144 0 0
-2.3152 4.7029 0.1169 0.943 -0.208 0.260 76 57 51 0 0
-3.2077 6.9347 0.1289 0.863 -0.289 -0.414 86 41 34 0 0
-3.1896 6.9204 0.1290 -0.234 -0.755 -0.613 89 48 41 0 0
-3.1755 6.9155 0.1291 -0.330 -0.768 -0.549 94 58 52 0 0
-3.1635 6.9156 0.1293 -0.145 -0.793 -0.592 98 68 60 0 0
-3.1429 6.8953 0.1293 -0.463 -0.753 -0.468 99 75 68 0 0
-3.1334 6.9012 0.1295 -0.573 -0.681 -0.455 100 80 73 0 0
-2.9936 6.6258 0.1284 0.975 -0.160 0.157 104 85 79 0 0
-2.9289 6.4988 0.1280 0.975 -0.138 0.175 103 84 80 0 0
-2.8216 6.3480 0.1278 0.562 -0.670 0.485 106 92 88 0 0
-2.8292 6.4752 0.1290 -0.303 -0.411 0.860 114 97 96 0 0
-2.5604 5.9916 0.1275 0.843 -0.536 0.051 126 116 117 0 0
-2.5176 5.9089 0.1272 0.076 -0.941 -0.329 127 117 119 0 0
-2.4552 5.7750 0.1266 0.856 -0.493 0.156 128 119 120 0 0
-2.2471 5.6704 0.1282 -0.003 -0.853 0.523 101 95 102 0 0
-2.1540 5.5186 0.1279 0.175 -0.977 0.120 125 120 126 0 0
-2.1371 5.5525 0.1284 -0.279 -0.949 0.144 137 132 138 0 0
-2.1052 5.4884 0.1282 -0.262 -0.955 0.139 138 133 139 0 0
-2.1818 5.7671 0.1301 0.911 -0.396 -0.117 143 138 142 0 0
-1.8277 5.2394 0.1292 -0.243 -0.715 -0.656 144 139 145 0 0
-1.6817 5.7313 0.1365 -0.666 -0.693 0.276 106 97 100 0 0
-1.6695 5.7226 0.1366 -0.651 -0.749 0.125 108 100 102 0 0
-1.5764 5.6264 0.1368 -0.606 -0.766 -0.216 104 100 99 0 0
-1.4042 5.5542 0.1383 0.053 -0.964 -0.260 147 133 133 0 0
-1.3487 5.4286 0.1377 -0.156 -0.959 -0.236 143 138 135 0 0
-1.3501 5.4806 0.1382 0.103 -0.981 -0.163 149 137 137 0 0
-1.3406 5.4806 0.1384 -0.047 -0.983 -0.175 172 156 155 0 0
-1.3309 5.4795 0.1385 -0.187 -0.971 -0.151 202 182 181 0 0
-1.3208 5.4767 0.1386 -0.203 -0.964 -0.171 223 205 200 0 0
-1.2726 5.4736 0.1392 0.054 -0.889 -0.454 221 207 210 0 0
-1.2158 5.4752 0.1400 0.422 -0.906 -0.024 167 186 196 0 0
-1.2070 5.4792 0.1402 0.343 -0.939 -0.016 165 188 200 0 0
-1.1605 5.5967 0.1420 0.435 -0.852 -0.290 226 208 208 0 0
-1.1515 5.6012 0.1422 0.435 -0.852 -0.290 211 196 196 0 0
-1.1462 5.6274 0.1426 0.488 -0.823 -0.290 151 143 141 0 0
-1.1366 5.6878 0.1433 -0.362 -0.890 -0.279 39 27 31 0 0
-1.0509 5.8451 0.1462 0.233 -0.872 -0.429 148 132 135 0 0
-0.8606 5.8697 0.1490 0.447 -0.875 -0.187 190 180 179 0 0
-0.6733 5.9529 0.1524 0.670 -0.718 -0.189 17 22 28 0 0
-0.6394 6.0550 0.1540 0.672 -0.679 0.296 18 28 40 0 0
-0.6396 6.2040 0.1555 -0.183 -0.960 -0.210 19 28 43 0 0
-0.4928 6.0704 0.1561 0.107 -0.993 -0.053 203 191 195 0 0
-0.4892 6.2164 0.1577 0.623 -0.187 -0.760 204 192 196 0 0
-0.3406 6.3358 0.1610 0.200 -0.945 -0.259 80 74 76 0 0
-0.3296 6.3354 0.1611 -0.193 -0.864 -0.466 82 76 78 0 0
-0.2638 6.3651 0.1623 0.413 -0.888 -0.200 217 211 213 0 0
-0.2531 6.3985 0.1628 0.049 -0.962 -0.267 222 210 214 0 0
-0.0490 6.5726 0.1674 0.343 -0.891 -0.298 190 188 199 0 0
0.0212 6.6222 0.1689 0.636 -0.747 -0.194 151 147 148 0 0
0.0687 6.6602 0.1699 0.097 -0.985 0.140 173 164 165 0 0
0.2726 6.7609 0.1738 0.071 -0.995 0.074 95 83 85 0 0
0.2835 6.7493 0.1738 -0.062 -0.966 -0.252 90 75 80 0 0
0.3758 6.8728 0.1764 -0.440 -0.863 -0.248 106 93 100 0 0
0.4020 6.8987 0.1770 -0.100 -0.919 -0.380 116 104 108 0 0
0.4196 6.8273 0.1765 0.111 -0.880 -0.462 124 115 120 0 0
0.4701 6.8580 0.1775 0.501 -0.765 -0.405 135 125 134 0 0
0.4926 6.7265 0.1764 -0.845 -0.363 0.394 139 132 139 0 0
0.5574 5.1477 0.1603 -0.111 -0.805 -0.583 43 42 48 0 0
0.5661 5.1460 0.1604 -0.081 -0.823 -0.562 38 38 46 0 0
0.5754 5.1486 0.1606 -0.143 -0.845 -0.515 28 31 40 0 0
0.5853 5.1542 0.1607 0.622 -0.669 -0.407 18 20 32 0 0
0.5957 5.1637 0.1610 0.622 -0.669 -0.407 13 17 28 0 0
0.6035 5.1559 0.1610 -0.005 -0.939 -0.343 12 18 30 0 0
0.7530 5.1379 0.1628 0.765 -0.328 -0.554 40 155 218 0 0
0.8235 5.2724 0.1652 0.787 -0.452 -0.420 38 160 227 0 0
0.9048 5.1779 0.1653 -0.277 -0.243 -0.930 42 161 227 0 0
0.9120 5.1691 0.1653 -0.311 -0.273 -0.910 41 163 228 0 0
0.9187 5.1583 0.1653 -0.130 -0.458 -0.880 41 163 228 0 0
0.9307 5.0896 0.1647 -0.824 -0.133 0.551 44 163 229 0 0
0.9373 5.0395 0.1642 -0.880 -0.219 0.422 45 160 227 0 0
0.9427 5.0245 0.1642 -0.587 -0.583 -0.561 41 158 225 0 0
0.9485 5.0111 0.1641 -0.587 -0.468 -0.660 42 161 229 0 0
0.9563 5.0074 0.1642 -0.817 -0.361 -0.449 40 162 229 0 0
0.9591 4.9813 0.1639 -0.834 -0.280 -0.475 41 163 230 0 0
0.9503 4.3175 0.1567 -0.864 -0.202 -0.461 41 164 232 0 0
0.9540 4.3029 0.1566 -0.833 -0.228 -0.505 40 163 231 0 0
1.0526 4.4982 0.1600 -0.879 -0.262 -0.398 44 163 230 0 0
1.0265 4.3206 0.1577 0.564 -0.572 -0.595 55 165 228 0 0
1.0518 4.3299 0.1582 -0.869 -0.486 0.097 105 131 159 0 0
1.1792 4.4244 0.1609 -0.673 -0.090 0.734 169 158 154 0 0
1.1911 4.4376 0.1612 -0.803 -0.102 0.588 169 157 156 0 0
1.1955 4.4270 0.1612 -0.677 -0.139 0.722 170 157 157 0 0
1.2124 4.3826 0.1609 -0.687 -0.569 0.452 153 139 138 0 0
1.2189 4.3791 0.1610 -0.497 -0.867 0.022 155 141 138 0 0
1.2247 4.3733 0.1610 0.421 -0.902 -0.102 156 141 138 0 0
1.2344 4.3796 0.1612 0.160 -0.664 -0.731 157 143 138 0 0
1.2438 4.3852 0.1614 0.046 -0.646 -0.762 158 145 139 0 0
1.2525 4.3883 0.1615 -0.053 -0.725 -0.687 159 146 142 0 0
1.2666 4.3847 0.1617 -0.653 -0.458 -0.603 164 152 149 0 0
1.3251 4.2890 0.1614 0.550 -0.532 0.644 171 160 156 0 0
1.3439 4.3212 0.1620 0.352 -0.372 0.859 170 159 156 0 0
1.3543 4.3292 0.1622 0.359 -0.381 0.852 170 159 155 0 0
1.3497 4.2533 0.1614 -0.951 -0.229 -0.207 169 158 154 0 0
1.3522 4.2395 0.1612 -0.959 -0.242 -0.145 170 159 155 0 0
1.3514 4.2169 0.1610 -0.950 -0.257 -0.177 170 159 155 0 0
1.3546 4.2053 0.1609 -0.950 -0.257 -0.177 169 159 156 0 0
1.5536 3.9859 0.1612 0.008 -0.062 0.998 104 162 207 0 0
1.7527 4.1914 0.1661 0.111 -0.199 0.974 59 157 218 0 0
1.8368 4.1379 0.1667 -0.347 -0.697 0.628 34 158 225 0 0
1.8811 4.2139 0.1681 -0.389 -0.137 0.911 32 157 224 0 0
1.8843 4.2053 0.1680 -0.367 -0.131 0.921 31 157 224 0 0
1.8867 4.1954 0.1680 -0.343 -0.133 0.930 30 157 225 0 0
1.8873 4.1668 0.1677 -0.376 -0.115 0.919 28 158 226 0 0
1.9049 4.1583 0.1678 -0.261 -0.128 0.957 26 160 228 0 0
1.9071 4.1481 0.1677 -0.189 -0.165 0.968 25 159 227 0 0
1.9105 4.1405 0.1677 -0.218 -0.158 0.963 26 160 228 0 0
1.9151 4.1353 0.1677 -0.269 -0.122 0.955 27 160 227 0 0
1.8659 4.0238 0.1658 -0.644 -0.637 -0.424 27 160 227 0 0
1.8706 4.0192 0.1658 -0.729 -0.630 -0.269 29 160 228 0 0
1.9598 4.0282 0.1671 -0.592 -0.166 0.789 31 159 228 0 0
1.9634 3.9183 0.1660 -0.882 -0.382 0.275 27 158 226 0 0
1.9610 3.9013 0.1658 -0.805 -0.465 -0.369 27 158 225 0 0
-2.7214 4.6235 0.1026 -0.157 -0.638 -0.754 39 22 22 0 0
-2.6662 4.5804 0.1030 -0.279 -0.833 -0.478 115 81 85 0 0
-2.6564 4.5769 0.1031 -0.207 -0.923 -0.323 118 91 91 0 0
-2.6453 4.5711 0.1032 0.290 -0.872 -0.394 105 87 80 0 0
-2.6213 4.5707 0.1035 0.465 -0.853 -0.236 119 114 83 0 0
-2.6145 4.5729 0.1036 0.796 -0.594 0.112 125 120 86 0 0
-2.5585 4.6348 0.1049 0.973 -0.170 0.158 155 137 115 0 0
-2.5615 4.6566 0.1051 0.975 -0.150 0.162 122 106 84 0 0
-2.5650 4.7450 0.1058 0.905 -0.101 0.413 133 115 99 0 0
-2.4673 4.7651 0.1073 0.054 -0.752 -0.657 60 46 43 0 0
-2.4406 4.7967 0.1079 -0.545 -0.754 -0.367 140 130 120 0 0
-2.3342 4.6905 0.1084 -0.100 -0.937 -0.334 141 131 139 0 0
-2.3294 4.6980 0.1085 -0.191 -0.902 -0.387 147 137 143 0 0
-2.3105 4.7105 0.1089 0.917 -0.186 0.352 75 45 37 0 0
-2.3082 4.7236 0.1091 0.893 -0.199 0.404 76 35 27 0 0
-2.3085 4.7429 0.1092 0.905 -0.209 0.370 81 35 25 0 0
-2.3087 4.7620 0.1094 0.936 -0.262 0.237 83 35 25 0 0
-3.2678 7.0450 0.1170 0.969 -0.226 0.094 83 36 26 0 0
-3.1806 6.9273 0.1172 -0.326 -0.756 -0.567 93 57 51 0 0
-3.1678 6.9253 0.1173 -0.145 -0.793 -0.592 98 67 60 0 0
-3.1535 6.9202 0.1175 -0.343 -0.724 -0.598 99 74 68 0 0
-3.1389 6.9140 0.1176 -0.621 -0.639 -0.454 100 79 73 0 0
-2.9270 6.4941 0.1167 0.972 -0.136 0.191 102 84 80 0 0
-2.9467 6.6233 0.1176 0.774 -0.125 0.620 104 90 84 0 0
