ply
format ascii 1.0
element vertex 838
property float x
property float y
property float z
property float nx
property float ny
property float nz
property uchar diffuse_red
property uchar diffuse_green
property uchar diffuse_blue
property uchar class
property uchar detection
end_header
0.2641 6.7763 0.1733 0.161 -0.979 -0.128 123 111 115 0 0
0.3056 6.8312 0.1747 0.731 -0.681 0.055 107 96 104 0 0
0.3178 6.8380 0.1749 0.704 -0.708 0.057 104 93 101 0 0
0.3302 6.8463 0.1751 0.163 -0.788 -0.594 99 87 99 0 0
0.3425 6.8536 0.1753 0.237 -0.872 -0.429 96 84 96 0 0
0.3878 6.9254 0.1771 0.567 -0.772 -0.287 119 108 119 0 0
0.4315 6.8551 0.1757 0.467 -0.761 -0.450 138 130 143 0 0
0.4448 6.8680 0.1760 -0.281 -0.796 -0.537 139 133 147 0 0
0.4552 6.8639 0.1760 -0.274 -0.812 -0.514 141 135 149 0 0
0.4522 6.7266 0.1729 0.154 -0.973 -0.171 144 138 150 0 0
0.4631 6.7265 0.1729 -0.103 -0.962 0.253 146 140 150 0 0
0.5037 6.6008 0.1702 0.355 -0.905 -0.236 150 148 161 0 0
0.6839 5.2052 0.1395 0.092 -0.822 -0.562 20 32 59 0 0
0.7182 5.2099 0.1397 -0.185 -0.942 -0.281 91 133 177 0 0
0.7471 5.1697 0.1389 -0.765 -0.353 0.539 35 176 253 0 0
0.7906 5.0512 0.1364 -0.878 -0.479 0.022 30 181 254 0 0
0.7978 5.0489 0.1364 0.016 -0.928 -0.372 31 182 255 0 0
0.8071 5.0530 0.1365 0.137 -0.940 -0.311 32 181 254 0 0
0.8146 5.0516 0.1365 -0.471 -0.627 -0.620 34 182 254 0 0
0.8085 4.9852 0.1350 0.737 -0.547 -0.396 37 183 255 0 0
0.8255 5.0126 0.1357 0.801 -0.439 -0.407 38 184 255 0 0
0.9663 5.2363 0.1412 0.392 -0.327 0.860 32 184 254 0 0
0.9052 4.1383 0.1163 0.364 -0.645 -0.672 8 180 255 0 0
1.0439 4.4274 0.1233 -0.945 -0.326 -0.036 12 182 255 0 0
1.0545 4.4202 0.1232 0.741 -0.672 -0.013 33 177 247 0 0
1.0664 4.4315 0.1235 0.646 -0.763 -0.030 62 168 236 0 0
1.0882 4.4341 0.1236 -0.864 -0.458 0.210 135 137 153 0 0
1.0679 4.3583 0.1218 -0.340 -0.927 0.157 144 142 143 0 0
1.0735 4.3556 0.1218 -0.255 -0.951 0.177 154 154 154 0 0
1.0794 4.3538 0.1218 -0.250 -0.953 0.169 167 167 167 0 0
1.1058 4.3971 0.1228 0.753 -0.658 0.012 178 173 175 0 0
1.1131 4.3982 0.1229 0.770 -0.636 -0.058 183 174 177 0 0
1.1098 4.3760 0.1224 0.719 -0.680 -0.143 180 174 174 0 0
1.1826 4.3580 0.1223 -0.254 -0.331 0.909 180 174 174 0 0
1.2274 4.2853 0.1208 -0.274 -0.836 0.475 183 175 173 0 0
1.2330 4.2832 0.1208 -0.366 -0.862 0.351 183 175 173 0 0
-3.5242 5.5559 0.1225 0.001 -0.854 0.520 39 35 34 0 0
-3.0169 4.6670 0.1059 -0.266 -0.964 0.018 47 36 40 0 0
-2.8998 4.5036 0.1030 -0.831 -0.543 -0.119 171 158 160 0 0
-2.8717 4.4641 0.1023 -0.825 -0.559 -0.085 164 157 156 0 0
-2.8465 4.5113 0.1033 0.677 -0.698 -0.233 122 114 116 0 0
-2.8367 4.5624 0.1044 0.997 -0.079 0.008 13 14 14 0 0
-2.7056 4.4874 0.1034 -0.390 -0.833 -0.392 72 70 80 0 0
-2.6919 4.5788 0.1053 0.820 -0.556 -0.132 55 29 37 0 0
-2.6357 4.5676 0.1053 -0.120 -0.985 0.122 111 103 97 0 0
-2.6272 4.5648 0.1053 0.460 -0.755 -0.468 103 99 87 0 0
-2.6095 4.5740 0.1055 0.941 -0.203 0.270 141 136 111 0 0
-2.6072 4.5849 0.1058 0.950 -0.199 0.240 127 122 86 0 0
-2.6031 4.5919 0.1059 0.886 -0.443 0.137 117 110 64 0 0
-2.4706 4.7150 0.1090 0.294 -0.954 -0.056 95 87 75 0 0
-2.4643 4.7180 0.1091 -0.135 -0.966 0.222 58 49 40 0 0
-2.4569 4.7182 0.1091 -0.276 -0.933 0.230 45 35 31 0 0
-2.4483 4.7156 0.1091 -0.298 -0.953 0.044 68 58 58 0 0
-2.4429 4.7209 0.1092 0.201 -0.955 -0.217 100 89 91 0 0
-2.9114 6.4986 0.1445 0.480 -0.267 0.836 115 99 99 0 0
-2.5835 6.0533 0.1364 -0.620 -0.779 0.095 135 131 135 0 0
-2.4296 5.6439 0.1285 0.389 -0.424 0.818 136 134 139 0 0
-2.4287 5.6689 0.1290 -0.239 -0.638 0.732 139 137 142 0 0
-2.3269 5.5776 0.1275 -0.848 -0.402 -0.346 150 145 151 0 0
-2.3082 5.5463 0.1269 -0.886 -0.463 -0.004 151 147 151 0 0
-2.2405 5.5898 0.1281 0.847 -0.280 0.452 98 96 109 0 0
-2.2149 5.6261 0.1290 -0.188 -0.888 0.419 120 117 128 0 0
-2.1867 5.5594 0.1277 -0.591 -0.806 -0.044 125 122 131 0 0
-2.1773 5.5578 0.1277 -0.375 -0.919 0.117 130 129 137 0 0
-2.1176 5.5038 0.1268 -0.382 -0.884 0.271 147 147 158 0 0
-2.0961 5.4899 0.1266 -0.276 -0.915 0.295 150 150 162 0 0
-2.0653 5.4736 0.1263 -0.268 -0.904 -0.332 152 152 164 0 0
-2.0558 5.4712 0.1263 -0.310 -0.876 -0.370 152 152 164 0 0
-1.7316 5.2282 0.1225 -0.233 -0.913 -0.334 168 166 180 0 0
-1.7238 5.2309 0.1226 0.027 -0.979 -0.202 163 161 175 0 0
-1.6547 5.3517 0.1254 -0.424 -0.790 -0.442 127 125 136 0 0
-1.1794 5.5940 0.1322 0.341 -0.879 -0.334 234 228 232 0 0
-1.1233 5.8005 0.1367 0.464 -0.840 -0.283 86 66 75 0 0
-1.1143 5.8052 0.1369 0.499 -0.798 -0.337 90 73 79 0 0
-0.9911 5.9542 0.1404 -0.179 -0.984 0.013 43 30 37 0 0
-0.9812 5.9492 0.1404 0.140 -0.990 0.022 46 31 36 0 0
-0.9720 5.9572 0.1406 0.378 -0.926 -0.006 53 38 43 0 0
-0.7887 5.8867 0.1398 -0.371 -0.921 -0.116 204 202 205 0 0
-0.7509 5.9027 0.1403 -0.228 -0.869 0.439 204 203 208 0 0
-0.7225 5.9292 0.1409 0.262 -0.926 -0.271 214 209 215 0 0
-0.3422 6.3754 0.1517 -0.406 -0.911 0.066 90 89 95 0 0
-0.2335 6.4482 0.1536 0.098 -0.880 -0.465 231 230 236 0 0
-0.1914 6.4534 0.1539 -0.017 -0.985 -0.169 238 228 236 0 0
-0.1808 6.4548 0.1540 0.283 -0.954 0.099 237 230 237 0 0
-0.1448 6.5061 0.1552 0.310 -0.948 -0.074 167 165 176 0 0
-0.1332 6.5172 0.1554 0.394 -0.909 -0.136 149 148 159 0 0
-0.1227 6.5172 0.1555 -0.069 -0.987 -0.146 146 148 161 0 0
0.1591 6.7293 0.1610 0.240 -0.874 -0.423 202 199 208 0 0
0.2155 6.7431 0.1615 -0.043 -0.946 0.322 133 127 129 0 0
0.2292 6.7614 0.1619 0.240 -0.970 0.051 141 135 137 0 0
0.2388 6.7527 0.1618 -0.025 -0.997 0.074 140 131 134 0 0
0.2496 6.7518 0.1618 0.028 -1.000 0.010 139 128 132 0 0
0.2631 6.7690 0.1622 0.391 -0.901 0.186 127 115 119 0 0
0.3178 6.8371 0.1638 0.704 -0.708 0.057 110 99 107 0 0
0.3304 6.8463 0.1641 0.532 -0.834 -0.148 99 87 99 0 0
0.3446 6.8654 0.1645 0.353 -0.872 -0.339 94 82 94 0 0
0.3613 6.8995 0.1653 0.695 -0.665 -0.273 109 97 109 0 0
0.3875 6.9226 0.1659 0.405 -0.864 -0.301 117 107 118 0 0
0.4322 6.8581 0.1647 0.672 -0.705 -0.227 137 131 143 0 0
0.4431 6.8572 0.1647 0.421 -0.822 -0.383 139 133 147 0 0
0.4556 6.8648 0.1649 0.427 -0.747 -0.509 141 135 149 0 0
0.4753 6.8513 0.1647 -0.340 -0.858 -0.384 144 138 150 0 0
0.4858 6.6177 0.1599 -0.110 -0.923 -0.368 148 145 156 0 0
0.5036 6.5992 0.1596 0.369 -0.916 -0.157 149 147 160 0 0
0.6365 5.0968 0.1288 0.579 -0.551 0.601 19 29 54 0 0
0.6868 5.2144 0.1314 0.124 -0.912 -0.392 19 30 58 0 0
0.7190 5.2119 0.1315 0.058 -0.964 -0.259 94 140 185 0 0
0.7320 5.2001 0.1313 -0.788 -0.611 -0.071 73 167 233 0 0
0.7739 5.0985 0.1294 -0.912 -0.188 0.365 31 178 255 0 0
0.7918 5.0541 0.1285 -0.854 -0.432 -0.288 30 180 253 0 0
0.8079 5.0548 0.1286 0.441 -0.889 -0.124 32 181 253 0 0
0.8140 5.0490 0.1285 0.187 -0.614 -0.767 33 181 253 0 0
0.8263 5.0623 0.1288 -0.380 -0.474 -0.795 35 182 254 0 0
0.8810 4.1866 0.1108 -0.223 -0.591 -0.775 7 181 254 0 0
0.8866 4.1845 0.1108 -0.223 -0.591 -0.775 7 181 254 0 0
0.9051 4.1824 0.1108 0.320 -0.388 -0.864 9 181 255 0 0
1.0539 4.4338 0.1166 -0.903 -0.351 0.249 15 181 254 0 0
1.0577 4.4268 0.1165 0.475 -0.819 0.323 35 179 249 0 0
1.0880 4.4331 0.1167 -0.849 -0.470 0.242 136 138 151 0 0
1.0677 4.3572 0.1150 -0.340 -0.927 0.157 145 143 144 0 0
1.0732 4.3545 0.1150 -0.281 -0.943 0.181 155 155 156 0 0
1.0791 4.3526 0.1150 -0.250 -0.953 0.169 168 168 168 0 0
1.1062 4.3974 0.1160 0.753 -0.658 0.012 178 172 174 0 0
1.1144 4.4003 0.1161 0.770 -0.636 -0.058 182 173 176 0 0
-3.4958 5.5196 0.1130 -0.307 -0.356 0.883 39 35 34 0 0
-2.9788 4.6234 0.0979 -0.807 -0.577 -0.129 119 98 104 0 0
-2.9055 4.5138 0.0961 -0.831 -0.543 -0.119 172 159 160 0 0
-2.8474 4.5126 0.0963 0.717 -0.650 -0.251 122 114 116 0 0
-2.8370 4.5625 0.0972 0.996 -0.081 0.038 13 15 15 0 0
-2.7182 4.4980 0.0965 -0.218 -0.966 -0.141 123 122 138 0 0
-2.6950 4.4797 0.0962 -0.531 -0.822 -0.208 44 39 46 0 0
-2.6378 4.5717 0.0982 -0.111 -0.966 0.235 119 106 105 0 0
-2.6315 4.5738 0.0982 0.011 -0.995 -0.100 105 97 88 0 0
-2.6245 4.5744 0.0983 -0.167 -0.986 0.011 109 105 91 0 0
-2.6144 4.5683 0.0982 0.380 -0.925 -0.013 128 123 106 0 0
-2.6091 4.5725 0.0983 0.910 -0.340 0.236 142 138 116 0 0
-2.6061 4.5820 0.0985 0.934 -0.194 0.300 133 131 103 0 0
-2.5842 4.5984 0.0989 0.082 -0.951 0.298 177 157 110 0 0
-2.4796 4.7182 0.1016 -0.122 -0.987 0.104 121 114 98 0 0
-2.4709 4.7153 0.1016 0.294 -0.954 -0.056 108 101 87 0 0
-2.4635 4.7156 0.1016 -0.114 -0.927 0.357 75 67 55 0 0
-2.3302 4.6615 0.1011 -0.300 -0.562 -0.771 153 149 153 0 0
-2.3683 4.7818 0.1032 -0.672 -0.356 -0.649 154 152 159 0 0
-2.3098 4.7470 0.1028 0.925 -0.058 0.376 105 96 99 0 0
-2.8986 6.4627 0.1333 0.277 -0.415 0.867 116 100 100 0 0
-2.8671 6.4336 0.1329 -0.310 -0.538 0.784 116 101 104 0 0
-2.8337 6.3985 0.1323 -0.212 -0.466 0.859 118 104 110 0 0
-2.8195 6.3878 0.1322 -0.038 -0.382 0.924 118 106 112 0 0
-2.6181 6.0100 0.1257 0.729 -0.677 0.102 126 120 122 0 0
-2.4569 5.7266 0.1209 0.754 -0.587 0.295 136 134 139 0 0
-2.3295 5.5855 0.1187 -0.842 -0.390 -0.373 147 145 150 0 0
-2.3047 5.5345 0.1178 -0.866 -0.491 -0.098 149 147 151 0 0
-2.2458 5.5466 0.1183 0.914 -0.126 0.385 91 89 100 0 0
-2.2137 5.6216 0.1199 -0.188 -0.888 0.419 118 116 127 0 0
-2.2041 5.6195 0.1199 -0.188 -0.888 0.419 124 122 133 0 0
-2.1168 5.5002 0.1179 -0.405 -0.898 0.170 147 147 158 0 0
-2.0952 5.4860 0.1177 -0.135 -0.941 0.310 150 150 162 0 0
-2.0861 5.4851 0.1177 -0.551 -0.834 0.013 149 149 161 0 0
-2.0554 5.4690 0.1176 -0.575 -0.793 -0.200 151 151 163 0 0
-1.7324 5.2314 0.1142 -0.233 -0.913 -0.334 166 164 178 0 0
-1.6768 5.7081 0.1236 0.551 -0.710 0.439 132 129 136 0 0
-1.6485 5.7045 0.1236 -0.643 -0.738 -0.205 138 136 141 0 0
-1.5159 5.5616 0.1214 -0.196 -0.902 0.385 119 114 118 0 0
-1.2291 5.5526 0.1223 0.639 -0.745 -0.192 186 200 226 0 0
-1.2124 5.5643 0.1226 0.298 -0.904 -0.306 153 179 214 0 0
-1.1797 5.5972 0.1234 0.341 -0.879 -0.334 234 228 232 0 0
-1.1244 5.8146 0.1277 0.494 -0.854 0.163 84 67 75 0 0
-1.1146 5.8089 0.1276 0.499 -0.798 -0.337 89 74 79 0 0
-0.9908 5.9483 0.1308 0.359 -0.933 0.016 42 29 36 0 0
-0.9812 5.9486 0.1308 -0.126 -0.989 0.076 45 30 35 0 0
-0.9631 5.9714 0.1313 -0.163 -0.982 -0.093 61 44 50 0 0
-0.7979 5.8753 0.1301 0.515 -0.852 0.093 205 203 206 0 0
-0.7888 5.8946 0.1305 0.383 -0.911 0.153 204 205 207 0 0
-0.7793 5.9003 0.1307 0.411 -0.910 -0.061 201 202 204 0 0
-0.7697 5.8899 0.1305 0.104 -0.946 -0.308 200 204 207 0 0
-0.7415 5.9189 0.1312 0.151 -0.965 -0.215 205 203 208 0 0
-0.3527 6.3701 0.1413 -0.527 -0.624 0.577 89 86 93 0 0
-0.3426 6.3675 0.1413 -0.481 -0.763 0.432 88 86 91 0 0
-0.2393 6.5068 0.1443 0.830 -0.378 -0.411 232 229 236 0 0
-0.1443 6.5097 0.1447 0.006 -0.996 -0.090 165 163 174 0 0
-0.1330 6.5189 0.1450 0.394 -0.909 -0.136 148 148 158 0 0
-0.1225 6.5186 0.1450 -0.023 -0.988 -0.155 145 147 160 0 0
0.0838 6.6496 0.1483 0.026 -0.985 -0.173 188 181 188 0 0
0.1599 6.7342 0.1502 0.338 -0.866 -0.368 198 195 204 0 0
0.2284 6.7551 0.1509 0.069 -0.989 -0.132 144 138 140 0 0
0.2388 6.7513 0.1508 0.028 -1.000 0.010 141 132 135 0 0
0.2497 6.7516 0.1509 0.028 -1.000 0.010 136 125 129 0 0
0.2642 6.7750 0.1514 0.476 -0.868 0.139 115 104 108 0 0
0.2929 6.8183 0.1523 0.569 -0.819 -0.070 87 76 80 0 0
0.3058 6.8301 0.1526 0.707 -0.696 0.127 102 91 99 0 0
0.3179 6.8364 0.1528 0.688 -0.718 0.101 107 96 104 0 0
0.3308 6.8480 0.1530 0.518 -0.836 -0.181 99 87 98 0 0
0.3440 6.8609 0.1533 0.324 -0.928 -0.186 98 86 98 0 0
0.3882 6.9253 0.1547 0.272 -0.923 -0.272 117 107 118 0 0
0.4059 6.8977 0.1543 -0.338 -0.837 -0.431 124 116 127 0 0
0.4163 6.8935 0.1542 -0.338 -0.837 -0.431 128 120 131 0 0
0.4264 6.8873 0.1541 -0.502 -0.782 -0.368 133 127 139 0 0
0.4336 6.8649 0.1537 0.623 -0.770 -0.138 137 131 143 0 0
0.4443 6.8629 0.1537 0.466 -0.839 -0.280 139 133 147 0 0
0.4573 6.8732 0.1540 0.427 -0.747 -0.509 139 135 149 0 0
0.4686 6.8739 0.1540 0.364 -0.738 -0.569 143 137 151 0 0
0.4772 6.8602 0.1538 -0.507 -0.828 -0.240 144 138 150 0 0
0.4657 6.6233 0.1493 0.573 -0.799 0.182 147 144 155 0 0
0.4926 6.5966 0.1488 0.547 -0.826 -0.134 149 146 157 0 0
0.5031 6.5958 0.1489 0.290 -0.920 -0.263 147 145 158 0 0
0.6355 5.0925 0.1207 0.712 -0.654 0.255 19 29 54 0 0
0.6880 5.2181 0.1233 0.124 -0.912 -0.392 19 30 58 0 0
0.7197 5.2133 0.1233 0.294 -0.938 -0.184 97 148 193 0 0
0.7283 5.2145 0.1233 0.162 -0.970 -0.183 95 170 227 0 0
0.7368 5.2155 0.1234 -0.003 -0.982 -0.190 68 166 234 0 0
0.7383 5.1660 0.1225 -0.903 -0.403 0.147 39 175 253 0 0
0.8287 5.3248 0.1258 -0.056 -0.443 0.895 32 178 255 0 0
0.8299 5.0723 0.1210 -0.298 -0.592 -0.749 34 181 254 0 0
0.8522 5.0672 0.1210 -0.680 -0.490 0.545 34 180 253 0 0
1.0531 4.4314 0.1096 -0.912 -0.368 0.184 17 183 255 0 0
1.0565 4.4236 0.1095 0.471 -0.833 0.289 37 181 250 0 0
1.0772 4.4393 0.1099 0.578 -0.814 -0.047 88 152 202 0 0
1.0866 4.4295 0.1097 -0.819 -0.435 0.373 136 138 149 0 0
1.0674 4.3559 0.1082 -0.327 -0.927 0.183 146 144 145 0 0
1.0729 4.3533 0.1082 -0.281 -0.943 0.181 156 156 158 0 0
1.0932 4.3831 0.1089 0.725 -0.688 0.036 168 168 170 0 0
1.1067 4.3978 0.1092 0.753 -0.658 0.012 178 172 176 0 0
1.1143 4.3997 0.1093 0.760 -0.649 -0.027 181 172 175 0 0
-2.8811 4.4810 0.0885 -0.821 -0.548 -0.160 164 156 154 0 0
-2.8649 4.5044 0.0889 0.402 -0.870 -0.284 141 136 134 0 0
-2.8591 4.5071 0.0890 0.402 -0.870 -0.284 134 128 128 0 0
-2.8484 4.5141 0.0892 0.677 -0.698 -0.233 122 114 117 0 0
-2.8588 4.5905 0.0904 -0.669 -0.741 -0.065 42 44 43 0 0
-2.8389 4.5657 0.0901 0.985 -0.167 -0.040 14 15 15 0 0
-2.7609 4.5258 0.0897 0.303 -0.852 -0.427 130 128 133 0 0
-2.7197 4.5007 0.0894 -0.031 -0.973 -0.229 119 118 136 0 0
-2.7003 4.4903 0.0893 -0.349 -0.899 -0.263 49 43 53 0 0
-2.7259 4.6497 0.0920 0.597 -0.553 -0.581 48 28 33 0 0
-2.6326 4.5758 0.0911 -0.204 -0.969 -0.139 117 102 98 0 0
-2.6242 4.5733 0.0911 -0.350 -0.936 -0.034 109 99 90 0 0
-2.6160 4.5714 0.0911 -0.049 -0.979 -0.196 118 111 97 0 0
-2.6091 4.5721 0.0911 0.661 -0.736 0.144 135 133 113 0 0
-2.5063 4.6916 0.0936 0.265 -0.838 -0.478 136 125 112 0 0
-2.3856 4.8271 0.0964 -0.682 -0.356 -0.639 153 149 156 0 0
-2.3605 4.7809 0.0957 -0.739 -0.376 -0.558 155 152 161 0 0
-2.3073 4.7813 0.0959 0.835 -0.035 0.550 113 100 100 0 0
-2.8416 6.3908 0.1218 -0.364 -0.552 0.750 116 101 107 0 0
-2.8279 6.3814 0.1217 -0.363 -0.527 0.768 116 103 110 0 0
-2.8139 6.3712 0.1216 0.185 -0.247 0.951 117 105 111 0 0
-2.6258 6.0321 0.1164 0.066 -0.977 -0.201 125 119 121 0 0
-2.6038 6.0836 0.1174 0.908 -0.324 0.267 132 127 131 0 0
-2.4582 5.7300 0.1118 0.664 -0.704 0.251 136 134 139 0 0
-2.2894 5.5135 0.1087 -0.838 -0.482 -0.256 150 148 151 0 0
-2.2361 5.5739 0.1099 0.739 -0.188 0.646 96 94 107 0 0
-2.2116 5.6136 0.1107 -0.097 -0.913 0.397 117 115 126 0 0
-2.2029 5.6150 0.1108 -0.188 -0.888 0.419 123 121 132 0 0
-2.0950 5.4848 0.1089 0.339 -0.924 -0.175 150 150 162 0 0
-2.0529 5.4593 0.1087 -0.587 -0.789 -0.181 151 151 163 0 0
-1.6769 5.3764 0.1087 0.884 -0.229 -0.407 141 139 152 0 0
-1.6588 5.7101 0.1145 0.537 -0.792 0.291 138 133 140 0 0
-1.6474 5.6979 0.1144 -0.762 -0.619 0.192 139 137 142 0 0
-1.5154 5.5574 0.1124 -0.278 -0.906 0.318 128 123 127 0 0
-1.2211 5.5616 0.1136 0.624 -0.739 -0.255 171 192 223 0 0
-1.2129 5.5687 0.1138 0.639 -0.745 -0.192 178 201 233 0 0
-1.1962 5.5819 0.1141 0.571 -0.793 -0.213 199 210 228 0 0
-1.1884 5.5935 0.1143 0.658 -0.750 -0.066 231 235 244 0 0
-1.1800 5.6005 0.1145 0.341 -0.879 -0.334 236 230 234 0 0
-1.1243 5.8137 0.1184 0.140 -0.942 0.304 103 86 92 0 0
-1.1153 5.8178 0.1185 0.335 -0.937 -0.104 95 80 85 0 0
-1.1062 5.8210 0.1186 0.335 -0.937 -0.104 79 64 67 0 0
-1.0975 5.8309 0.1188 0.444 -0.849 -0.286 78 66 68 0 0
-1.0880 5.8296 0.1188 0.307 -0.952 -0.009 97 86 92 0 0
-0.9910 5.9539 0.1213 -0.179 -0.984 0.013 43 30 37 0 0
-0.9813 5.9514 0.1213 -0.378 -0.922 0.086 46 31 36 0 0
-0.9631 5.9725 0.1218 -0.283 -0.953 -0.104 60 43 49 0 0
-0.7980 5.8825 0.1208 0.349 -0.936 0.050 197 198 200 0 0
-0.7414 5.9215 0.1217 0.168 -0.982 -0.084 203 202 207 0 0
-0.3427 6.3645 0.1310 -0.311 -0.758 0.574 87 85 90 0 0
-0.1441 6.5108 0.1343 -0.053 -0.993 -0.104 163 161 172 0 0
-0.1327 6.5206 0.1345 0.394 -0.909 -0.136 148 148 158 0 0
-0.1222 6.5202 0.1345 -0.023 -0.988 -0.155 145 147 160 0 0
0.0839 6.6494 0.1376 0.097 -0.993 0.061 180 173 180 0 0
0.1369 6.7241 0.1391 0.537 -0.832 -0.136 194 194 202 0 0
0.1483 6.7278 0.1392 0.484 -0.866 0.126 205 204 212 0 0
0.1586 6.7230 0.1391 0.531 -0.809 0.254 197 194 201 0 0
0.2387 6.7496 0.1399 0.144 -0.989 0.040 139 133 135 0 0
0.2515 6.7624 0.1402 0.066 -0.996 0.065 139 130 133 0 0
0.2641 6.7732 0.1404 0.476 -0.868 0.139 122 111 115 0 0
0.2796 6.8023 0.1410 0.573 -0.816 0.068 111 100 104 0 0
0.3182 6.8373 0.1417 0.716 -0.697 -0.043 98 87 95 0 0
0.3316 6.8518 0.1420 0.542 -0.835 -0.094 95 83 95 0 0
0.3868 6.9160 0.1434 0.183 -0.971 -0.152 119 109 120 0 0
0.4107 6.9904 0.1447 -0.268 -0.962 -0.043 123 113 124 0 0
0.4073 6.9047 0.1432 -0.593 -0.786 -0.173 125 117 128 0 0
0.4158 6.8891 0.1430 -0.622 -0.774 -0.121 129 121 132 0 0
0.4277 6.8933 0.1431 -0.875 -0.485 0.004 133 127 139 0 0
0.4497 6.8915 0.1432 -0.116 -0.991 -0.071 137 133 147 0 0
0.4606 6.8901 0.1432 -0.171 -0.936 -0.307 140 136 150 0 0
0.4720 6.8918 0.1433 0.119 -0.868 -0.482 143 137 151 0 0
0.4767 6.8563 0.1427 -0.133 -0.924 -0.360 145 139 153 0 0
0.4551 6.6225 0.1385 0.644 -0.751 0.145 148 142 154 0 0
0.4654 6.6206 0.1385 0.573 -0.799 0.182 146 142 156 0 0
0.4877 6.6815 0.1397 -0.978 -0.209 -0.003 147 143 157 0 0
0.6211 6.8576 0.1432 0.411 -0.595 -0.691 16 16 28 0 0
0.6895 5.2224 0.1151 0.141 -0.924 -0.356 21 32 61 0 0
0.7205 5.2156 0.1151 0.388 -0.921 -0.037 102 157 202 0 0
0.7300 5.2196 0.1152 0.388 -0.921 -0.037 92 171 231 0 0
0.7371 5.2158 0.1152 -0.002 -1.000 -0.003 64 168 238 0 0
0.7438 5.1834 0.1146 0.108 -0.943 -0.314 38 176 253 0 0
0.8461 5.2727 0.1166 -0.180 -0.448 -0.876 34 180 254 0 0
0.8535 5.2696 0.1165 -0.270 -0.426 -0.863 33 181 253 0 0
0.8408 5.0325 0.1124 -0.393 -0.407 0.825 35 183 255 0 0
0.8467 5.0266 0.1123 -0.393 -0.407 0.825 34 184 254 0 0
1.8071 6.5639 0.1427 0.671 -0.733 -0.109 5 181 255 0 0
1.0463 4.4310 0.1027 -0.958 -0.281 0.067 15 182 253 0 0
1.0519 4.4281 0.1027 -0.638 -0.769 0.035 18 182 254 0 0
1.0537 4.4165 0.1025 0.661 -0.750 0.003 37 179 249 0 0
1.0651 4.4269 0.1027 0.685 -0.729 0.010 65 169 232 0 0
1.0779 4.4403 0.1030 0.550 -0.832 -0.075 89 152 200 0 0
1.0855 4.4262 0.1028 -0.859 -0.438 0.265 136 139 147 0 0
1.0671 4.3547 0.1015 -0.327 -0.927 0.183 147 145 146 0 0
1.0805 4.3695 0.1018 0.629 -0.776 0.056 157 157 159 0 0
1.0934 4.3830 0.1021 0.725 -0.688 0.036 169 169 171 0 0
1.1071 4.3982 0.1024 0.753 -0.658 0.012 177 172 176 0 0
1.1189 4.4090 0.1026 0.771 -0.637 -0.007 180 174 176 0 0
-2.8848 4.4875 0.0815 -0.821 -0.546 -0.164 164 158 155 0 0
-2.8605 4.5092 0.0819 0.527 -0.781 -0.336 136 130 130 0 0
-2.8625 4.5972 0.0833 -0.674 -0.713 -0.195 48 50 49 0 0
-2.7208 4.5024 0.0824 -0.023 -1.000 -0.013 112 108 131 0 0
-2.7019 4.4929 0.0823 -0.349 -0.899 -0.263 58 52 61 0 0
-2.6761 4.4546 0.0818 -0.763 -0.633 -0.130 42 31 38 0 0
-2.6770 4.5924 0.0839 -0.688 -0.492 -0.533 71 35 42 0 0
-2.6268 4.5786 0.0839 -0.265 -0.940 -0.213 115 100 93 0 0
-2.6185 4.5763 0.0839 -0.265 -0.940 -0.213 112 103 91 0 0
-2.5952 4.5892 0.0842 0.907 -0.420 0.017 118 114 69 0 0
-2.5916 4.5976 0.0843 0.929 -0.340 -0.144 115 107 51 0 0
-2.5894 4.6090 0.0845 0.885 -0.364 -0.289 137 122 67 0 0
-2.5845 4.6146 0.0846 0.588 -0.570 -0.574 168 148 99 0 0
-2.5409 4.6498 0.0854 0.956 -0.031 0.292 95 87 79 0 0
-2.5185 4.6845 0.0860 -0.381 -0.824 -0.419 143 129 121 0 0
-2.5158 4.6958 0.0862 -0.544 -0.637 -0.546 140 128 116 0 0
-2.4903 4.7434 0.0870 0.114 -0.983 -0.145 115 107 94 0 0
-2.4289 4.7412 0.0872 -0.108 -0.867 -0.487 132 122 120 0 0
-2.3907 4.8401 0.0889 -0.527 -0.312 -0.791 153 148 154 0 0
-2.8213 6.3623 0.1111 -0.146 -0.435 0.888 114 101 108 0 0
-2.8084 6.3551 0.1110 -0.393 -0.549 0.738 115 103 110 0 0
-2.6347 6.0288 0.1066 0.300 -0.922 -0.243 123 115 118 0 0
-2.6011 6.0748 0.1074 0.880 -0.474 -0.026 132 127 131 0 0
-2.2928 5.5240 0.1000 -0.856 -0.476 -0.201 149 147 150 0 0
-2.2321 5.5598 0.1008 0.789 -0.185 0.586 96 94 107 0 0
-2.2109 5.6108 0.1017 -0.209 -0.919 0.334 116 114 125 0 0
-2.1567 5.5468 0.1009 -0.370 -0.897 0.241 138 138 148 0 0
-2.1465 5.5420 0.1009 -0.472 -0.861 0.189 141 141 151 0 0
-2.1164 5.4979 0.1003 0.711 -0.564 -0.420 147 147 159 0 0
-2.0828 5.5046 0.1005 -0.285 -0.683 -0.672 150 150 162 0 0
-1.7424 5.2381 0.0977 0.274 -0.961 -0.034 165 164 180 0 0
-1.6012 5.7509 0.1062 -0.371 -0.663 -0.651 143 138 142 0 0
-1.5917 5.7494 0.1063 -0.424 -0.567 -0.707 147 142 146 0 0
-1.2934 5.4908 0.1034 0.385 -0.812 -0.438 234 228 228 0 0
-1.1965 5.5842 0.1052 0.571 -0.793 -0.213 204 212 225 0 0
-1.1250 5.8217 0.1092 0.259 -0.966 0.019 164 147 153 0 0
-1.1069 5.8308 0.1094 0.187 -0.929 -0.320 181 169 171 0 0
-1.0977 5.8344 0.1095 0.444 -0.824 -0.353 179 167 169 0 0
-0.9812 5.9500 0.1118 -0.657 -0.751 -0.069 46 31 36 0 0
-0.9630 5.9713 0.1122 -0.365 -0.894 -0.261 58 43 48 0 0
-0.7983 5.8996 0.1117 0.304 -0.908 -0.289 128 133 136 0 0
-0.7888 5.9028 0.1118 0.304 -0.908 -0.289 104 114 116 0 0
-0.7793 5.9057 0.1118 0.296 -0.907 -0.300 116 126 128 0 0
-0.7699 5.9128 0.1120 0.480 -0.872 -0.098 157 162 166 0 0
-0.7509 5.9207 0.1122 0.081 -0.997 0.019 202 203 208 0 0
-0.7414 5.9215 0.1122 0.111 -0.993 -0.029 205 204 210 0 0
-0.4774 6.0859 0.1158 0.550 -0.715 0.430 216 211 218 0 0
-0.1438 6.5128 0.1238 -0.003 -0.985 -0.175 161 159 169 0 0
-0.1219 6.5218 0.1240 -0.023 -0.988 -0.155 145 149 161 0 0
0.0740 6.6545 0.1269 -0.021 -0.988 0.155 186 180 184 0 0
0.0847 6.6542 0.1269 -0.021 -0.988 0.155 184 178 182 0 0
0.1552 6.6970 0.1279 0.309 -0.761 0.571 195 192 199 0 0
0.2410 6.7642 0.1292 -0.060 -0.975 -0.214 128 122 124 0 0
0.2517 6.7626 0.1293 0.004 -0.997 0.074 109 100 105 0 0
0.2651 6.7783 0.1295 0.584 -0.784 -0.209 92 82 87 0 0
0.3321 6.8533 0.1310 0.542 -0.835 -0.094 90 78 90 0 0
0.3799 6.9408 0.1325 -0.163 -0.948 0.274 115 103 115 0 0
0.3873 6.9178 0.1322 0.183 -0.971 -0.152 119 109 120 0 0
0.3927 6.8834 0.1317 0.600 -0.799 0.036 124 114 125 0 0
0.4065 6.8990 0.1320 -0.598 -0.726 -0.341 125 117 128 0 0
0.4163 6.8909 0.1319 -0.598 -0.726 -0.341 129 121 132 0 0
0.4273 6.8901 0.1319 -0.808 -0.528 -0.260 133 127 139 0 0
0.4620 6.8968 0.1322 0.118 -0.856 -0.503 141 137 151 0 0
0.4754 6.8486 0.1315 -0.036 -0.980 -0.197 145 139 153 0 0
0.4692 6.6394 0.1282 -0.973 -0.229 0.018 146 142 156 0 0
0.4903 6.6943 0.1291 -0.978 -0.206 0.031 147 143 157 0 0
0.6272 6.8857 0.1326 0.686 -0.601 -0.410 20 18 31 0 0
0.6357 6.8201 0.1316 -0.331 -0.360 -0.872 14 16 31 0 0
0.6907 5.2257 0.1069 0.141 -0.924 -0.356 20 33 62 0 0
0.7207 5.2155 0.1068 0.425 -0.904 -0.030 106 164 210 0 0
0.7303 5.2200 0.1069 0.425 -0.904 -0.030 90 175 235 0 0
0.7376 5.2165 0.1069 -0.061 -0.986 0.158 63 171 242 0 0
0.7457 5.2160 0.1069 -0.141 -0.968 -0.206 46 174 250 0 0
0.7451 5.1869 0.1065 0.284 -0.938 -0.200 39 179 254 0 0
0.8151 5.2798 0.1082 0.113 -0.660 -0.743 33 178 254 0 0
0.8442 5.2924 0.1085 -0.180 -0.376 -0.909 36 180 255 0 0
1.7741 6.5076 0.1311 0.097 -0.991 -0.088 7 181 254 0 0
1.8096 6.5691 0.1322 0.744 -0.614 -0.262 7 181 254 0 0
1.0461 4.4300 0.0958 -0.958 -0.281 0.067 17 181 252 0 0
1.0478 4.4182 0.0956 0.336 -0.939 -0.071 18 180 252 0 0
1.0537 4.4159 0.0956 0.713 -0.699 -0.055 37 177 247 0 0
1.0653 4.4268 0.0958 0.661 -0.750 0.003 66 165 230 0 0
1.0785 4.4410 0.0961 0.553 -0.833 0.033 91 150 198 0 0
1.0806 4.3691 0.0950 0.629 -0.776 0.056 159 158 160 0 0
1.1075 4.3985 0.0955 0.753 -0.658 0.012 178 173 177 0 0
1.1200 4.4108 0.0958 0.779 -0.627 0.006 181 175 177 0 0
-3.0195 4.6839 0.0766 -0.765 -0.600 -0.236 50 37 41 0 0
-2.9722 4.6236 0.0760 -0.832 -0.525 -0.176 145 127 131 0 0
-2.8916 4.4997 0.0746 -0.821 -0.546 -0.164 164 159 156 0 0
-2.8615 4.5107 0.0748 0.529 -0.796 -0.292 137 131 131 0 0
-2.8404 4.5255 0.0751 0.584 -0.740 -0.332 111 109 112 0 0
-2.7620 4.5418 0.0756 -0.489 -0.800 -0.347 119 119 125 0 0
-2.7061 4.5013 0.0753 -0.199 -0.917 -0.347 75 69 79 0 0
-2.6603 4.6032 0.0769 -0.366 -0.735 -0.571 119 83 89 0 0
-2.6274 4.5793 0.0767 -0.393 -0.920 -0.011 123 103 101 0 0
-2.6187 4.5763 0.0767 -0.373 -0.926 0.053 111 102 92 0 0
-2.6119 4.5773 0.0767 0.191 -0.979 -0.077 109 106 92 0 0
-2.5954 4.5893 0.0770 0.912 -0.409 0.039 131 128 94 0 0
-2.5923 4.5987 0.0771 0.931 -0.329 -0.157 114 107 63 0 0
-2.5800 4.6204 0.0774 0.167 -0.821 -0.546 170 153 104 0 0
-2.5413 4.6849 0.0785 0.787 -0.016 0.617 76 61 54 0 0
-2.5359 4.6898 0.0786 0.938 -0.047 0.343 108 94 85 0 0
-2.5363 4.7085 0.0788 0.954 -0.051 0.295 141 127 117 0 0
-2.5190 4.7030 0.0788 -0.058 -0.771 -0.634 139 127 114 0 0
-2.5116 4.7032 0.0789 -0.083 -0.614 -0.785 136 124 110 0 0
-2.8011 6.3337 0.1005 -0.347 -0.522 0.779 114 102 108 0 0
-2.6604 6.0460 0.0970 -0.466 -0.604 -0.647 121 111 113 0 0
-2.6511 6.0474 0.0971 -0.202 -0.672 -0.712 122 113 116 0 0
-2.6421 6.1376 0.0984 0.489 -0.767 -0.415 129 123 127 0 0
-2.6338 6.1425 0.0985 0.646 -0.657 -0.388 130 125 129 0 0
-2.3224 5.5611 0.0916 -0.741 -0.337 -0.581 148 145 151 0 0
-2.2772 5.5017 0.0909 -0.842 -0.485 -0.236 152 150 153 0 0
-2.2333 5.5939 0.0924 0.737 -0.386 0.555 100 98 112 0 0
-2.2096 5.5435 0.0918 0.902 -0.280 0.328 103 101 115 0 0
-2.1560 5.5438 0.0920 -0.148 -0.938 0.312 139 139 149 0 0
-2.1460 5.5398 0.0920 -0.472 -0.861 0.189 142 142 152 0 0
-2.0777 5.5182 0.0919 -0.726 -0.494 -0.479 152 152 164 0 0
-1.7347 5.2408 0.0894 -0.097 -0.979 -0.179 159 157 171 0 0
-1.6743 5.3622 0.0913 -0.052 -0.992 0.114 127 125 136 0 0
-1.7210 5.7958 0.0972 -0.128 -0.933 0.338 132 130 135 0 0
-1.5994 5.5776 0.0946 0.588 -0.802 -0.104 142 140 145 0 0
-1.4082 5.5571 0.0951 -0.100 -0.995 0.028 154 148 152 0 0
-1.2937 5.4932 0.0946 0.405 -0.819 -0.405 234 228 228 0 0
-1.2616 5.5225 0.0952 0.526 -0.823 -0.215 175 195 219 0 0
-1.2217 5.5674 0.0959 0.642 -0.747 -0.173 200 217 235 0 0
-1.1969 5.5884 0.0963 0.580 -0.811 -0.077 206 213 223 0 0
-1.1807 5.6078 0.0967 0.462 -0.801 -0.381 234 228 230 0 0
-1.1247 5.8179 0.0998 0.066 -0.939 -0.338 106 89 95 0 0
-0.9812 5.9500 0.1022 -0.470 -0.879 -0.079 45 30 35 0 0
-0.9633 5.9769 0.1026 0.330 -0.920 -0.212 58 43 48 0 0
-0.9042 5.9415 0.1024 0.222 -0.965 -0.140 138 129 130 0 0
-0.7983 5.9051 0.1023 0.173 -0.945 -0.279 121 131 133 0 0
-0.7888 5.9068 0.1023 0.173 -0.945 -0.279 130 144 147 0 0
-0.7699 5.9140 0.1025 0.294 -0.944 -0.151 146 154 157 0 0
-0.7414 5.9269 0.1028 0.315 -0.939 -0.141 206 205 211 0 0
-0.3930 6.1930 0.1079 0.895 -0.401 -0.192 89 86 93 0 0
-0.2445 6.4352 0.1118 -0.140 -0.909 -0.393 234 229 236 0 0
-0.1804 6.4549 0.1124 0.345 -0.902 -0.261 232 231 237 0 0
-0.1433 6.5167 0.1134 -0.041 -0.964 -0.262 160 157 167 0 0
-0.1321 6.5245 0.1135 0.359 -0.906 -0.225 151 149 160 0 0
-0.1212 6.5272 0.1136 0.220 -0.957 -0.187 146 150 161 0 0
0.0738 6.6517 0.1161 -0.001 -0.956 -0.294 186 180 184 0 0
0.0845 6.6517 0.1161 -0.001 -0.956 -0.294 191 185 189 0 0
0.1330 6.6919 0.1169 0.414 -0.897 0.158 199 200 205 0 0
0.1762 6.7693 0.1181 0.489 -0.840 -0.234 194 189 196 0 0
0.2790 6.7960 0.1189 0.539 -0.841 -0.049 96 87 91 0 0
0.3640 6.9112 0.1208 -0.106 -0.919 0.380 107 95 107 0 0
0.3806 6.9435 0.1213 0.004 -0.853 0.522 116 104 116 0 0
0.4001 6.9260 0.1212 0.673 -0.729 0.124 122 112 123 0 0
0.4190 6.9057 0.1210 -0.334 -0.930 -0.155 128 122 132 0 0
0.4296 6.9019 0.1210 -0.834 -0.527 -0.163 131 128 139 0 0
0.4450 6.9260 0.1214 0.437 -0.851 -0.290 135 132 143 0 0
0.4680 6.9291 0.1215 0.524 -0.813 -0.253 142 138 152 0 0
0.4824 6.9466 0.1218 0.619 -0.762 -0.189 144 138 152 0 0
0.4754 6.8472 0.1204 -0.356 -0.895 0.270 146 140 154 0 0
0.4927 6.7057 0.1185 -0.940 -0.208 0.270 147 143 157 0 0
0.6202 5.0651 0.0961 -0.147 -0.980 0.131 18 30 55 0 0
0.6943 5.2375 0.0988 -0.381 -0.881 -0.282 20 33 62 0 0
0.7211 5.2159 0.0986 0.425 -0.904 -0.030 106 168 214 0 0
0.7307 5.2204 0.0987 0.425 -0.904 -0.030 87 175 236 0 0
0.7373 5.2148 0.0986 -0.086 -0.979 0.187 60 172 243 0 0
0.7464 5.2176 0.0987 -0.141 -0.968 -0.206 43 175 250 0 0
0.7430 5.1793 0.0982 0.447 -0.852 0.273 37 180 254 0 0
0.8484 4.0042 0.0822 0.749 -0.582 -0.316 15 183 253 0 0
0.8907 4.0875 0.0835 0.757 -0.534 -0.377 19 184 252 0 0
1.0430 4.4066 0.0886 0.631 -0.775 -0.018 20 180 253 0 0
1.0546 4.4174 0.0888 0.713 -0.699 -0.055 38 176 248 0 0
1.0657 4.4271 0.0889 0.661 -0.750 0.003 67 164 229 0 0
1.0787 4.4409 0.0892 0.553 -0.833 0.033 91 148 196 0 0
1.0835 4.4207 0.0889 -0.974 -0.198 0.108 139 137 143 0 0
1.0804 4.3682 0.0882 0.657 -0.754 0.017 161 159 162 0 0
1.1074 4.3977 0.0887 0.703 -0.711 0.016 177 175 178 0 0
1.1153 4.4001 0.0887 0.783 -0.615 -0.098 181 177 178 0 0
-3.0253 4.6941 0.0693 -0.765 -0.600 -0.236 47 35 40 0 0
-2.8983 4.5119 0.0676 -0.821 -0.546 -0.164 165 159 157 0 0
-2.8749 4.4812 0.0673 -0.797 -0.582 -0.159 159 158 154 0 0
-2.8627 4.5125 0.0677 0.529 -0.796 -0.292 138 132 132 0 0
-2.8418 4.5276 0.0680 0.584 -0.740 -0.332 113 110 113 0 0
-2.8375 4.5334 0.0681 0.621 -0.748 -0.233 97 98 99 0 0
-2.7639 4.5451 0.0685 -0.398 -0.840 -0.369 125 124 130 0 0
-2.7174 4.5093 0.0683 -0.366 -0.883 -0.295 129 125 143 0 0
-2.6945 4.4916 0.0681 -0.644 -0.740 -0.196 41 32 37 0 0
-2.7392 4.6762 0.0702 0.473 -0.262 -0.841 48 26 28 0 0
-2.6776 4.6084 0.0696 -0.710 -0.511 -0.484 68 36 41 0 0
-2.6382 4.5865 0.0695 -0.317 -0.922 -0.224 131 99 104 0 0
-2.6277 4.5795 0.0695 -0.393 -0.920 -0.011 128 104 107 0 0
-2.5929 4.5995 0.0698 0.928 -0.302 -0.219 121 118 84 0 0
-2.5924 4.6148 0.0700 0.911 -0.252 -0.326 107 101 51 0 0
-2.5895 4.6250 0.0702 0.911 -0.252 -0.326 122 112 53 0 0
-2.5821 4.6248 0.0702 0.167 -0.821 -0.546 148 133 77 0 0
-2.5387 4.6960 0.0712 0.698 -0.004 0.716 103 88 77 0 0
-2.5248 4.7164 0.0715 0.942 -0.322 -0.098 147 133 120 0 0
-2.3709 4.7270 0.0723 -0.543 -0.594 -0.594 157 146 140 0 0
-2.2565 4.6204 0.0714 -0.715 -0.409 -0.567 113 107 111 0 0
-2.2957 4.7481 0.0728 0.897 -0.046 0.439 109 99 100 0 0
-2.9211 6.6123 0.0932 0.270 -0.103 0.957 113 99 105 0 0
-2.6668 6.0638 0.0875 -0.481 -0.604 -0.635 120 111 112 0 0
-2.6531 6.0528 0.0874 -0.481 -0.556 -0.678 121 112 115 0 0
-2.6364 6.0615 0.0875 0.683 -0.363 -0.634 123 117 119 0 0
-2.6352 6.1461 0.0886 0.824 -0.556 -0.110 130 124 128 0 0
-2.3661 5.5290 0.0821 0.265 -0.197 0.944 137 136 141 0 0
-2.1624 5.3516 0.0807 0.107 -0.992 -0.072 99 97 112 0 0
-2.1996 5.6017 0.0836 0.069 -0.984 0.164 120 120 132 0 0
-2.1540 5.5362 0.0830 0.221 -0.949 0.225 139 139 151 0 0
-2.1458 5.5385 0.0831 -0.342 -0.922 0.180 142 142 154 0 0
-2.1051 5.5533 0.0834 -0.453 -0.602 -0.658 151 151 161 0 0
-1.7492 5.2299 0.0808 -0.068 -0.967 -0.246 166 165 181 0 0
-1.7430 5.2401 0.0810 0.217 -0.976 -0.025 160 159 175 0 0
-1.7234 5.2671 0.0814 0.615 -0.757 -0.220 172 165 181 0 0
-1.6741 5.3611 0.0827 -0.095 -0.995 0.040 126 124 135 0 0
-1.7251 5.8173 0.0881 -0.110 -0.991 -0.074 133 131 136 0 0
-1.6957 5.8101 0.0881 -0.485 -0.860 -0.162 137 135 140 0 0
-1.6318 5.6083 0.0859 0.259 -0.775 -0.576 141 139 144 0 0
-1.6219 5.6030 0.0859 0.078 -0.917 -0.392 141 139 142 0 0
-1.6388 5.8619 0.0890 -0.361 -0.246 -0.900 143 138 142 0 0
-1.5974 5.7829 0.0882 -0.393 -0.591 -0.704 147 142 146 0 0
-1.5839 5.7577 0.0879 0.412 -0.754 -0.511 146 141 145 0 0
-1.4121 5.5201 0.0857 -0.761 -0.641 -0.100 154 148 152 0 0
-1.2617 5.5232 0.0863 0.554 -0.804 -0.217 180 196 219 0 0
-1.2538 5.5316 0.0865 0.665 -0.733 -0.146 187 211 239 0 0
-1.1244 5.8144 0.0904 0.058 -0.906 -0.420 83 66 72 0 0
-1.1158 5.8244 0.0906 0.396 -0.849 -0.350 85 73 77 0 0
-0.9812 5.9506 0.0927 -0.420 -0.894 -0.156 44 29 34 0 0
-0.7983 5.9085 0.0929 0.127 -0.957 -0.262 135 146 150 0 0
-0.7888 5.9097 0.0929 0.127 -0.957 -0.262 154 169 174 0 0
-0.7793 5.9113 0.0930 0.173 -0.945 -0.279 142 157 160 0 0
-0.7699 5.9149 0.0930 0.424 -0.890 -0.169 151 160 165 0 0
-0.6731 6.1407 0.0962 0.979 -0.199 -0.047 27 33 55 0 0
-0.6430 6.1801 0.0968 -0.185 -0.811 -0.556 24 39 60 0 0
-0.2669 6.4123 0.1011 -0.389 -0.910 -0.145 231 229 234 0 0
-0.2566 6.4110 0.1011 0.322 -0.888 -0.327 234 227 235 0 0
-0.2440 6.4396 0.1015 0.009 -0.920 -0.391 235 230 237 0 0
-0.1906 6.4553 0.1019 0.420 -0.739 -0.526 234 231 238 0 0
-0.1316 6.5278 0.1030 0.258 -0.928 -0.269 151 149 160 0 0
-0.1208 6.5308 0.1031 0.258 -0.928 -0.269 147 151 162 0 0
0.0741 6.6534 0.1054 0.118 -0.990 -0.081 186 180 184 0 0
0.2185 6.7572 0.1072 0.395 -0.851 0.346 135 131 132 0 0
0.3642 6.9115 0.1097 -0.009 -0.998 0.070 103 93 104 0 0
0.3796 6.9364 0.1100 -0.146 -0.961 0.236 111 101 112 0 0
0.3900 6.9317 0.1100 0.248 -0.960 0.130 116 106 117 0 0
0.3962 6.9019 0.1097 0.048 -0.988 -0.146 122 112 123 0 0
0.4197 6.9084 0.1098 -0.457 -0.879 -0.138 128 122 132 0 0
0.4290 6.8974 0.1097 -0.824 -0.539 -0.173 132 129 140 0 0
0.4458 6.9291 0.1102 0.244 -0.939 -0.241 136 133 144 0 0
0.4811 6.9385 0.1104 -0.255 -0.802 -0.540 143 139 153 0 0
0.4908 6.6385 0.1068 0.172 -0.690 -0.703 148 145 156 0 0
0.7216 5.2170 0.0903 0.388 -0.921 -0.037 104 170 215 0 0
0.7311 5.2210 0.0904 0.388 -0.921 -0.037 82 174 235 0 0
0.7384 5.2179 0.0904 -0.003 -0.986 0.166 55 171 244 0 0
0.7454 5.2137 0.0904 -0.333 -0.942 -0.034 40 174 249 0 0
0.5923 4.3906 0.0797 0.763 -0.644 0.054 27 185 253 0 0
0.8519 4.0118 0.0761 0.779 -0.569 -0.262 16 185 254 0 0
1.0438 4.4079 0.0817 0.634 -0.766 -0.108 24 183 255 0 0
1.0546 4.4168 0.0819 0.740 -0.654 -0.160 43 179 249 0 0
1.0661 4.4274 0.0820 0.661 -0.750 0.003 71 164 227 0 0
1.0789 4.4408 0.0823 0.520 -0.847 0.109 92 147 193 0 0
1.0807 4.3683 0.0814 0.657 -0.754 0.017 162 160 163 0 0
1.1078 4.3979 0.0818 0.703 -0.711 0.016 177 175 176 0 0
1.1228 4.4160 0.0821 0.719 -0.694 0.036 179 177 178 0 0
-3.0251 4.6934 0.0619 -0.289 -0.930 -0.227 43 33 37 0 0
-2.9784 4.6342 0.0614 -0.821 -0.546 -0.164 123 106 109 0 0
-2.9039 4.5220 0.0605 -0.832 -0.539 -0.130 168 159 158 0 0
-2.8794 4.4894 0.0603 -0.797 -0.582 -0.159 161 158 154 0 0
-2.8550 4.4567 0.0601 -0.810 -0.568 -0.144 154 153 149 0 0
-2.8639 4.5144 0.0606 0.529 -0.796 -0.292 139 134 133 0 0
-2.8586 4.5179 0.0607 0.529 -0.796 -0.292 133 128 128 0 0
-2.8438 4.5312 0.0609 0.450 -0.827 -0.337 113 111 113 0 0
-2.8385 4.5349 0.0609 0.621 -0.748 -0.233 100 101 100 0 0
-2.7662 4.5493 0.0614 -0.362 -0.924 0.124 128 127 133 0 0
-2.7200 4.5142 0.0612 -0.350 -0.932 -0.094 126 120 141 0 0
-2.6964 4.4952 0.0611 -0.644 -0.740 -0.196 45 38 46 0 0
-2.7381 4.6734 0.0628 0.250 -0.293 -0.923 48 26 29 0 0
-2.6060 4.5796 0.0623 0.388 -0.818 -0.424 114 106 90 0 0
-2.6015 4.5857 0.0624 0.839 -0.455 -0.299 129 124 104 0 0
-2.5886 4.6224 0.0628 0.954 -0.283 -0.096 108 99 44 0 0
-2.5847 4.6301 0.0629 0.641 -0.766 -0.042 133 119 61 0 0
-2.5310 4.6774 0.0636 0.819 -0.018 0.574 96 80 65 0 0
-2.5337 4.7015 0.0639 0.755 -0.009 0.656 112 95 80 0 0
-2.3864 4.7471 0.0649 -0.582 -0.609 -0.539 156 145 136 0 0
-2.6719 6.0780 0.0778 -0.481 -0.604 -0.635 120 110 112 0 0
-2.6411 6.0457 0.0776 0.723 -0.347 -0.598 122 114 117 0 0
-2.6406 6.0732 0.0779 0.802 -0.374 -0.467 123 117 119 0 0
-2.2263 5.5386 0.0739 0.914 -0.241 0.328 93 91 105 0 0
-2.2216 5.5528 0.0740 0.738 -0.422 0.526 99 97 111 0 0
-2.1104 5.5722 0.0747 -0.720 -0.596 -0.357 152 152 162 0 0
-2.0990 5.5634 0.0746 -0.645 -0.591 -0.484 151 151 161 0 0
-2.0696 5.5203 0.0743 -0.753 -0.624 -0.210 151 149 160 0 0
-1.7587 5.2344 0.0725 -0.047 -0.970 -0.237 169 168 182 0 0
-1.7498 5.2320 0.0725 -0.068 -0.967 -0.246 167 166 182 0 0
-1.7425 5.2375 0.0726 0.161 -0.986 0.044 159 158 172 0 0
-1.6862 5.3785 0.0743 -0.329 -0.910 0.252 122 122 132 0 0
-1.6740 5.3599 0.0742 -0.189 -0.949 -0.253 124 123 131 0 0
-1.5999 5.5797 0.0768 0.502 -0.781 -0.373 145 143 146 0 0
-1.5916 5.5839 0.0769 0.625 -0.760 0.176 143 138 142 0 0
-1.5781 5.7786 0.0789 0.808 -0.431 -0.400 150 145 149 0 0
-1.2945 5.4990 0.0771 0.355 -0.880 -0.316 235 225 226 0 0
-1.1240 5.8091 0.0811 -0.033 -0.879 -0.476 85 68 74 0 0
-1.0800 5.8506 0.0817 0.253 -0.909 0.332 167 161 165 0 0
-0.9915 5.9644 0.0832 -0.790 -0.612 -0.032 40 27 34 0 0
-0.9813 5.9524 0.0831 -0.213 -0.956 -0.202 40 28 32 0 0
-0.7983 5.9092 0.0834 0.115 -0.949 -0.292 142 153 159 0 0
-0.7888 5.9123 0.0835 0.127 -0.957 -0.262 149 167 171 0 0
-0.7793 5.9141 0.0835 0.173 -0.945 -0.279 147 162 167 0 0
-0.2566 6.4097 0.0908 -0.093 -0.979 -0.181 233 228 235 0 0
-0.2437 6.4422 0.0912 0.136 -0.911 -0.390 234 229 236 0 0
-0.1897 6.4650 0.0916 0.317 -0.803 -0.505 234 231 238 0 0
-0.1312 6.5310 0.0925 0.258 -0.928 -0.269 150 148 159 0 0
-0.1203 6.5340 0.0926 0.258 -0.928 -0.269 149 151 163 0 0
0.1656 6.7691 0.0962 0.354 -0.831 0.430 199 196 203 0 0
0.1970 6.7589 0.0962 -0.193 -0.897 0.399 145 139 144 0 0
0.3678 6.9317 0.0987 0.700 -0.713 -0.048 107 97 108 0 0
0.3800 6.9377 0.0988 0.006 -0.996 -0.094 111 101 112 0 0
0.4181 6.8982 0.0985 -0.712 -0.691 -0.125 130 124 134 0 0
0.4296 6.9000 0.0986 -0.824 -0.539 -0.173 135 129 141 0 0
0.4766 6.9125 0.0989 -0.213 -0.741 -0.637 143 139 153 0 0
0.4932 6.6499 0.0962 0.172 -0.690 -0.703 148 145 156 0 0
0.2155 4.2196 0.0696 0.618 -0.729 -0.294 44 46 62 0 0
0.6429 5.1718 0.0813 -0.096 -0.585 -0.805 20 29 54 0 0
0.6754 5.1993 0.0817 0.700 -0.714 -0.016 20 31 59 0 0
0.7123 5.2126 0.0820 0.244 -0.967 -0.072 87 130 170 0 0
0.7212 5.2149 0.0821 0.244 -0.967 -0.072 105 172 220 0 0
0.7301 5.2170 0.0821 0.177 -0.974 -0.140 79 175 237 0 0
0.7382 5.2165 0.0821 -0.003 -0.986 0.166 53 173 246 0 0
0.7457 5.2139 0.0821 -0.333 -0.942 -0.034 39 175 252 0 0
0.7526 5.2096 0.0821 0.396 -0.688 -0.608 33 179 254 0 0
0.5679 4.3568 0.0724 0.834 -0.551 -0.030 34 185 255 0 0
0.5942 4.3960 0.0730 0.159 -0.529 0.834 27 185 254 0 0
1.0485 4.4181 0.0750 0.550 -0.818 0.167 29 184 254 0 0
1.0691 4.4337 0.0752 0.502 -0.831 0.241 74 161 224 0 0
1.0784 4.4390 0.0753 0.492 -0.845 0.208 95 144 190 0 0
1.0810 4.4294 0.0752 -0.824 -0.525 0.216 126 140 159 0 0
1.0810 4.3682 0.0746 0.655 -0.754 0.054 164 162 165 0 0
1.0920 4.3776 0.0747 0.542 -0.839 0.046 173 171 174 0 0
1.1081 4.3981 0.0750 0.703 -0.711 0.016 177 175 176 0 0
1.1229 4.4154 0.0752 0.791 -0.612 0.024 178 176 177 0 0
1.1725 4.3611 0.0749 0.446 -0.850 0.279 182 172 174 0 0
1.1815 4.3658 0.0750 0.446 -0.850 0.279 180 173 174 0 0
1.1922 4.3741 0.0751 0.555 -0.744 0.373 180 174 174 0 0
1.3185 4.5490 0.0774 -0.008 -0.113 0.994 180 174 173 0 0
-3.5464 5.5431 0.0598 -0.464 -0.795 0.390 109 97 91 0 0
-3.1441 4.8990 0.0558 -0.556 -0.388 0.735 38 34 36 0 0
-3.0216 4.6863 0.0544 -0.668 -0.742 -0.055 43 35 39 0 0
-2.9841 4.6443 0.0542 -0.813 -0.552 -0.186 108 94 97 0 0
-2.9103 4.5336 0.0535 -0.832 -0.539 -0.130 170 159 158 0 0
-2.8841 4.4976 0.0533 -0.797 -0.582 -0.159 164 158 154 0 0
-2.8648 4.5157 0.0535 0.672 -0.700 -0.243 140 136 133 0 0
-2.8598 4.5199 0.0536 0.602 -0.758 -0.251 132 128 127 0 0
-2.8452 4.5333 0.0537 0.450 -0.827 -0.337 114 113 113 0 0
-2.8395 4.5363 0.0538 0.621 -0.748 -0.233 102 104 103 0 0
-2.7661 4.5488 0.0542 -0.167 -0.984 0.068 132 130 136 0 0
-2.7207 4.5151 0.0541 -0.267 -0.950 0.161 117 109 132 0 0
-2.7027 4.5076 0.0541 -0.603 -0.748 -0.278 57 52 62 0 0
-2.7387 4.6900 0.0555 0.481 -0.221 -0.848 48 28 30 0 0
-2.6036 4.5898 0.0552 0.573 -0.632 -0.522 119 113 95 0 0
-2.5970 4.5916 0.0552 0.935 -0.323 -0.144 130 130 113 0 0
-2.5272 4.6856 0.0563 0.916 -0.032 0.399 109 92 75 0 0
-2.5271 4.7031 0.0565 0.848 -0.025 0.529 128 112 98 0 0
-2.4519 4.7400 0.0571 0.029 -0.999 0.039 88 81 67 0 0
-2.4427 4.7360 0.0571 0.478 -0.877 0.047 53 46 36 0 0
-2.4358 4.7377 0.0571 0.211 -0.942 0.262 45 37 32 0 0
-2.3795 4.7485 0.0575 -0.622 -0.625 -0.471 154 146 138 0 0
-2.3717 4.7478 0.0575 -0.585 -0.622 -0.521 154 148 141 0 0
-2.6890 6.1270 0.0683 0.933 -0.288 0.216 117 107 109 0 0
-2.6392 6.0976 0.0683 0.857 -0.506 -0.095 124 118 120 0 0
-2.2195 5.5453 0.0651 0.738 -0.422 0.526 96 94 108 0 0
-2.1313 5.5175 0.0652 0.632 -0.759 0.155 145 145 155 0 0
-1.7588 5.2348 0.0642 -0.068 -0.967 -0.246 172 170 183 0 0
-1.7503 5.2339 0.0642 0.113 -0.992 -0.055 162 160 174 0 0
-1.7166 5.2739 0.0647 0.594 -0.765 -0.247 178 175 192 0 0
-1.6944 5.3759 0.0657 0.461 -0.870 -0.174 134 132 145 0 0
-1.6854 5.3741 0.0657 -0.420 -0.906 0.054 121 119 130 0 0
-1.7222 5.8009 0.0693 -0.006 -0.781 -0.625 136 131 137 0 0
-1.6280 5.5860 0.0678 -0.243 -0.935 -0.259 140 138 143 0 0
-1.6184 5.5825 0.0678 -0.077 -0.976 -0.203 140 138 143 0 0
-1.5911 5.5806 0.0679 0.690 -0.706 0.162 145 140 146 0 0
-1.5774 5.6060 0.0682 -0.514 -0.667 0.539 145 140 146 0 0
-1.5671 5.5981 0.0681 -0.449 -0.580 0.680 146 141 147 0 0
-1.5537 5.5716 0.0680 -0.778 -0.561 0.284 147 142 148 0 0
-1.4083 5.5564 0.0684 -0.100 -0.995 0.028 153 147 149 0 0
-1.2464 5.5453 0.0689 0.480 -0.877 -0.018 174 196 219 0 0
-1.2379 5.5500 0.0690 0.480 -0.877 -0.018 190 214 240 0 0
-1.1061 5.8206 0.0719 0.734 -0.662 -0.150 87 72 79 0 0
-1.0980 5.8382 0.0721 0.700 -0.713 -0.035 86 71 78 0 0
-1.0797 5.8455 0.0722 0.369 -0.919 0.140 192 179 186 0 0
-1.0179 5.9205 0.0731 0.412 -0.889 -0.201 74 61 68 0 0
-0.9814 5.9540 0.0736 -0.013 -0.985 -0.171 39 30 33 0 0
-0.7793 5.9169 0.0740 0.173 -0.945 -0.279 140 155 160 0 0
-0.2564 6.4107 0.0804 -0.252 -0.939 -0.233 229 226 233 0 0
-0.1890 6.4712 0.0812 0.389 -0.809 -0.441 234 231 238 0 0
-0.1419 6.5283 0.0819 0.040 -0.953 -0.302 150 148 159 0 0
-0.1307 6.5350 0.0820 0.212 -0.933 -0.292 151 149 160 0 0
-0.1199 6.5371 0.0821 0.258 -0.928 -0.269 153 153 165 0 0
-0.1083 6.5474 0.0822 0.410 -0.881 -0.235 160 164 176 0 0
0.1961 6.7515 0.0852 0.285 -0.950 0.129 151 144 151 0 0
0.3896 6.9269 0.0875 -0.063 -0.955 -0.290 116 106 117 0 0
0.4166 6.8885 0.0873 -0.681 -0.727 -0.092 128 122 132 0 0
0.4520 6.9620 0.0881 -0.158 -0.977 -0.141 137 131 143 0 0
0.4436 6.6710 0.0855 -0.418 -0.554 -0.720 147 141 153 0 0
0.5424 6.6801 0.0860 0.940 -0.322 -0.111 204 203 212 0 0
0.6214 6.9076 0.0883 0.941 -0.332 -0.071 25 23 27 0 0
0.6425 6.9555 0.0888 0.933 -0.360 -0.034 21 19 30 0 0
0.5207 6.2200 0.0818 0.890 -0.322 0.324 20 19 33 0 0
0.6151 5.2488 0.0737 -0.546 -0.457 -0.702 20 26 50 0 0
0.6462 5.1826 0.0732 0.122 -0.702 -0.701 21 28 54 0 0
0.6716 5.2137 0.0736 0.038 -0.991 -0.131 20 29 58 0 0
0.6758 5.1999 0.0735 0.700 -0.714 -0.016 19 31 59 0 0
0.7132 5.2148 0.0738 0.044 -0.979 -0.200 96 140 184 0 0
0.7215 5.2152 0.0738 0.044 -0.979 -0.200 106 172 225 0 0
0.7299 5.2156 0.0738 0.044 -0.979 -0.200 74 173 237 0 0
0.7479 5.2204 0.0740 -0.089 -0.944 -0.316 34 174 250 0 0
0.8038 5.2942 0.0748 0.344 -0.352 -0.871 37 179 255 0 0
0.5685 4.3581 0.0657 0.795 -0.580 0.176 35 185 255 0 0
0.5801 4.3730 0.0659 0.396 -0.389 0.832 33 185 255 0 0
0.5905 4.3841 0.0660 0.369 -0.420 0.829 31 184 254 0 0
1.0484 4.4171 0.0681 0.631 -0.759 0.164 33 184 254 0 0
1.0597 4.4273 0.0682 0.684 -0.719 0.128 55 177 244 0 0
1.0683 4.4312 0.0683 0.502 -0.831 0.241 82 158 220 0 0
1.0777 4.4369 0.0684 0.492 -0.845 0.208 103 142 188 0 0
1.0804 4.4275 0.0683 -0.824 -0.525 0.216 127 139 157 0 0
1.0814 4.3685 0.0678 0.657 -0.754 0.017 165 163 166 0 0
1.0921 4.3773 0.0679 0.542 -0.839 0.046 174 172 173 0 0
1.1085 4.3983 0.0682 0.703 -0.711 0.016 179 175 176 0 0
1.1234 4.4160 0.0684 0.849 -0.502 0.168 180 176 175 0 0
1.2057 4.3875 0.0685 0.045 -0.869 0.492 176 175 171 0 0
1.2126 4.3875 0.0685 0.030 -0.842 0.539 177 173 170 0 0
1.2195 4.3878 0.0685 0.030 -0.842 0.539 177 173 172 0 0
1.2556 4.2452 0.0674 0.294 -0.714 0.635 179 174 176 0 0
1.2622 4.2325 0.0673 0.573 -0.461 0.678 178 172 169 0 0
1.2714 4.2377 0.0674 0.752 -0.650 0.108 180 172 169 0 0
1.2830 4.2475 0.0675 0.727 -0.612 0.311 180 173 170 0 0
-3.5064 5.3752 0.0499 -0.764 -0.621 0.174 119 105 102 0 0
-3.5302 5.5130 0.0508 0.346 -0.708 0.615 111 98 92 0 0
-3.0214 4.6856 0.0470 -0.721 -0.668 0.183 41 33 37 0 0
-2.8807 4.4909 0.0461 -0.827 -0.546 -0.131 166 158 156 0 0
-2.8609 4.5214 0.0464 0.602 -0.758 -0.251 133 129 127 0 0
-2.8506 4.5295 0.0465 0.602 -0.758 -0.251 122 119 120 0 0
-2.8455 4.5335 0.0466 0.621 -0.748 -0.233 115 114 114 0 0
-2.8404 4.5377 0.0466 0.621 -0.748 -0.233 104 106 105 0 0
-2.7658 4.5476 0.0470 -0.044 -0.998 0.039 135 133 140 0 0
-2.7203 4.5138 0.0469 -0.267 -0.950 0.161 110 102 126 0 0
-2.7143 4.5163 0.0470 -0.307 -0.900 -0.310 136 128 149 0 0
-2.7058 4.5136 0.0470 -0.410 -0.864 -0.292 69 67 77 0 0
-2.7226 4.6712 0.0480 -0.133 -0.428 -0.894 47 28 30 0 0
-2.7333 4.7261 0.0484 -0.825 -0.482 -0.295 55 32 38 0 0
-2.6181 4.5892 0.0479 -0.088 -0.774 -0.627 127 107 105 0 0
-2.5998 4.5972 0.0480 0.741 -0.563 -0.368 124 120 106 0 0
-2.5930 4.5983 0.0480 0.933 -0.338 0.122 134 132 113 0 0
-2.5885 4.6048 0.0481 0.911 -0.171 0.375 133 129 102 0 0
-2.5868 4.6174 0.0482 0.917 -0.184 0.355 114 106 69 0 0
-2.5819 4.6230 0.0483 0.667 -0.643 0.375 109 98 50 0 0
-2.4519 4.7397 0.0496 0.029 -0.999 0.039 110 102 86 0 0
-2.4441 4.7391 0.0496 0.176 -0.954 0.244 73 66 52 0 0
-2.4366 4.7392 0.0497 0.178 -0.872 0.456 44 36 29 0 0
-2.4224 4.7416 0.0497 0.284 -0.956 -0.070 81 69 73 0 0
-2.3822 4.7551 0.0500 -0.644 -0.567 -0.514 155 147 138 0 0
-2.3760 4.7588 0.0500 -0.636 -0.595 -0.492 154 148 141 0 0
-2.3116 4.7082 0.0499 -0.596 -0.752 -0.281 155 152 163 0 0
-2.2549 4.7385 0.0504 0.960 -0.063 0.273 112 100 104 0 0
-2.8749 6.5105 0.0604 0.651 -0.090 0.754 111 101 104 0 0
-2.6864 6.1188 0.0584 0.920 -0.312 0.236 117 107 109 0 0
-2.2173 5.5373 0.0562 0.705 -0.539 0.462 94 92 106 0 0
-1.7581 5.2308 0.0558 0.262 -0.929 0.261 167 165 178 0 0
-1.7504 5.2342 0.0559 0.040 -0.995 0.089 157 155 168 0 0
-1.6954 5.3806 0.0571 0.022 -0.998 -0.065 126 124 137 0 0
-1.6854 5.3736 0.0571 -0.420 -0.906 0.054 120 119 127 0 0
-1.7301 5.7927 0.0599 0.112 -0.988 -0.102 135 130 136 0 0
-1.5770 5.6033 0.0592 -0.156 -0.728 -0.668 145 140 146 0 0
-1.5640 5.5791 0.0590 -0.460 -0.789 -0.407 146 141 147 0 0
-1.2464 5.5459 0.0601 0.411 -0.912 0.022 168 194 219 0 0
-1.2380 5.5501 0.0601 0.480 -0.877 -0.018 187 213 240 0 0
-1.2223 5.5723 0.0603 0.544 -0.741 -0.393 191 211 236 0 0
-1.0893 5.8488 0.0628 0.326 -0.900 -0.290 137 120 128 0 0
-1.0801 5.8517 0.0629 0.305 -0.888 -0.344 171 156 163 0 0
-0.9817 5.9600 0.0640 0.139 -0.963 -0.231 39 30 33 0 0
-0.7794 5.9223 0.0646 0.044 -0.939 -0.341 139 154 161 0 0
-0.7318 5.9623 0.0650 0.051 -0.939 -0.340 207 202 208 0 0
-0.6428 6.1780 0.0669 0.582 -0.789 -0.197 26 42 65 0 0
-0.3463 6.2966 0.0689 0.728 -0.567 0.386 90 85 91 0 0
-0.2561 6.4132 0.0701 -0.252 -0.939 -0.233 234 231 238 0 0
-0.1414 6.5321 0.0714 0.182 -0.932 -0.312 150 148 159 0 0
-0.1303 6.5379 0.0715 0.157 -0.936 -0.315 151 149 160 0 0
-0.1195 6.5403 0.0716 0.258 -0.928 -0.269 154 153 167 0 0
-0.1079 6.5504 0.0717 0.410 -0.881 -0.235 163 165 180 0 0
-0.0560 6.5400 0.0718 -0.192 -0.862 -0.470 210 210 222 0 0
0.0804 6.6995 0.0735 0.590 -0.804 -0.073 184 177 184 0 0
0.1958 6.7483 0.0743 -0.037 -0.999 0.023 161 156 162 0 0
0.3809 6.9407 0.0764 -0.270 -0.821 -0.502 112 102 113 0 0
0.3925 6.9426 0.0764 -0.119 -0.898 -0.423 118 108 119 0 0
0.4190 6.9010 0.0762 0.298 -0.954 0.027 130 122 133 0 0
0.4462 6.9281 0.0765 0.392 -0.915 0.101 138 132 144 0 0
0.4632 6.9606 0.0768 0.595 -0.782 0.187 141 135 149 0 0
0.5191 6.6158 0.0746 0.943 -0.320 -0.097 169 169 181 0 0
0.6257 6.9278 0.0772 0.947 -0.309 -0.083 27 25 28 0 0
0.5159 6.1966 0.0717 0.890 -0.322 0.324 25 23 36 0 0
0.6205 5.4586 0.0669 0.872 -0.469 -0.141 19 20 33 0 0
0.6174 5.2565 0.0654 -0.596 -0.515 -0.617 19 24 48 0 0
0.6232 5.2473 0.0654 -0.460 -0.520 -0.720 19 26 51 0 0
0.6489 5.1912 0.0651 0.122 -0.702 -0.701 22 27 55 0 0
0.6721 5.2148 0.0653 0.038 -0.991 -0.131 20 29 58 0 0
0.7079 5.2244 0.0656 -0.784 -0.614 0.085 48 80 118 0 0
0.7259 5.2013 0.0655 -0.816 -0.569 -0.105 71 173 238 0 0
0.7396 5.2196 0.0656 0.178 -0.984 0.026 43 174 245 0 0
0.7500 5.2266 0.0657 0.228 -0.852 -0.472 31 175 251 0 0
0.7844 5.3124 0.0665 0.703 -0.391 -0.595 29 179 254 0 0
1.0481 4.4159 0.0612 0.604 -0.794 0.069 34 183 251 0 0
1.0592 4.4255 0.0613 0.675 -0.730 0.110 59 176 243 0 0
1.0676 4.4290 0.0614 0.433 -0.844 0.318 85 155 217 0 0
1.0765 4.4335 0.0614 -0.353 -0.923 0.152 105 139 185 0 0
1.0795 4.4247 0.0614 -0.855 -0.505 0.117 128 140 158 0 0
1.0923 4.3771 0.0611 0.542 -0.839 0.046 174 172 173 0 0
1.1020 4.3836 0.0612 0.597 -0.802 -0.023 178 174 175 0 0
1.1199 4.4078 0.0614 0.849 -0.502 0.168 180 174 174 0 0
1.1686 4.3949 0.0615 -0.550 -0.304 -0.778 180 175 172 0 0
1.1769 4.3979 0.0616 -0.553 -0.323 -0.768 182 172 175 0 0
1.1835 4.3975 0.0616 -0.819 -0.278 -0.502 184 172 176 0 0
1.2008 4.3626 0.0614 -0.675 -0.618 -0.403 176 172 171 0 0
1.2081 4.3637 0.0615 -0.531 -0.808 -0.254 177 171 173 0 0
1.4707 4.5680 0.0639 0.100 -0.135 0.986 178 174 172 0 0
