ply
format ascii 1.0
element vertex 834
property float x
property float y
property float z
property float nx
property float ny
property float nz
property uchar diffuse_red
property uchar diffuse_green
property uchar diffuse_blue
property uchar class
property uchar detection
end_header
0.2969 7.0276 1.6502 0.642 -0.702 0.308 155 146 149 0 0
0.3080 7.0307 1.6508 -0.300 -0.591 0.749 155 146 149 0 0
0.3104 6.9067 1.6176 0.193 -0.877 0.439 156 147 150 0 0
0.3540 6.9613 1.6315 -0.399 -0.441 0.804 153 145 147 0 0
0.3610 6.9475 1.6277 -0.417 -0.427 0.802 149 142 145 0 0
0.3731 6.9126 1.6182 -0.669 -0.274 0.691 142 136 140 0 0
0.4226 6.8661 1.6050 0.513 -0.717 -0.472 154 147 151 0 0
0.4972 6.8418 1.5973 0.626 -0.749 -0.218 150 141 145 0 0
0.5050 6.8335 1.5950 -0.266 -0.748 -0.608 154 145 148 0 0
0.7745 6.4095 1.4773 0.570 -0.784 -0.247 157 148 153 0 0
0.8172 6.4525 1.4882 0.611 -0.410 -0.677 153 148 154 0 0
0.8353 6.4781 1.4947 0.607 -0.370 -0.704 138 133 139 0 0
1.1520 6.6140 1.5261 0.744 -0.651 0.153 24 24 32 0 0
0.5788 4.8956 1.0756 -0.365 -0.675 -0.641 29 29 37 0 0
0.5876 4.9004 1.0767 0.361 -0.799 -0.481 29 29 38 0 0
0.5957 4.9036 1.0774 0.361 -0.799 -0.481 28 28 38 0 0
0.6069 4.9141 1.0801 0.440 -0.843 -0.309 25 26 37 0 0
0.6163 4.9203 1.0816 0.485 -0.810 -0.331 21 23 36 0 0
0.6251 4.9251 1.0827 0.485 -0.810 -0.331 19 21 34 0 0
0.6280 4.9158 1.0802 -0.335 -0.827 -0.452 18 20 33 0 0
0.7001 4.9720 1.0941 -0.565 -0.775 -0.284 15 19 30 0 0
0.6929 4.9240 1.0813 0.718 -0.671 -0.187 19 19 30 0 0
0.7180 4.9501 1.0879 0.651 -0.726 -0.221 19 22 37 0 0
0.7283 4.9578 1.0898 0.524 -0.818 -0.237 21 30 45 0 0
0.7384 4.9649 1.0916 0.487 -0.841 -0.235 39 57 75 0 0
0.7603 4.9678 1.0920 -0.166 -0.940 -0.297 64 118 158 0 0
0.7707 4.9757 1.0939 0.380 -0.862 -0.335 45 108 157 0 0
1.0067 5.3824 1.1990 -0.560 -0.712 0.423 14 99 164 0 0
1.0461 5.3858 1.1993 -0.889 -0.422 0.178 14 97 166 0 0
-3.2654 4.9214 1.1362 0.924 -0.061 0.378 106 112 101 0 0
-3.2670 4.9385 1.1408 0.938 -0.057 0.343 70 75 66 0 0
-3.3683 5.2565 1.2269 -0.798 -0.430 -0.422 101 100 95 0 0
-3.1784 4.9802 1.1504 -0.795 -0.413 -0.444 98 98 91 0 0
-3.1528 4.9428 1.1401 -0.812 -0.468 -0.350 98 98 90 0 0
-3.1237 4.8978 1.1277 -0.805 -0.543 -0.239 98 98 89 0 0
-3.1081 4.8804 1.1228 -0.671 -0.553 -0.494 99 99 89 0 0
-2.9415 4.6622 1.0622 -0.779 -0.534 -0.330 137 136 126 0 0
-2.8987 4.5851 1.0410 0.711 -0.280 0.645 143 140 131 0 0
-2.8845 4.5687 1.0365 0.753 -0.291 0.591 146 143 134 0 0
-2.7359 4.3982 0.9888 0.374 -0.906 -0.196 171 168 161 0 0
-2.7058 4.3588 0.9779 0.766 -0.538 0.351 172 169 164 0 0
-2.6916 4.3407 0.9728 0.891 -0.449 -0.071 172 169 164 0 0
-2.6416 4.2968 0.9604 0.680 -0.324 0.658 171 168 163 0 0
-2.5876 4.2131 0.9373 -0.534 -0.680 0.502 167 164 159 0 0
-2.5256 4.2075 0.9348 0.068 -0.671 -0.738 170 164 164 0 0
-2.5145 4.2096 0.9352 -0.655 -0.546 -0.522 222 217 223 0 0
-2.5064 4.2043 0.9337 -0.296 -0.624 -0.723 241 236 243 0 0
-2.4532 4.3651 0.9756 0.404 -0.843 -0.355 191 188 195 0 0
-2.4269 4.4132 0.9879 -0.473 -0.821 -0.320 198 199 205 0 0
-2.4741 4.8170 1.0960 0.619 -0.408 0.672 47 49 52 0 0
-2.6315 6.1109 1.4424 -0.934 -0.333 -0.129 98 79 63 0 0
-2.5728 5.9670 1.4032 -0.929 -0.351 -0.117 142 98 65 0 0
-1.3963 5.1813 1.1758 0.313 -0.889 -0.335 199 200 221 0 0
-1.3893 5.1885 1.1776 -0.602 -0.797 -0.044 197 198 219 0 0
-1.3736 5.1759 1.1741 -0.655 -0.739 -0.159 175 176 195 0 0
-1.2949 5.2651 1.1965 0.547 -0.808 0.219 189 186 206 0 0
-1.2646 5.2692 1.1972 -0.518 -0.792 0.322 188 184 194 0 0
-1.2572 5.2762 1.1989 0.460 -0.492 -0.739 179 173 180 0 0
-1.2491 5.2604 1.1946 0.751 -0.623 -0.219 175 166 169 0 0
-1.1540 5.7863 1.3328 0.047 -0.340 0.939 173 162 158 0 0
-1.1455 5.7892 1.3335 0.047 -0.340 0.939 172 163 158 0 0
-1.1371 5.8120 1.3394 0.072 -0.346 0.935 172 163 158 0 0
-1.1286 5.8406 1.3469 0.294 -0.312 0.903 172 163 160 0 0
-1.1201 5.8502 1.3493 0.221 -0.327 0.919 171 161 158 0 0
-1.1115 5.8351 1.3452 0.158 -0.343 0.926 173 158 157 0 0
-1.0290 5.6739 1.3010 -0.901 -0.434 0.015 176 162 161 0 0
-1.0207 5.6745 1.3010 -0.536 -0.679 0.502 176 162 161 0 0
-1.0097 5.7999 1.3342 -0.062 -0.344 0.937 176 164 161 0 0
-1.0014 5.7931 1.3323 -0.062 -0.344 0.937 176 166 163 0 0
-0.9889 5.9519 1.3743 0.086 -0.316 0.945 175 166 163 0 0
-0.9799 5.9618 1.3768 0.086 -0.316 0.945 174 165 163 0 0
-0.9063 6.8036 1.5993 -0.808 -0.563 -0.171 178 163 161 0 0
-0.9014 6.6610 1.5613 -0.493 -0.592 0.637 178 164 162 0 0
-0.8920 6.6472 1.5575 -0.492 -0.638 0.593 175 164 161 0 0
-0.8825 6.6368 1.5546 -0.384 -0.660 0.645 176 165 162 0 0
-0.8667 6.7783 1.5920 -0.862 -0.498 0.100 175 166 162 0 0
-0.8599 6.7018 1.5715 -0.844 -0.521 0.126 174 165 161 0 0
-0.8443 6.6098 1.5468 -0.486 -0.500 -0.716 173 164 161 0 0
-0.8526 6.2373 1.4480 0.115 -0.326 0.938 173 164 160 0 0
-0.8428 6.2502 1.4512 0.115 -0.326 0.938 173 163 160 0 0
-0.8294 6.3300 1.4722 0.125 -0.342 0.931 175 163 161 0 0
-0.8122 6.3022 1.4646 0.053 -0.330 0.943 177 163 162 0 0
-0.8022 6.3135 1.4674 0.076 -0.327 0.942 176 164 162 0 0
-0.7924 6.3217 1.4694 0.104 -0.329 0.939 175 164 162 0 0
-0.7786 6.3951 1.4887 0.073 -0.364 0.929 174 164 162 0 0
-0.7691 6.3963 1.4889 0.048 -0.367 0.929 174 164 162 0 0
-0.6737 6.4059 1.4900 -0.713 -0.536 -0.452 149 145 149 0 0
-0.6649 6.3974 1.4876 -0.062 -0.471 0.880 144 142 144 0 0
-0.6556 6.3961 1.4871 -0.026 -0.440 0.897 140 135 140 0 0
-0.6455 6.4034 1.4889 0.034 -0.352 0.935 139 131 137 0 0
-0.6359 6.4052 1.4892 0.034 -0.352 0.935 135 127 133 0 0
-0.6265 6.4039 1.4887 -0.053 -0.351 0.935 130 124 129 0 0
-0.6166 6.4086 1.4898 -0.029 -0.342 0.939 125 122 126 0 0
-0.6075 6.4043 1.4885 -0.029 -0.342 0.939 123 120 125 0 0
-0.5985 6.4000 1.4872 -0.029 -0.342 0.939 122 120 124 0 0
-0.5934 6.3533 1.4747 -0.045 -0.384 0.922 121 120 124 0 0
-0.5842 6.3518 1.4742 0.002 -0.384 0.923 120 119 123 0 0
-0.5400 6.4171 1.4908 -0.009 -0.360 0.933 110 116 118 0 0
-0.5308 6.4143 1.4899 -0.013 -0.365 0.931 109 116 118 0 0
-0.5069 6.3731 1.4786 0.002 -0.398 0.917 113 118 122 0 0
-0.5015 6.3367 1.4689 0.234 -0.454 0.859 116 120 124 0 0
-0.4935 6.3251 1.4657 0.605 -0.477 0.637 118 123 126 0 0
-0.4818 6.3459 1.4710 0.542 -0.471 0.697 119 123 127 0 0
-0.4209 6.4611 1.5007 -0.187 -0.871 0.454 123 127 130 0 0
-0.4124 6.4530 1.4984 -0.255 -0.896 0.364 124 128 131 0 0
-0.4025 6.4556 1.4989 -0.392 -0.919 0.037 125 129 132 0 0
-0.3217 6.2270 1.4369 0.011 -0.348 0.937 136 136 137 0 0
-0.3118 6.2319 1.4380 -0.031 -0.342 0.939 136 137 138 0 0
-0.3033 6.2277 1.4368 -0.031 -0.342 0.939 137 138 139 0 0
-0.2712 6.3180 1.4603 0.154 -0.525 0.837 139 137 141 0 0
-0.2612 6.3226 1.4613 0.154 -0.525 0.837 140 137 141 0 0
-0.2509 6.3290 1.4629 0.278 -0.482 0.831 141 138 142 0 0
-0.2430 6.3203 1.4604 0.119 -0.417 0.901 143 139 143 0 0
-0.2254 6.3145 1.4586 -0.166 -0.322 0.932 148 146 144 0 0
-0.2188 6.2983 1.4542 -0.166 -0.322 0.932 150 148 145 0 0
-0.2052 6.3248 1.4610 -0.146 -0.361 0.921 152 150 147 0 0
-0.1977 6.3139 1.4580 -0.081 -0.370 0.925 154 151 149 0 0
-0.1912 6.2973 1.4535 0.026 -0.380 0.925 156 154 152 0 0
-0.1818 6.2981 1.4536 0.026 -0.380 0.925 160 157 154 0 0
-0.1722 6.3002 1.4540 0.043 -0.384 0.922 162 158 156 0 0
-0.1621 6.3055 1.4552 -0.057 -0.386 0.921 165 160 158 0 0
-0.1523 6.3085 1.4559 0.030 -0.383 0.923 167 161 160 0 0
-0.1412 6.3188 1.4584 0.067 -0.355 0.933 170 162 162 0 0
-0.1311 6.3238 1.4596 0.067 -0.355 0.933 172 164 164 0 0
-0.1232 6.3160 1.4574 0.071 -0.379 0.922 174 166 166 0 0
-0.1132 6.3202 1.4584 0.071 -0.379 0.922 175 167 168 0 0
-0.0933 6.3274 1.4600 -0.032 -0.419 0.907 176 168 168 0 0
-0.0803 6.3472 1.4650 0.080 -0.397 0.914 177 169 169 0 0
-0.0697 6.3541 1.4667 0.119 -0.397 0.910 177 169 169 0 0
-0.0590 6.3613 1.4684 0.119 -0.397 0.910 177 168 169 0 0
-0.0472 6.3745 1.4718 -0.067 -0.355 0.932 178 168 169 0 0
-0.0438 6.3435 1.4635 -0.157 -0.356 0.921 179 168 170 0 0
-0.0367 6.3324 1.4604 -0.157 -0.356 0.921 179 168 169 0 0
-0.0226 6.3566 1.4666 -0.048 -0.381 0.923 177 166 169 0 0
-0.0079 6.3839 1.4736 -0.206 -0.514 0.833 176 165 168 0 0
-0.0021 6.3661 1.4688 0.053 -0.517 0.854 175 164 167 0 0
0.0046 6.3531 1.4653 0.212 -0.413 0.886 174 164 167 0 0
0.0170 6.3682 1.4691 0.128 -0.414 0.901 173 164 167 0 0
0.0263 6.3681 1.4689 0.076 -0.414 0.907 171 163 167 0 0
0.2304 7.0574 1.6489 0.506 -0.848 0.156 146 140 141 0 0
0.2616 7.0088 1.6355 -0.893 -0.365 0.263 152 145 146 0 0
0.3197 6.9023 1.6063 0.446 -0.808 0.385 153 146 147 0 0
0.3377 6.9354 1.6148 0.463 -0.763 0.452 153 146 147 0 0
0.3487 6.9385 1.6154 0.255 -0.865 0.432 151 144 145 0 0
0.3580 6.9344 1.6142 -0.130 -0.932 0.338 146 140 141 0 0
0.4503 6.8163 1.5814 0.450 -0.845 -0.288 141 132 137 0 0
0.4612 6.8193 1.5820 0.553 -0.724 -0.413 134 125 130 0 0
0.4734 6.8278 1.5840 0.440 -0.764 -0.473 133 124 129 0 0
0.4958 6.8363 1.5860 0.599 -0.755 -0.267 147 138 143 0 0
0.7869 6.4180 1.4702 0.630 -0.672 -0.389 156 149 156 0 0
0.8222 6.4667 1.4826 0.624 -0.376 -0.685 140 135 142 0 0
0.8398 6.4905 1.4886 0.550 -0.378 -0.744 111 108 114 0 0
0.6011 4.9162 1.0740 0.391 -0.911 -0.129 28 28 38 0 0
0.6094 4.9197 1.0748 0.391 -0.911 -0.129 25 26 37 0 0
0.6172 4.9220 1.0753 0.298 -0.942 -0.155 20 22 35 0 0
0.6250 4.9244 1.0758 0.298 -0.942 -0.155 18 20 33 0 0
0.6314 4.9234 1.0754 -0.335 -0.942 -0.004 17 19 32 0 0
0.6998 4.9708 1.0869 -0.407 -0.894 -0.185 16 19 31 0 0
0.6947 4.9275 1.0755 0.720 -0.672 -0.175 18 20 30 0 0
0.7193 4.9525 1.0818 0.626 -0.758 -0.180 18 22 37 0 0
0.7296 4.9603 1.0837 0.535 -0.832 -0.146 21 31 47 0 0
0.7393 4.9666 1.0852 0.474 -0.856 -0.209 43 62 82 0 0
0.7613 4.9696 1.0856 -0.166 -0.940 -0.297 59 116 158 0 0
0.7732 4.9806 1.0884 0.380 -0.835 -0.399 39 104 154 0 0
-4.1986 6.2437 1.4931 0.768 -0.544 0.338 164 156 150 0 0
-3.3188 5.1878 1.2004 -0.730 -0.416 -0.542 101 100 96 0 0
-3.1919 5.0071 1.1507 -0.823 -0.433 -0.368 99 98 92 0 0
-3.1617 4.9603 1.1379 -0.792 -0.426 -0.437 97 97 89 0 0
-3.1377 4.9259 1.1284 -0.804 -0.440 -0.400 97 97 88 0 0
-3.1164 4.8969 1.1204 -0.686 -0.427 -0.589 98 97 88 0 0
-3.0931 4.8636 1.1112 -0.691 -0.449 -0.567 99 98 88 0 0
-3.0812 4.8537 1.1084 -0.749 -0.508 -0.426 102 99 90 0 0
-2.9674 4.7170 1.0706 -0.811 -0.378 -0.447 134 133 123 0 0
-2.9093 4.6072 1.0406 -0.764 -0.464 -0.448 140 137 128 0 0
-2.8796 4.5720 1.0309 0.811 -0.357 0.464 148 145 136 0 0
-2.6922 4.2455 0.9417 -0.731 -0.322 -0.602 162 159 150 0 0
-2.7330 4.3912 0.9808 -0.101 -0.992 -0.077 170 167 160 0 0
-2.7139 4.3625 0.9730 0.100 -0.611 0.786 171 168 162 0 0
-2.6970 4.3665 0.9738 0.917 -0.399 0.015 172 169 164 0 0
-2.6212 4.2630 0.9452 -0.248 -0.512 0.822 171 168 163 0 0
-2.5884 4.2286 0.9356 -0.344 -0.617 0.708 165 162 157 0 0
-2.5264 4.2091 0.9295 -0.178 -0.719 -0.672 162 157 154 0 0
-2.5091 4.2103 0.9295 -0.296 -0.624 -0.723 233 228 234 0 0
-2.4789 4.2707 0.9450 0.924 -0.252 0.286 183 182 189 0 0
-2.4795 4.2880 0.9496 0.755 -0.282 0.592 183 180 187 0 0
-2.4673 4.2878 0.9494 0.635 -0.177 0.752 183 180 187 0 0
-2.4299 4.4210 0.9839 -0.632 -0.698 -0.336 211 211 217 0 0
-2.4211 4.4138 0.9819 -0.581 -0.780 -0.231 194 195 200 0 0
-2.4095 4.3989 0.9778 -0.652 -0.685 -0.325 142 143 147 0 0
-2.4102 4.4366 0.9878 0.833 -0.033 0.553 26 27 31 0 0
-2.4707 4.8062 1.0863 0.619 -0.408 0.672 47 49 52 0 0
-2.6359 6.1257 1.4374 -0.935 -0.336 -0.114 108 90 75 0 0
-2.5749 5.9735 1.3963 -0.925 -0.378 -0.041 155 110 78 0 0
-1.4448 5.1283 1.1553 0.181 -0.244 -0.953 168 163 170 0 0
-1.3965 5.1837 1.1692 0.313 -0.889 -0.335 199 200 222 0 0
-1.3740 5.1826 1.1686 -0.430 -0.761 -0.485 184 186 202 0 0
-1.3663 5.1784 1.1673 -0.344 -0.847 -0.406 177 176 194 0 0
-1.3587 5.1757 1.1665 -0.344 -0.847 -0.406 183 182 199 0 0
-1.3309 5.2202 1.1778 0.230 -0.870 -0.436 187 183 198 0 0
-1.3025 5.2643 1.1890 0.661 -0.550 0.510 185 182 201 0 0
-1.2571 5.2724 1.1904 0.823 -0.439 0.361 176 169 175 0 0
-1.1704 5.7268 1.3091 -0.109 -0.384 0.917 173 162 158 0 0
-1.1622 5.7532 1.3159 0.032 -0.348 0.937 173 162 158 0 0
-1.1535 5.7096 1.3043 -0.084 -0.352 0.932 173 162 158 0 0
-1.1451 5.6924 1.2996 0.020 -0.361 0.932 172 163 158 0 0
-1.1368 5.7022 1.3021 0.193 -0.350 0.917 172 163 158 0 0
-1.1285 5.7304 1.3094 0.277 -0.324 0.904 172 163 158 0 0
-1.1201 5.7222 1.3071 0.210 -0.342 0.916 172 163 158 0 0
-1.1117 5.7386 1.3113 0.174 -0.346 0.922 175 161 160 0 0
-1.1033 5.7556 1.3156 0.235 -0.356 0.904 175 159 159 0 0
-1.0269 5.7886 1.3232 0.033 -0.317 0.948 170 156 155 0 0
-1.0184 5.7917 1.3239 0.003 -0.309 0.951 169 154 153 0 0
-1.0106 5.7589 1.3151 -0.059 -0.318 0.946 172 157 154 0 0
-1.0032 5.7142 1.3031 -0.062 -0.344 0.937 175 162 159 0 0
-0.9921 5.8264 1.3326 0.086 -0.316 0.945 177 166 164 0 0
-0.9833 5.8366 1.3352 0.118 -0.319 0.940 176 166 164 0 0
-0.9729 5.8983 1.3513 0.225 -0.306 0.925 177 165 163 0 0
-0.9569 5.8606 1.3411 0.195 -0.337 0.921 179 164 162 0 0
-0.9474 5.8869 1.3479 0.266 -0.326 0.907 179 164 161 0 0
-0.9183 5.9696 1.3693 0.105 -0.287 0.952 176 165 161 0 0
-0.8571 6.5437 1.5200 0.028 -0.388 0.921 172 164 158 0 0
-0.8473 6.5462 1.5205 0.055 -0.417 0.907 172 164 158 0 0
-0.8381 6.5360 1.5176 0.191 -0.450 0.872 172 163 158 0 0
-0.8295 6.5127 1.5113 0.025 -0.459 0.888 173 163 159 0 0
-0.8378 6.1691 1.4207 0.216 -0.315 0.924 177 163 160 0 0
-0.8282 6.1788 1.4231 0.119 -0.322 0.939 178 164 161 0 0
-0.8185 6.1888 1.4256 0.093 -0.324 0.942 178 164 161 0 0
-0.8088 6.1988 1.4281 0.093 -0.324 0.942 176 165 161 0 0
-0.7925 6.3198 1.4598 0.116 -0.351 0.929 175 165 163 0 0
-0.7832 6.3200 1.4597 0.073 -0.364 0.929 175 165 163 0 0
-0.6732 6.4118 1.4822 -0.713 -0.536 -0.452 170 162 166 0 0
-0.6671 6.3700 1.4711 -0.130 -0.499 0.857 168 160 163 0 0
-0.6584 6.3612 1.4686 -0.062 -0.471 0.880 167 156 161 0 0
-0.6507 6.3409 1.4631 -0.035 -0.391 0.920 165 154 159 0 0
-0.6420 6.3338 1.4611 -0.014 -0.370 0.929 163 151 156 0 0
-0.5989 6.2955 1.4503 -0.045 -0.384 0.922 141 134 139 0 0
-0.5899 6.2917 1.4492 0.002 -0.384 0.923 139 132 137 0 0
-0.5287 6.3445 1.4622 -0.031 -0.368 0.929 112 116 119 0 0
-0.5195 6.3427 1.4616 0.023 -0.377 0.926 113 116 119 0 0
-0.5126 6.3207 1.4556 -0.040 -0.398 0.917 113 116 119 0 0
-0.5063 6.2940 1.4485 -0.067 -0.456 0.888 114 117 120 0 0
-0.5041 6.2313 1.4319 -0.720 -0.599 0.350 117 120 123 0 0
-0.4945 6.2350 1.4327 -0.412 -0.544 0.731 119 121 124 0 0
-0.4000 6.4006 1.4750 0.378 -0.785 0.491 125 128 131 0 0
-0.3896 6.4076 1.4767 0.282 -0.780 0.559 125 129 133 0 0
-0.3782 6.4225 1.4804 0.469 -0.734 0.491 126 130 133 0 0
-0.3689 6.4215 1.4800 0.576 -0.582 0.574 128 130 132 0 0
-0.3593 6.2187 1.4263 0.034 -0.371 0.928 131 133 135 0 0
-0.3504 6.1537 1.4090 -0.044 -0.350 0.936 131 133 135 0 0
-0.2000 6.2443 1.4306 0.076 -0.379 0.922 142 143 140 0 0
-0.0909 6.2901 1.4409 -0.021 -0.452 0.892 166 162 162 0 0
-0.0838 6.2789 1.4379 0.194 -0.464 0.865 169 164 164 0 0
-0.0536 6.2920 1.4409 -0.053 -0.418 0.907 189 180 182 0 0
0.0031 6.2994 1.4419 -0.119 -0.625 0.771 205 198 202 0 0
0.0099 6.2874 1.4387 0.171 -0.632 0.756 201 195 200 0 0
0.3221 6.9120 1.5987 0.122 -0.975 0.183 152 146 146 0 0
0.3549 6.9209 1.6006 -0.384 -0.836 0.392 147 142 143 0 0
0.4147 6.8740 1.5872 -0.087 -0.830 -0.551 153 147 151 0 0
0.4238 6.8695 1.5859 -0.301 -0.892 -0.338 152 146 150 0 0
0.4511 6.8187 1.5721 0.324 -0.930 -0.173 134 125 130 0 0
0.4747 6.8318 1.5752 0.343 -0.912 -0.226 133 124 129 0 0
0.4857 6.8356 1.5760 0.538 -0.841 -0.058 142 133 138 0 0
0.4957 6.8352 1.5757 0.600 -0.690 0.404 149 140 144 0 0
0.5095 6.8490 1.5792 0.728 -0.627 0.279 152 143 146 0 0
0.5227 6.8606 1.5820 0.748 -0.660 -0.071 154 145 148 0 0
0.7167 6.3182 1.4357 0.653 -0.323 -0.685 156 147 152 0 0
0.8037 6.4394 1.4664 0.703 -0.417 -0.576 143 138 144 0 0
0.8253 6.4751 1.4755 0.695 -0.346 -0.631 118 115 122 0 0
0.3232 4.2885 0.9058 -0.747 -0.367 0.555 36 36 41 0 0
0.6075 4.9312 1.0711 -0.567 -0.793 0.223 28 28 38 0 0
0.6104 4.9218 1.0685 0.311 -0.947 -0.079 23 24 35 0 0
0.6180 4.9236 1.0689 0.140 -0.989 -0.039 19 21 34 0 0
0.6253 4.9246 1.0691 0.140 -0.989 -0.039 17 19 32 0 0
0.6308 4.9215 1.0681 -0.532 -0.835 0.139 16 18 31 0 0
0.6957 4.9294 1.0692 0.740 -0.656 -0.148 19 20 31 0 0
0.7206 4.9551 1.0756 0.626 -0.758 -0.180 17 22 36 0 0
0.7311 4.9633 1.0776 0.626 -0.758 -0.180 21 32 48 0 0
0.7410 4.9699 1.0792 0.343 -0.914 -0.219 46 67 88 0 0
0.7665 4.9807 1.0816 0.367 -0.879 -0.304 55 114 159 0 0
0.7750 4.9843 1.0825 0.380 -0.835 -0.399 32 100 153 0 0
-4.1970 6.2402 1.4830 0.847 -0.473 0.241 163 154 149 0 0
-3.2591 4.9218 1.1223 0.902 -0.039 0.430 108 115 103 0 0
-3.3298 5.2093 1.1988 -0.730 -0.416 -0.542 102 101 97 0 0
-3.2811 5.1420 1.1804 -0.824 -0.536 -0.183 103 102 97 0 0
-3.2562 5.1071 1.1709 -0.824 -0.536 -0.183 102 101 96 0 0
-3.2289 5.0669 1.1599 -0.843 -0.517 -0.150 101 100 95 0 0
-3.1962 5.0154 1.1458 -0.845 -0.527 -0.088 99 98 92 0 0
-3.1758 4.9887 1.1385 -0.814 -0.426 -0.395 97 97 89 0 0
-3.1474 4.9454 1.1267 -0.814 -0.426 -0.395 97 95 87 0 0
-3.1258 4.9158 1.1186 -0.736 -0.430 -0.522 97 94 85 0 0
-3.0870 4.8651 1.1047 -0.795 -0.528 -0.298 100 97 88 0 0
-3.0684 4.8412 1.0981 -0.823 -0.529 -0.205 103 100 91 0 0
-2.8976 4.5958 1.0311 -0.780 -0.442 -0.443 142 139 130 0 0
-2.8805 4.5733 1.0249 0.824 -0.395 0.407 147 144 135 0 0
-2.8487 4.5188 1.0101 0.806 -0.328 0.494 150 147 138 0 0
-2.7054 4.3710 0.9690 0.540 -0.708 0.455 172 169 162 0 0
-2.6988 4.3702 0.9687 0.353 -0.622 0.699 172 169 164 0 0
-2.6529 4.3219 0.9553 0.186 -0.392 0.901 172 169 164 0 0
-2.6334 4.2908 0.9469 -0.014 -0.419 0.908 172 169 164 0 0
-2.5356 4.2310 0.9296 -0.521 -0.794 -0.313 157 152 149 0 0
-2.5301 4.2321 0.9298 -0.515 -0.756 -0.404 167 161 163 0 0
-2.5228 4.2289 0.9289 -0.414 -0.846 -0.335 194 188 192 0 0
-2.5160 4.2270 0.9283 -0.329 -0.868 -0.372 223 218 224 0 0
-2.5093 4.2253 0.9277 -0.255 -0.816 -0.519 239 236 243 0 0
-2.4799 4.2572 0.9356 0.772 -0.624 0.124 183 182 190 0 0
-2.4705 4.2487 0.9333 -0.294 -0.912 -0.287 183 182 190 0 0
-2.4484 4.2380 0.9301 0.804 -0.586 0.103 183 180 187 0 0
-2.4785 4.4153 0.9771 0.909 -0.052 0.412 185 182 189 0 0
-2.4365 4.3865 0.9689 0.951 -0.310 0.024 204 201 208 0 0
-2.4221 4.4162 0.9765 -0.581 -0.780 -0.231 208 209 214 0 0
-2.4137 4.4101 0.9747 -0.588 -0.786 -0.191 183 184 188 0 0
-2.4672 4.7949 1.0766 0.538 -0.436 0.721 48 51 55 0 0
-2.4627 4.8025 1.0785 0.549 -0.444 0.708 49 52 56 0 0
-2.8230 5.9369 1.3819 0.405 -0.351 0.844 50 55 55 0 0
-2.5764 5.9779 1.3888 -0.925 -0.378 -0.041 159 114 82 0 0
-2.5506 5.9175 1.3725 -0.921 -0.388 -0.029 160 113 80 0 0
-2.0413 5.7416 1.3184 -0.045 -0.655 0.755 165 159 163 0 0
-2.0072 5.6937 1.3053 -0.729 -0.529 0.434 162 157 161 0 0
-1.4904 5.0558 1.1298 0.584 -0.736 -0.342 164 157 165 0 0
-1.3741 5.1835 1.1615 -0.507 -0.737 -0.447 185 187 202 0 0
-1.3665 5.1804 1.1606 -0.198 -0.887 -0.417 183 182 199 0 0
-1.3589 5.1789 1.1601 -0.198 -0.887 -0.417 187 185 201 0 0
-1.3312 5.2254 1.1718 0.070 -0.847 -0.526 187 183 198 0 0
-1.3023 5.2571 1.1797 0.698 -0.592 0.403 186 183 202 0 0
-1.2642 5.2520 1.1778 0.745 -0.538 0.394 183 177 184 0 0
-1.2569 5.2643 1.1809 0.745 -0.538 0.394 174 168 172 0 0
-1.1531 5.6461 1.2795 0.026 -0.364 0.931 174 163 159 0 0
-1.1449 5.6536 1.2813 0.151 -0.358 0.922 172 163 158 0 0
-1.1366 5.6390 1.2773 0.304 -0.362 0.881 172 162 158 0 0
-1.1284 5.6677 1.2848 0.309 -0.348 0.885 170 161 156 0 0
-1.1201 5.6732 1.2861 0.236 -0.375 0.896 174 164 159 0 0
-1.1118 5.6863 1.2894 0.236 -0.375 0.896 177 163 161 0 0
-1.1035 5.6995 1.2927 0.236 -0.375 0.896 177 161 160 0 0
-1.0951 5.7015 1.2931 0.113 -0.384 0.916 177 160 160 0 0
-1.0868 5.7072 1.2945 0.113 -0.384 0.916 177 160 159 0 0
-1.0784 5.7162 1.2967 -0.062 -0.385 0.921 177 160 159 0 0
-1.0701 5.7118 1.2954 -0.062 -0.385 0.921 175 161 159 0 0
-1.0618 5.7074 1.2941 -0.062 -0.385 0.921 174 160 158 0 0
-1.0535 5.7031 1.2929 -0.062 -0.385 0.921 171 159 156 0 0
-1.0452 5.6987 1.2916 -0.062 -0.385 0.921 172 160 157 0 0
-1.0292 5.6630 1.2820 -0.841 -0.463 0.279 173 157 156 0 0
-1.0213 5.6480 1.2779 -0.731 -0.535 0.424 170 154 153 0 0
-1.0133 5.6356 1.2745 -0.597 -0.515 0.615 174 155 153 0 0
-1.0049 5.6463 1.2772 0.017 -0.458 0.889 177 160 158 0 0
-0.9966 5.6473 1.2773 0.086 -0.450 0.889 178 165 164 0 0
-0.9800 5.6528 1.2785 0.086 -0.450 0.889 181 167 166 0 0
-0.9715 5.6625 1.2809 0.412 -0.444 0.796 179 165 164 0 0
-0.9631 5.6651 1.2815 0.603 -0.446 0.661 179 164 161 0 0
-0.9455 5.6980 1.2898 0.674 -0.437 0.596 179 164 161 0 0
-0.9366 5.7134 1.2937 0.528 -0.462 0.712 177 163 160 0 0
-0.8678 6.5235 1.5053 -0.109 -0.379 0.919 174 164 160 0 0
-0.8551 6.1866 1.4167 -0.057 -0.284 0.957 174 162 158 0 0
-0.8469 6.1688 1.4119 -0.057 -0.284 0.957 175 162 159 0 0
-0.8227 6.1130 1.3969 -0.077 -0.296 0.952 177 162 160 0 0
-0.8147 6.0970 1.3925 -0.077 -0.296 0.952 176 164 161 0 0
-0.7999 6.1953 1.4181 0.108 -0.315 0.943 175 165 163 0 0
-0.7165 6.4709 1.4891 -0.381 -0.919 0.103 180 166 168 0 0
-0.6643 6.4051 1.4710 -0.782 -0.421 -0.461 175 166 168 0 0
-0.6599 6.3425 1.4545 -0.146 -0.534 0.833 174 163 166 0 0
-0.5642 6.2711 1.4343 0.075 -0.353 0.933 151 142 146 0 0
-0.5544 6.2759 1.4354 0.024 -0.365 0.931 143 138 141 0 0
-0.5443 6.2845 1.4375 0.007 -0.354 0.935 136 134 136 0 0
-0.5357 6.2785 1.4358 -0.031 -0.368 0.929 131 130 133 0 0
-0.5258 6.2843 1.4372 0.054 -0.368 0.928 127 126 130 0 0
-0.5171 6.2797 1.4358 0.023 -0.377 0.926 122 122 125 0 0
-0.5091 6.2680 1.4326 -0.046 -0.400 0.915 119 118 120 0 0
-0.5003 6.2647 1.4316 -0.046 -0.400 0.915 118 118 121 0 0
-0.4956 6.2248 1.4211 -0.324 -0.488 0.811 121 120 122 0 0
-0.4876 6.2151 1.4184 -0.355 -0.478 0.803 124 123 127 0 0
-0.4814 6.1902 1.4118 -0.347 -0.490 0.799 126 125 129 0 0
-0.4748 6.1690 1.4061 -0.105 -0.440 0.892 125 125 128 0 0
-0.4664 6.1640 1.4047 -0.088 -0.424 0.902 124 123 127 0 0
-0.4576 6.1618 1.4039 -0.073 -0.419 0.905 124 124 128 0 0
-0.4520 6.1340 1.3966 -0.097 -0.449 0.888 125 126 129 0 0
-0.4441 6.1255 1.3942 -0.185 -0.423 0.887 125 126 129 0 0
-0.4362 6.1172 1.3919 -0.185 -0.423 0.887 125 127 129 0 0
-0.4200 6.1037 1.3881 -0.222 -0.416 0.882 127 129 133 0 0
-0.3353 6.3239 1.4446 0.117 -0.542 0.832 129 132 133 0 0
-0.3253 6.3286 1.4457 0.270 -0.512 0.816 130 133 135 0 0
-0.3143 6.3403 1.4485 0.383 -0.521 0.763 130 134 135 0 0
-0.3021 6.3599 1.4535 0.593 -0.558 0.581 130 134 136 0 0
-0.2934 6.3553 1.4522 0.401 -0.686 0.607 131 135 137 0 0
-0.2887 6.3248 1.4441 0.074 -0.608 0.790 133 135 138 0 0
-0.1272 6.1918 1.4067 0.132 -0.377 0.917 147 144 144 0 0
-0.0979 6.2519 1.4220 0.193 -0.522 0.831 151 149 150 0 0
-0.0885 6.2534 1.4222 0.161 -0.608 0.777 154 153 153 0 0
-0.0810 6.2446 1.4198 -0.476 -0.594 0.648 166 163 164 0 0
-0.0735 6.2361 1.4174 -0.476 -0.594 0.648 184 180 183 0 0
-0.0681 6.2164 1.4122 -0.701 -0.546 0.459 202 196 199 0 0
-0.0613 6.2050 1.4091 -0.701 -0.546 0.459 213 206 210 0 0
-0.0119 6.3159 1.4374 -0.295 -0.881 0.371 222 217 222 0 0
-0.0043 6.3077 1.4352 -0.587 -0.800 0.122 223 220 224 0 0
0.0032 6.2994 1.4329 -0.780 -0.579 0.238 225 221 226 0 0
0.0059 6.2673 1.4244 -0.330 -0.821 0.466 221 217 223 0 0
0.0380 6.2028 1.4070 0.216 -0.807 -0.549 135 129 132 0 0
0.3322 6.9111 1.5883 0.279 -0.706 -0.650 149 143 144 0 0
0.3423 6.9106 1.5880 0.061 -0.806 -0.589 145 139 140 0 0
0.3527 6.9113 1.5880 -0.638 -0.760 -0.121 142 137 139 0 0
0.3609 6.9029 1.5857 -0.604 -0.790 -0.107 144 140 141 0 0
0.4057 6.8779 1.5784 -0.326 -0.942 -0.086 152 146 149 0 0
0.4136 6.8689 1.5759 0.098 -0.966 0.238 153 147 149 0 0
0.4982 6.8439 1.5680 0.709 -0.695 0.119 152 143 147 0 0
0.5118 6.8569 1.5712 0.736 -0.660 0.150 154 145 148 0 0
0.5234 6.8624 1.5725 0.733 -0.647 -0.211 154 145 148 0 0
0.7061 6.3133 1.4255 0.686 -0.318 -0.654 155 146 151 0 0
0.8097 6.4564 1.4615 0.724 -0.412 -0.554 130 125 132 0 0
0.9203 6.5029 1.4719 -0.499 -0.363 0.787 82 77 81 0 0
0.6080 4.9319 1.0645 -0.608 -0.750 0.262 27 27 37 0 0
0.6109 4.9225 1.0620 0.311 -0.947 -0.079 23 24 35 0 0
0.6188 4.9250 1.0625 0.311 -0.947 -0.079 19 21 34 0 0
0.6221 4.9166 1.0602 0.645 -0.758 -0.094 18 20 33 0 0
0.6972 4.9325 1.0632 0.740 -0.656 -0.148 19 20 33 0 0
0.7220 4.9576 1.0694 0.626 -0.758 -0.180 17 22 37 0 0
0.7332 4.9676 1.0719 0.608 -0.770 -0.193 22 36 52 0 0
0.7684 4.9845 1.0758 0.380 -0.835 -0.399 51 114 160 0 0
0.7767 4.9875 1.0764 0.418 -0.802 -0.427 26 97 150 0 0
1.6227 6.5316 1.4685 -0.260 -0.773 0.578 15 99 169 0 0
1.6305 6.5282 1.4675 -0.260 -0.773 0.578 15 101 170 0 0
-3.6936 5.2612 1.2106 -0.763 -0.624 -0.167 143 133 124 0 0
-3.2564 4.9302 1.1174 0.900 -0.035 0.434 97 104 93 0 0
-3.2905 5.1604 1.1780 -0.814 -0.489 -0.314 100 99 94 0 0
-3.2680 5.1303 1.1698 -0.766 -0.450 -0.458 100 99 94 0 0
-3.2337 5.0760 1.1551 -0.833 -0.525 -0.175 99 98 93 0 0
-3.2016 5.0257 1.1415 -0.833 -0.552 -0.044 98 97 91 0 0
-3.1751 4.9865 1.1309 -0.833 -0.552 -0.044 97 96 88 0 0
-3.1585 4.9675 1.1256 -0.814 -0.426 -0.395 95 93 85 0 0
-3.1271 4.9179 1.1122 -0.759 -0.502 -0.414 94 91 82 0 0
-3.1114 4.9002 1.1074 -0.784 -0.553 -0.282 95 92 83 0 0
-3.0912 4.8732 1.1000 -0.791 -0.598 -0.127 96 93 84 0 0
-3.0755 4.8554 1.0951 -0.783 -0.608 0.133 99 96 87 0 0
-3.0514 4.8197 1.0854 -0.829 -0.517 -0.213 101 98 89 0 0
-2.9026 4.6060 1.0274 -0.801 -0.412 -0.434 139 136 127 0 0
-2.8799 4.5715 1.0180 -0.794 -0.395 -0.462 144 141 132 0 0
-2.8564 4.5349 1.0081 -0.805 -0.377 -0.458 147 144 134 0 0
-2.7812 4.4130 0.9751 -0.790 -0.377 -0.483 157 153 143 0 0
-2.5850 4.2767 0.9365 0.908 -0.364 -0.209 158 155 148 0 0
-2.5357 4.2307 0.9238 0.175 -0.945 -0.276 156 151 148 0 0
-2.5290 4.2290 0.9232 0.326 -0.900 -0.290 161 155 156 0 0
-2.5237 4.2307 0.9236 0.464 -0.831 -0.308 180 174 176 0 0
-2.5140 4.2363 0.9249 0.127 -0.927 -0.352 233 228 234 0 0
-2.5086 4.2379 0.9252 0.458 -0.840 -0.290 242 239 246 0 0
-2.5039 4.2410 0.9260 0.454 -0.805 -0.381 243 242 250 0 0
-2.4988 4.2435 0.9265 0.547 -0.786 -0.286 240 240 250 0 0
-2.4940 4.2466 0.9273 0.547 -0.786 -0.286 233 233 243 0 0
-2.4897 4.2510 0.9283 0.779 -0.621 -0.087 217 217 227 0 0
-2.4846 4.2532 0.9288 0.480 -0.827 -0.291 196 196 206 0 0
-2.4806 4.2586 0.9302 0.801 -0.591 0.100 186 186 194 0 0
-2.4715 4.2507 0.9280 -0.294 -0.912 -0.287 184 183 191 0 0
-2.4763 4.2787 0.9354 0.929 -0.224 0.294 184 181 190 0 0
-2.4526 4.2327 0.9230 -0.202 -0.627 -0.752 182 179 187 0 0
-2.4481 4.2368 0.9240 0.293 -0.952 -0.082 183 180 187 0 0
-2.4724 4.4153 0.9709 0.940 -0.061 0.335 187 184 191 0 0
-2.4539 4.4164 0.9709 0.935 -0.314 0.164 199 196 203 0 0
-2.4146 4.4122 0.9692 -0.603 -0.774 -0.193 203 204 209 0 0
-2.4051 4.4032 0.9667 -0.684 -0.672 -0.283 171 172 177 0 0
-2.4047 4.4559 0.9805 0.790 -0.030 0.612 22 23 27 0 0
-2.4101 4.4898 0.9894 0.762 -0.057 0.645 23 24 28 0 0
-2.4590 4.7905 1.0686 0.210 -0.525 0.825 50 53 57 0 0
-2.6365 6.1260 1.4197 -0.933 -0.344 -0.110 106 90 76 0 0
-2.5774 5.9808 1.3809 -0.932 -0.345 -0.109 156 112 81 0 0
-2.5499 5.9144 1.3631 -0.928 -0.371 -0.010 153 107 74 0 0
-2.5232 5.8495 1.3458 -0.925 -0.378 0.033 137 96 66 0 0
-2.6322 6.4560 1.5057 -0.114 -0.381 -0.917 143 136 138 0 0
-1.5147 5.0811 1.1297 -0.267 -0.712 -0.649 164 157 164 0 0
-1.5060 5.0664 1.1257 -0.871 -0.486 0.074 164 157 165 0 0
-1.4768 5.0657 1.1251 0.404 -0.838 -0.366 166 158 170 0 0
-1.4690 5.0602 1.1235 0.608 -0.648 -0.458 166 158 169 0 0
-1.3967 5.1840 1.1547 0.224 -0.950 -0.218 191 192 214 0 0
-1.3820 5.1892 1.1558 -0.651 -0.737 -0.179 182 184 199 0 0
-1.3744 5.1868 1.1551 -0.365 -0.867 -0.339 181 182 195 0 0
-1.3669 5.1868 1.1550 0.076 -0.937 -0.341 185 183 199 0 0
-1.3593 5.1845 1.1542 0.408 -0.912 -0.052 189 186 203 0 0
-1.3462 5.2221 1.1638 0.860 -0.491 -0.143 190 186 201 0 0
-1.3318 5.2362 1.1673 0.445 -0.829 -0.338 186 182 197 0 0
-1.2451 5.6932 1.2851 -0.235 -0.400 0.886 177 166 164 0 0
-1.2166 5.5198 1.2395 -0.397 -0.589 -0.704 178 164 161 0 0
-1.1602 5.5016 1.2338 -0.590 -0.480 -0.649 172 161 157 0 0
-1.1522 5.5127 1.2366 -0.755 -0.646 -0.112 173 162 158 0 0
-1.1442 5.5071 1.2350 -0.559 -0.656 -0.507 174 163 159 0 0
-1.1284 5.6128 1.2623 0.224 -0.378 0.898 173 160 157 0 0
-1.1202 5.6195 1.2640 0.146 -0.390 0.909 175 161 158 0 0
-1.1120 5.6266 1.2657 0.146 -0.390 0.909 176 162 159 0 0
-1.1036 5.6705 1.2770 0.119 -0.364 0.924 179 163 160 0 0
-1.0954 5.6499 1.2715 0.113 -0.384 0.916 183 164 162 0 0
-1.0872 5.6555 1.2728 0.113 -0.384 0.916 184 163 162 0 0
-1.0788 5.6650 1.2752 0.072 -0.388 0.919 184 162 162 0 0
-1.0706 5.6621 1.2743 -0.063 -0.391 0.918 186 163 163 0 0
-1.0623 5.6606 1.2738 -0.018 -0.390 0.921 186 166 165 0 0
-1.0542 5.6516 1.2713 -0.062 -0.385 0.921 184 167 165 0 0
-1.0462 5.6354 1.2669 -0.116 -0.394 0.912 185 169 167 0 0
-1.0380 5.6338 1.2664 -0.068 -0.398 0.915 186 171 168 0 0
-1.0302 5.6138 1.2611 0.043 -0.419 0.907 187 172 169 0 0
-1.0220 5.6146 1.2611 0.106 -0.429 0.897 189 171 169 0 0
-1.0138 5.6135 1.2607 0.019 -0.447 0.894 190 170 169 0 0
-0.9972 5.6233 1.2630 0.175 -0.466 0.867 190 173 173 0 0
-0.9805 5.6346 1.2657 0.294 -0.478 0.828 191 176 175 0 0
-0.9731 5.6097 1.2591 0.609 -0.744 0.276 187 172 171 0 0
-0.9377 5.6847 1.2781 0.343 -0.461 0.818 178 164 161 0 0
-0.9285 5.7081 1.2841 -0.095 -0.379 0.921 176 165 161 0 0
-0.8566 5.8103 1.3096 0.536 -0.284 0.795 177 162 159 0 0
-0.8200 6.0033 1.3594 0.221 -0.605 0.765 175 163 161 0 0
-0.8107 6.0123 1.3616 0.185 -0.580 0.794 176 163 163 0 0
-0.7869 6.1101 1.3867 0.326 -0.334 0.884 176 163 163 0 0
-0.6800 6.4462 1.4727 -0.835 -0.508 -0.212 177 168 172 0 0
-0.6711 6.4386 1.4706 -0.728 -0.446 -0.520 177 168 170 0 0
-0.6633 6.4169 1.4648 -0.748 -0.409 -0.523 176 167 168 0 0
-0.6591 6.3525 1.4480 -0.702 -0.664 0.256 175 165 166 0 0
-0.6524 6.3205 1.4395 -0.707 -0.605 0.366 177 167 168 0 0
-0.6487 6.2549 1.4223 -0.221 -0.406 0.887 178 167 168 0 0
-0.6404 6.2442 1.4194 -0.204 -0.400 0.894 175 165 166 0 0
-0.6323 6.2322 1.4162 -0.183 -0.379 0.907 174 165 167 0 0
-0.6238 6.2251 1.4142 -0.162 -0.393 0.905 174 165 167 0 0
-0.5953 6.1413 1.3919 0.079 -0.356 0.931 177 159 165 0 0
-0.5815 6.1892 1.4042 0.128 -0.366 0.922 177 159 165 0 0
-0.5616 6.2060 1.4082 0.024 -0.365 0.931 166 156 160 0 0
-0.5424 6.2149 1.4103 -0.014 -0.348 0.937 158 154 156 0 0
-0.5331 6.2158 1.4103 0.069 -0.361 0.930 152 149 151 0 0
-0.5235 6.2203 1.4114 0.069 -0.361 0.930 147 144 146 0 0
-0.5144 6.2200 1.4111 -0.003 -0.395 0.919 142 138 140 0 0
-0.5058 6.2155 1.4098 -0.046 -0.400 0.915 136 132 134 0 0
-0.4970 6.2123 1.4089 -0.046 -0.400 0.915 134 130 132 0 0
-0.4883 6.2084 1.4077 -0.052 -0.403 0.914 134 131 133 0 0
-0.4795 6.2057 1.4069 -0.046 -0.400 0.915 132 128 131 0 0
-0.4795 6.1298 1.3871 -0.092 -0.429 0.899 131 128 130 0 0
-0.4712 6.1241 1.3855 -0.088 -0.424 0.902 127 124 127 0 0
-0.4626 6.1203 1.3843 -0.073 -0.419 0.905 126 123 126 0 0
-0.4227 6.0831 1.3740 -0.160 -0.416 0.895 128 127 131 0 0
-0.4161 6.0659 1.3694 -0.639 -0.367 0.676 128 127 130 0 0
-0.4109 6.0382 1.3621 -0.532 -0.451 0.717 129 129 131 0 0
-0.3992 6.0593 1.3674 -0.169 -0.418 0.892 129 129 131 0 0
-0.3960 6.0183 1.3567 -0.374 -0.458 0.807 129 130 132 0 0
-0.3836 6.0442 1.3633 -0.071 -0.436 0.897 129 130 132 0 0
-0.3752 6.0407 1.3622 -0.071 -0.436 0.897 130 131 133 0 0
-0.3009 6.3678 1.4464 0.088 -0.546 0.833 132 134 138 0 0
-0.2912 6.3700 1.4468 0.088 -0.546 0.833 132 134 138 0 0
-0.2810 6.3754 1.4480 -0.217 -0.483 0.848 132 134 138 0 0
-0.2714 6.3767 1.4482 -0.257 -0.448 0.856 133 134 138 0 0
-0.2308 6.3374 1.4373 0.351 -0.529 0.772 134 137 140 0 0
-0.2242 6.3205 1.4328 0.017 -0.541 0.841 133 139 138 0 0
-0.2066 6.3149 1.4311 -0.332 -0.710 0.621 134 140 140 0 0
-0.2081 6.2497 1.4141 -0.633 -0.742 -0.221 135 140 140 0 0
-0.1513 6.2087 1.4025 -0.266 -0.953 0.143 140 140 140 0 0
-0.1241 6.2082 1.4020 -0.392 -0.873 -0.291 142 140 142 0 0
-0.1160 6.2030 1.4005 -0.192 -0.907 -0.374 143 141 143 0 0
-0.1072 6.2014 1.4000 -0.192 -0.907 -0.374 144 143 145 0 0
-0.0979 6.2026 1.4001 0.038 -0.980 -0.196 146 146 148 0 0
-0.0876 6.2095 1.4018 0.037 -0.995 -0.095 160 160 162 0 0
-0.0784 6.2099 1.4017 0.037 -0.995 -0.095 185 185 188 0 0
-0.0693 6.2098 1.4015 -0.356 -0.904 0.238 209 207 212 0 0
-0.0610 6.2062 1.4005 -0.356 -0.904 0.238 222 219 224 0 0
-0.0189 6.2804 1.4192 0.420 -0.894 0.156 228 227 232 0 0
-0.0045 6.3063 1.4257 -0.636 -0.760 0.131 228 228 233 0 0
0.0032 6.2988 1.4236 -0.863 -0.500 0.071 227 227 232 0 0
0.0056 6.2654 1.4149 -0.816 -0.578 0.028 223 222 228 0 0
0.0282 6.1990 1.3972 -0.363 -0.873 -0.326 142 137 141 0 0
0.2485 6.9951 1.6014 -0.375 -0.849 0.372 149 143 145 0 0
0.3215 6.9082 1.5776 -0.155 -0.511 -0.846 148 142 145 0 0
0.3344 6.9195 1.5804 0.096 -0.652 -0.752 144 138 140 0 0
0.3451 6.9216 1.5808 -0.066 -0.720 -0.691 139 133 135 0 0
0.3549 6.9196 1.5801 -0.052 -0.861 -0.507 136 130 132 0 0
0.3653 6.9205 1.5801 0.478 -0.824 -0.303 139 134 135 0 0
0.3989 6.8909 1.5719 -0.369 -0.554 0.746 150 144 146 0 0
0.4079 6.8860 1.5705 -0.296 -0.626 0.722 151 145 147 0 0
0.4160 6.8777 1.5682 -0.213 -0.800 0.561 151 145 147 0 0
0.4291 6.8495 1.5606 -0.445 -0.663 0.602 148 142 146 0 0
0.4981 6.8429 1.5578 0.696 -0.717 0.049 153 144 148 0 0
0.5124 6.8588 1.5617 0.790 -0.613 0.024 154 145 148 0 0
0.5273 6.8763 1.5661 0.762 -0.638 0.107 154 145 148 0 0
0.7553 6.4055 1.4397 0.736 -0.637 -0.231 156 147 152 0 0
0.7679 6.4152 1.4421 0.501 -0.812 -0.300 156 146 154 0 0
0.7947 6.4393 1.4479 0.588 -0.708 -0.392 140 135 142 0 0
0.8103 5.6103 1.2315 -0.297 -0.522 0.800 41 38 47 0 0
0.6075 4.9302 1.0573 -0.387 -0.914 0.120 27 27 38 0 0
0.6123 4.9254 1.0559 0.174 -0.979 -0.102 23 23 36 0 0
0.6179 4.9224 1.0551 -0.361 -0.923 -0.134 19 21 34 0 0
0.6176 4.9053 1.0506 -0.485 -0.821 -0.301 18 20 33 0 0
0.6799 4.9080 1.0503 0.803 -0.578 -0.145 17 20 32 0 0
0.6996 4.9374 1.0577 0.720 -0.672 -0.175 19 21 34 0 0
0.7233 4.9602 1.0633 0.626 -0.758 -0.180 19 25 41 0 0
0.7352 4.9715 1.0660 0.634 -0.758 -0.154 28 43 60 0 0
0.7703 4.9881 1.0698 0.380 -0.835 -0.399 48 114 162 0 0
0.7788 4.9917 1.0706 0.418 -0.802 -0.427 24 97 153 0 0
1.6132 6.5507 1.4643 -0.702 -0.678 -0.216 15 99 170 0 0
1.6054 6.5144 1.4549 0.625 -0.648 -0.436 16 100 171 0 0
1.6201 6.5254 1.4576 0.582 -0.705 -0.405 17 101 172 0 0
1.6243 6.5145 1.4546 -0.225 -0.939 -0.260 16 103 173 0 0
-4.1846 6.2334 1.4626 0.929 -0.122 0.350 163 153 147 0 0
-3.1949 5.0265 1.1345 -0.820 -0.437 -0.368 97 94 87 0 0
-3.1696 4.9898 1.1246 -0.814 -0.426 -0.395 97 94 86 0 0
-3.1334 4.9301 1.1085 -0.728 -0.502 -0.467 96 93 84 0 0
-3.1164 4.9099 1.1030 -0.775 -0.544 -0.322 95 92 83 0 0
-3.0943 4.8790 1.0947 -0.798 -0.574 -0.182 94 91 82 0 0
-3.0742 4.8520 1.0874 -0.807 -0.587 0.065 95 92 83 0 0
-3.0562 4.8292 1.0812 -0.829 -0.517 -0.213 95 92 83 0 0
-3.0306 4.7901 1.0707 -0.787 -0.498 -0.364 96 93 84 0 0
-2.8900 4.5925 1.0173 -0.794 -0.395 -0.462 142 138 127 0 0
-2.8680 4.5592 1.0083 -0.805 -0.377 -0.458 146 142 131 0 0
-2.8449 4.5236 0.9987 -0.811 -0.374 -0.450 149 145 134 0 0
-2.7933 4.4390 0.9760 -0.811 -0.374 -0.450 156 152 141 0 0
-2.5469 4.2428 0.9213 -0.375 -0.917 0.139 155 150 146 0 0
-2.5372 4.2339 0.9188 0.457 -0.884 -0.103 156 151 148 0 0
-2.5297 4.2302 0.9178 0.536 -0.775 -0.336 157 151 151 0 0
-2.5248 4.2327 0.9183 0.310 -0.856 -0.414 166 160 162 0 0
-2.5148 4.2378 0.9195 0.504 -0.835 -0.220 222 217 223 0 0
-2.5099 4.2406 0.9201 0.504 -0.835 -0.220 238 235 242 0 0
-2.5050 4.2434 0.9208 0.504 -0.835 -0.220 243 242 249 0 0
-2.4997 4.2453 0.9212 0.505 -0.860 0.076 243 243 251 0 0
-2.4951 4.2488 0.9220 0.550 -0.835 -0.011 239 239 248 0 0
-2.4901 4.2513 0.9226 0.590 -0.804 -0.078 228 228 238 0 0
-2.4854 4.2548 0.9235 0.620 -0.780 -0.086 208 208 218 0 0
-2.4807 4.2583 0.9243 0.745 -0.667 0.024 192 190 201 0 0
-2.4717 4.2506 0.9221 -0.360 -0.818 -0.449 184 183 191 0 0
-2.4646 4.2478 0.9213 -0.413 -0.836 -0.362 184 181 190 0 0
-2.4494 4.2395 0.9189 0.033 -0.960 -0.277 183 180 187 0 0
-2.4880 4.4059 0.9626 0.969 -0.099 0.224 184 181 188 0 0
-2.4800 4.4012 0.9613 0.981 -0.096 0.166 183 180 187 0 0
-2.4243 4.4210 0.9656 -0.533 -0.798 -0.280 211 210 218 0 0
-2.4071 4.4081 0.9620 -0.603 -0.774 -0.193 198 198 204 0 0
-2.3956 4.3933 0.9580 0.059 -0.992 0.111 150 150 155 0 0
-2.4007 4.4621 0.9759 0.800 -0.038 0.599 23 22 27 0 0
-2.4055 4.4945 0.9843 0.800 -0.038 0.599 25 26 29 0 0
-2.4542 4.7757 1.0580 0.210 -0.525 0.825 50 54 57 0 0
-2.7721 5.8609 1.3441 -0.628 -0.556 0.544 93 96 97 0 0
-2.5813 5.9938 1.3756 -0.935 -0.346 -0.081 140 98 68 0 0
-2.5509 5.9168 1.3552 -0.932 -0.362 -0.028 143 97 66 0 0
-2.5209 5.8406 1.3350 -0.934 -0.358 0.015 133 93 62 0 0
-2.7049 6.5419 1.5196 -0.863 -0.396 0.313 111 83 56 0 0
-2.6353 6.4668 1.4991 -0.127 -0.397 -0.909 149 142 144 0 0
-2.6249 6.4645 1.4983 -0.432 -0.470 -0.769 157 147 148 0 0
-1.5153 5.0868 1.1240 -0.365 -0.737 -0.568 164 157 164 0 0
-1.3969 5.1853 1.1477 0.316 -0.926 -0.205 185 186 207 0 0
-1.3895 5.1872 1.1481 0.224 -0.950 -0.218 178 179 198 0 0
-1.3821 5.1899 1.1487 -0.563 -0.809 -0.167 174 176 191 0 0
-1.3743 5.1848 1.1472 -0.563 -0.809 -0.167 174 176 189 0 0
-1.3671 5.1891 1.1482 0.280 -0.821 -0.497 184 181 198 0 0
-1.3535 5.2147 1.1546 0.881 -0.460 -0.108 190 186 201 0 0
-1.3464 5.2248 1.1572 0.742 -0.662 0.109 189 185 200 0 0
-1.3394 5.2345 1.1596 0.686 -0.702 0.193 188 184 199 0 0
-1.3105 5.2688 1.1680 0.766 -0.521 -0.376 186 183 202 0 0
-1.2536 5.6971 1.2781 -0.444 -0.359 0.821 177 165 163 0 0
-1.2353 5.6308 1.2606 -0.846 -0.490 0.209 178 166 163 0 0
-1.1605 5.5310 1.2336 -0.639 -0.609 -0.471 174 162 158 0 0
-1.1523 5.5204 1.2307 -0.669 -0.558 -0.491 175 163 159 0 0
-1.1202 5.5124 1.2282 0.332 -0.799 -0.502 172 157 154 0 0
-1.1122 5.5184 1.2296 -0.494 -0.857 -0.144 177 161 157 0 0
-1.1041 5.5294 1.2323 0.066 -0.989 0.129 186 168 165 0 0
-1.0957 5.6089 1.2528 0.001 -0.408 0.913 191 168 167 0 0
-1.0875 5.6083 1.2525 0.001 -0.408 0.913 190 164 164 0 0
-1.0793 5.6120 1.2534 0.072 -0.379 0.922 191 163 164 0 0
-1.0711 5.6154 1.2541 0.072 -0.379 0.922 194 165 166 0 0
-1.0629 5.6162 1.2542 -0.048 -0.373 0.926 199 172 173 0 0
-1.0548 5.6124 1.2531 -0.048 -0.373 0.926 203 179 178 0 0
-1.0466 5.6085 1.2520 -0.048 -0.373 0.926 205 186 184 0 0
-1.0388 5.5887 1.2467 -0.068 -0.398 0.915 206 190 186 0 0
-1.0308 5.5841 1.2454 0.001 -0.405 0.915 208 192 189 0 0
-1.0228 5.5755 1.2430 0.043 -0.419 0.907 212 194 191 0 0
-1.0146 5.5806 1.2442 -0.003 -0.442 0.897 214 192 191 0 0
-1.0065 5.5805 1.2441 0.019 -0.447 0.894 214 189 189 0 0
-0.9980 5.5943 1.2475 0.284 -0.501 0.818 213 188 191 0 0
-0.9898 5.5957 1.2478 0.478 -0.510 0.715 211 187 189 0 0
-0.9813 5.6084 1.2509 0.362 -0.642 0.676 207 185 185 0 0
-0.9733 5.6041 1.2497 0.599 -0.800 -0.028 201 180 180 0 0
-0.9291 5.6919 1.2717 0.890 -0.378 0.254 177 166 162 0 0
-0.8976 5.4812 1.2166 0.359 -0.819 0.446 177 163 160 0 0
-0.8602 5.7404 1.2832 0.530 -0.296 0.794 176 163 159 0 0
-0.8215 5.9784 1.3443 0.136 -0.810 0.570 175 161 160 0 0
-0.8126 5.9801 1.3446 0.136 -0.810 0.570 175 161 161 0 0
-0.8030 5.9926 1.3477 0.436 -0.691 0.576 175 162 162 0 0
-0.7942 5.9931 1.3477 0.131 -0.717 0.685 176 161 161 0 0
-0.7859 5.9856 1.3456 0.023 -0.717 0.697 176 164 162 0 0
-0.7548 6.0545 1.3630 -0.026 -0.347 0.937 177 167 162 0 0
-0.7183 6.0675 1.3658 -0.042 -0.305 0.951 177 166 168 0 0
-0.6774 6.0240 1.3539 -0.030 -0.324 0.946 176 166 166 0 0
-0.6690 6.0192 1.3525 -0.030 -0.324 0.946 176 167 168 0 0
-0.6605 6.0145 1.3512 -0.030 -0.324 0.946 175 167 168 0 0
-0.6211 6.0586 1.3620 0.036 -0.354 0.935 176 165 168 0 0
-0.6121 6.0603 1.3623 0.036 -0.354 0.935 178 162 167 0 0
-0.6027 6.0651 1.3634 0.079 -0.356 0.931 179 162 167 0 0
-0.5885 6.1184 1.3770 0.128 -0.366 0.922 180 163 167 0 0
-0.5804 6.1101 1.3747 0.075 -0.353 0.933 177 163 167 0 0
-0.5615 6.1189 1.3767 0.050 -0.342 0.938 170 164 166 0 0
-0.5522 6.1223 1.3774 0.050 -0.342 0.938 172 165 167 0 0
-0.5410 6.1426 1.3825 0.069 -0.361 0.930 169 162 164 0 0
-0.5315 6.1469 1.3835 0.069 -0.361 0.930 167 160 162 0 0
-0.5214 6.1572 1.3860 0.023 -0.377 0.926 166 159 160 0 0
-0.5122 6.1581 1.3861 -0.010 -0.374 0.927 161 154 156 0 0
-0.5033 6.1565 1.3855 -0.010 -0.374 0.927 158 151 152 0 0
-0.4937 6.1615 1.3867 0.004 -0.383 0.924 155 148 150 0 0
-0.4848 6.1603 1.3862 0.024 -0.391 0.920 151 144 146 0 0
-0.4760 6.1588 1.3857 0.091 -0.392 0.915 148 141 142 0 0
-0.4669 6.1592 1.3857 0.144 -0.390 0.910 143 136 139 0 0
-0.4568 6.1677 1.3877 0.144 -0.390 0.910 138 132 135 0 0
-0.4517 6.1357 1.3794 -0.055 -0.448 0.892 135 129 133 0 0
-0.4276 6.0453 1.3556 -0.160 -0.416 0.895 130 126 130 0 0
-0.4042 6.0226 1.3493 -0.169 -0.418 0.892 131 130 132 0 0
-0.3991 5.9952 1.3421 -0.374 -0.458 0.807 131 130 133 0 0
-0.3888 6.0067 1.3449 -0.126 -0.407 0.905 131 130 133 0 0
-0.3809 6.0003 1.3432 -0.126 -0.407 0.905 131 131 133 0 0
-0.3655 6.0467 1.3549 0.118 -0.401 0.909 131 131 134 0 0
-0.3558 6.0528 1.3564 0.118 -0.401 0.909 131 132 135 0 0
-0.2961 6.2133 1.3971 0.488 -0.401 0.775 133 133 138 0 0
-0.2415 6.4484 1.4571 -0.677 -0.398 0.619 134 134 139 0 0
-0.2349 6.4295 1.4521 -0.677 -0.398 0.619 133 133 138 0 0
-0.2320 6.3295 1.4262 -0.206 -0.745 0.634 132 134 138 0 0
-0.2233 6.3256 1.4250 -0.496 -0.654 0.571 132 136 138 0 0
-0.1926 6.3428 1.4290 -0.096 -0.560 0.823 136 139 141 0 0
-0.1838 6.3397 1.4281 -0.556 -0.644 0.525 136 139 140 0 0
-0.1759 6.3310 1.4257 -0.556 -0.644 0.525 137 139 140 0 0
-0.1659 6.3353 1.4266 -0.205 -0.826 0.526 139 140 141 0 0
-0.1696 6.2599 1.4071 -0.264 -0.671 0.693 140 141 141 0 0
-0.1612 6.2556 1.4059 -0.354 -0.731 0.584 139 140 141 0 0
-0.1515 6.2584 1.4065 -0.556 -0.730 -0.396 140 139 141 0 0
-0.1509 6.2107 1.3941 -0.162 -0.981 0.110 140 139 141 0 0
-0.1262 6.1963 1.3900 -0.087 -0.876 -0.473 142 140 143 0 0
-0.1173 6.1956 1.3897 -0.087 -0.876 -0.473 143 140 144 0 0
-0.1076 6.1989 1.3904 -0.274 -0.832 -0.482 142 142 145 0 0
-0.0984 6.1994 1.3904 -0.112 -0.938 -0.329 145 147 150 0 0
-0.0889 6.2018 1.3909 -0.014 -0.930 -0.367 161 163 166 0 0
-0.0798 6.2021 1.3908 0.067 -0.916 -0.395 187 189 193 0 0
-0.0703 6.2041 1.3912 -0.325 -0.938 -0.118 211 211 217 0 0
-0.0618 6.2013 1.3903 -0.325 -0.938 -0.118 223 223 230 0 0
-0.0530 6.1999 1.3898 -0.214 -0.974 0.079 227 227 234 0 0
-0.0413 6.2133 1.3931 0.275 -0.961 0.019 228 229 235 0 0
-0.0193 6.2780 1.4095 0.537 -0.840 -0.081 228 230 236 0 0
-0.0047 6.3050 1.4163 -0.576 -0.811 0.100 228 230 236 0 0
0.0037 6.3008 1.4151 -0.857 -0.513 0.047 226 228 234 0 0
0.0173 6.2331 1.3973 -0.875 -0.484 0.021 182 180 186 0 0
0.0204 6.2045 1.3898 -0.232 -0.879 -0.417 155 152 157 0 0
0.0291 6.2025 1.3892 -0.232 -0.879 -0.417 138 133 138 0 0
0.2390 7.0464 1.6047 -0.344 -0.709 0.616 146 139 142 0 0
0.2468 7.0340 1.6013 -0.673 -0.467 0.574 150 142 146 0 0
0.2748 6.8823 1.5616 0.455 -0.542 -0.707 150 144 147 0 0
0.2854 6.8843 1.5619 0.316 -0.507 -0.802 150 143 148 0 0
0.3353 6.9228 1.5711 0.341 -0.557 -0.757 140 132 137 0 0
0.3475 6.9311 1.5731 0.073 -0.652 -0.754 135 128 133 0 0
0.3560 6.9236 1.5710 -0.004 -0.832 -0.555 135 129 132 0 0
0.3945 6.8726 1.5572 -0.323 -0.545 0.774 149 143 145 0 0
0.4027 6.8646 1.5550 -0.323 -0.545 0.774 150 144 146 0 0
0.4151 6.8738 1.5572 -0.306 -0.693 0.653 149 143 145 0 0
0.4268 6.8397 1.5482 -0.276 -0.621 0.733 145 137 141 0 0
0.4629 6.8234 1.5434 0.371 -0.918 0.139 143 134 139 0 0
0.4772 6.8396 1.5474 0.253 -0.861 -0.442 148 139 144 0 0
0.4895 6.8479 1.5493 0.489 -0.848 -0.202 151 142 147 0 0
0.4995 6.8474 1.5490 0.680 -0.729 -0.071 152 143 147 0 0
0.5278 6.8775 1.5564 0.677 -0.718 0.164 153 144 147 0 0
0.7060 6.3119 1.4070 0.757 -0.296 -0.582 158 149 154 0 0
0.7569 6.4097 1.4316 0.685 -0.659 -0.311 156 146 154 0 0
0.7695 6.4194 1.4339 0.492 -0.836 -0.244 153 145 152 0 0
0.7968 6.4448 1.4401 0.652 -0.687 -0.322 126 121 128 0 0
0.2582 4.4065 0.9202 -0.610 -0.436 0.661 83 78 84 0 0
0.6122 4.9411 1.0532 -0.332 -0.937 0.112 28 28 39 0 0
0.6125 4.9254 1.0491 -0.099 -0.992 -0.081 23 24 37 0 0
0.6184 4.9232 1.0485 -0.361 -0.923 -0.134 19 21 34 0 0
0.6185 4.9071 1.0443 -0.485 -0.821 -0.301 18 20 32 0 0
0.6820 4.9123 1.0447 0.803 -0.578 -0.145 16 20 32 0 0
0.7012 4.9407 1.0517 0.720 -0.672 -0.175 18 21 33 0 0
0.7246 4.9628 1.0571 0.626 -0.758 -0.180 19 27 43 0 0
0.7364 4.9738 1.0598 0.634 -0.758 -0.154 33 50 68 0 0
0.7636 4.9883 1.0631 0.356 -0.933 -0.056 58 115 161 0 0
0.7710 4.9894 1.0633 0.438 -0.838 -0.326 42 111 162 0 0
0.7799 4.9937 1.0642 0.438 -0.838 -0.326 21 97 155 0 0
1.6109 6.5253 1.4483 0.436 -0.660 -0.612 17 102 173 0 0
1.6195 6.5236 1.4477 -0.287 -0.796 -0.533 18 103 175 0 0
1.6221 6.5094 1.4440 -0.798 -0.433 -0.418 18 105 176 0 0
-4.1275 6.6034 1.5478 -0.839 -0.486 -0.245 138 149 132 0 0
-3.2398 5.1025 1.1476 -0.690 -0.352 -0.633 96 94 88 0 0
-3.1686 5.0022 1.1207 -0.746 -0.333 -0.576 97 94 86 0 0
-3.1277 4.9327 1.1021 -0.823 -0.563 -0.069 95 92 84 0 0
-3.0996 4.8894 1.0905 -0.744 -0.632 0.216 93 90 81 0 0
-3.0750 4.8531 1.0808 -0.747 -0.588 0.308 92 89 80 0 0
-3.0499 4.8153 1.0707 -0.641 -0.606 0.471 91 88 79 0 0
-3.0348 4.7985 1.0661 -0.162 -0.475 0.865 91 88 79 0 0
-3.0424 4.8292 1.0742 -0.631 -0.747 0.210 94 91 82 0 0
-2.9316 4.6671 1.0307 -0.795 -0.412 -0.444 133 129 118 0 0
-2.8994 4.6123 1.0161 -0.799 -0.404 -0.445 140 136 125 0 0
-2.8805 4.5859 1.0090 -0.809 -0.381 -0.448 145 141 130 0 0
-2.8546 4.5440 0.9978 -0.811 -0.384 -0.441 148 144 133 0 0
-2.8302 4.5050 0.9874 -0.822 -0.392 -0.413 150 146 135 0 0
-2.7784 4.4197 0.9646 -0.809 -0.396 -0.435 157 153 142 0 0
-2.6076 4.2433 0.9165 -0.725 -0.330 -0.605 170 167 162 0 0
-2.5979 4.3212 0.9365 -0.744 -0.563 -0.359 156 156 148 0 0
-2.5832 4.3008 0.9310 -0.770 -0.516 -0.375 157 154 147 0 0
-2.5463 4.2407 0.9149 -0.368 -0.911 0.188 156 151 147 0 0
-2.5306 4.2319 0.9124 0.536 -0.775 -0.336 157 152 149 0 0
-2.5248 4.2324 0.9125 0.563 -0.820 -0.097 159 153 153 0 0
-2.5151 4.2380 0.9138 0.532 -0.841 -0.099 208 203 207 0 0
-2.5106 4.2417 0.9146 0.563 -0.825 0.047 230 228 233 0 0
-2.5056 4.2443 0.9152 0.453 -0.892 0.014 241 240 246 0 0
-2.5002 4.2458 0.9155 0.458 -0.885 0.082 244 243 249 0 0
-2.4956 4.2495 0.9164 0.562 -0.824 0.066 240 240 248 0 0
-2.4905 4.2520 0.9170 0.678 -0.735 0.012 234 234 244 0 0
-2.4861 4.2561 0.9180 0.555 -0.831 0.032 217 217 227 0 0
-2.4809 4.2581 0.9184 -0.236 -0.880 -0.411 198 196 207 0 0
-2.4742 4.2564 0.9179 -0.282 -0.868 -0.409 185 183 194 0 0
-2.4672 4.2541 0.9171 -0.355 -0.752 -0.555 185 182 191 0 0
-2.4511 4.2435 0.9142 -0.345 -0.796 -0.498 184 181 188 0 0
-2.4806 4.4023 0.9555 0.993 -0.095 0.069 182 179 186 0 0
-2.3861 4.3837 0.9493 0.013 -0.993 -0.116 127 126 131 0 0
-2.3991 4.4755 0.9731 0.823 -0.050 0.565 27 27 30 0 0
-2.4497 4.7616 1.0476 0.206 -0.553 0.808 50 53 58 0 0
-2.4348 4.7374 1.0411 0.366 -0.482 0.796 50 54 57 0 0
-2.7662 5.8418 1.3306 -0.420 -0.603 0.679 92 95 97 0 0
-2.7513 5.8228 1.3255 -0.366 -0.641 0.675 85 89 90 0 0
-2.5853 6.0075 1.3705 -0.936 -0.347 -0.063 141 100 71 0 0
-2.6366 6.4706 1.4906 0.053 -0.352 -0.934 151 144 146 0 0
-2.6286 6.4774 1.4922 -0.497 -0.486 -0.719 156 147 149 0 0
-1.5150 5.2491 1.1587 -0.513 -0.304 -0.803 165 158 165 0 0
-1.4044 5.1856 1.1406 0.686 -0.727 0.015 188 186 209 0 0
-1.3966 5.1809 1.1393 0.613 -0.787 0.073 179 180 201 0 0
-1.3894 5.1852 1.1403 0.332 -0.924 0.189 172 173 190 0 0
-1.3745 5.1865 1.1404 -0.670 -0.737 0.090 171 172 186 0 0
-1.3668 5.1819 1.1391 -0.530 -0.841 0.108 184 181 198 0 0
-1.3534 5.2117 1.1465 0.845 -0.489 0.215 191 187 202 0 0
-1.3393 5.2324 1.1516 0.753 -0.654 0.073 187 183 198 0 0
-1.2518 5.6274 1.2520 0.340 -0.831 0.439 177 163 160 0 0
-1.2439 5.6418 1.2556 -0.097 -0.465 0.880 177 163 160 0 0
-1.2350 5.6146 1.2484 -0.447 -0.521 0.727 177 163 160 0 0
-1.2264 5.5971 1.2438 0.078 -0.758 0.648 178 164 161 0 0
-1.2179 5.5782 1.2388 0.192 -0.863 0.466 177 163 160 0 0
-1.2100 5.5929 1.2425 -0.046 -0.742 0.668 178 164 161 0 0
-1.2019 5.5960 1.2431 -0.208 -0.738 0.642 178 164 161 0 0
-1.1932 5.5624 1.2343 -0.066 -0.792 -0.607 178 164 161 0 0
-1.1850 5.5566 1.2327 0.029 -0.623 -0.781 179 165 162 0 0
-1.1768 5.5477 1.2303 0.105 -0.444 -0.890 180 166 163 0 0
-1.1687 5.5485 1.2304 0.100 -0.459 -0.883 180 166 163 0 0
-1.1607 5.5517 1.2311 -0.819 -0.432 -0.378 180 166 163 0 0
-1.1445 5.5457 1.2293 -0.722 -0.587 -0.367 180 166 163 0 0
-1.1364 5.5362 1.2267 -0.745 -0.575 -0.338 178 164 161 0 0
-1.1202 5.5183 1.2219 0.219 -0.874 -0.433 172 155 153 0 0
-1.1042 5.5262 1.2236 -0.145 -0.986 0.078 188 166 163 0 0
-1.0798 5.5626 1.2326 0.017 -0.409 0.913 188 150 153 0 0
-1.0717 5.5628 1.2326 0.031 -0.383 0.923 190 151 154 0 0
-1.0636 5.5615 1.2321 -0.048 -0.373 0.926 200 163 166 0 0
-0.9981 5.5909 1.2387 0.509 -0.808 0.296 212 174 181 0 0
