ply
format ascii 1.0
element vertex 841
property float x
property float y
property float z
property float nx
property float ny
property float nz
property uchar diffuse_red
property uchar diffuse_green
property uchar diffuse_blue
property uchar class
property uchar detection
end_header
1.9893 4.4920 -0.1296 0.810 -0.587 0.001 144 160 203 0 0
1.9958 4.5010 -0.1299 0.810 -0.587 0.001 142 159 202 0 0
2.0025 4.5162 -0.1305 0.861 -0.507 -0.038 141 158 201 0 0
2.0091 4.5247 -0.1308 0.902 -0.398 -0.164 142 159 202 0 0
2.0156 4.5341 -0.1312 0.844 -0.469 -0.260 142 160 202 0 0
2.0225 4.5522 -0.1318 0.870 -0.395 -0.296 142 160 202 0 0
2.0293 4.5647 -0.1323 0.828 -0.480 -0.290 140 158 200 0 0
2.0357 4.5696 -0.1326 0.765 -0.644 0.017 139 156 199 0 0
2.0423 4.5774 -0.1329 0.765 -0.644 0.017 138 156 198 0 0
2.0489 4.5852 -0.1333 0.765 -0.644 0.017 138 155 196 0 0
2.0555 4.5932 -0.1336 0.777 -0.622 -0.101 138 153 193 0 0
2.0622 4.6024 -0.1340 0.846 -0.533 -0.032 135 152 193 0 0
2.0689 4.6101 -0.1343 0.850 -0.499 0.168 136 153 194 0 0
2.0756 4.6198 -0.1347 0.906 -0.414 0.092 136 154 196 0 0
2.0826 4.6351 -0.1353 0.906 -0.414 0.092 137 154 197 0 0
2.0895 4.6463 -0.1357 0.908 -0.418 0.023 135 153 195 0 0
2.0965 4.6605 -0.1362 0.856 -0.516 -0.029 133 151 193 0 0
2.1037 4.6775 -0.1368 0.733 -0.679 0.032 133 151 193 0 0
2.1110 4.6954 -0.1374 0.760 -0.650 -0.021 130 148 189 0 0
2.1182 4.7104 -0.1380 0.590 -0.805 0.051 125 142 184 0 0
2.1245 4.7086 -0.1381 0.529 -0.849 0.015 117 131 172 0 0
2.1311 4.7135 -0.1383 0.157 -0.986 0.049 103 113 153 0 0
-3.0597 4.9111 -0.0427 0.924 -0.343 0.167 146 162 208 0 0
-0.7932 3.8237 -0.0603 0.594 -0.768 0.239 114 67 77 0 0
-0.6615 3.8713 -0.0643 0.704 -0.613 0.357 123 108 101 0 0
-0.6542 3.8747 -0.0646 0.557 -0.763 0.328 132 115 111 0 0
-0.6504 3.8836 -0.0649 0.505 -0.649 0.569 158 145 134 0 0
-0.5744 3.8682 -0.0661 0.616 -0.666 0.421 165 155 160 0 0
-0.5622 3.9240 -0.0679 0.760 -0.458 0.461 148 138 136 0 0
-0.5593 3.9347 -0.0682 0.653 -0.654 0.381 140 132 127 0 0
-0.3357 3.8516 -0.0706 0.293 -0.955 0.041 98 50 61 0 0
-0.3344 3.8967 -0.0719 0.830 -0.534 0.162 97 47 56 0 0
-0.3302 3.9052 -0.0722 0.841 -0.533 0.087 98 47 57 0 0
0.0910 3.7835 -0.0776 0.042 -0.994 -0.103 91 62 77 0 0
0.2945 3.6441 -0.0781 0.886 -0.460 0.063 111 60 68 0 0
0.2992 3.6509 -0.0784 0.950 -0.288 0.123 112 61 70 0 0
0.3013 3.6637 -0.0788 0.949 -0.279 0.145 114 64 72 0 0
0.3050 3.6728 -0.0791 0.936 -0.331 0.117 114 64 73 0 0
0.3085 3.6826 -0.0794 0.936 -0.331 0.117 112 61 70 0 0
0.3120 3.6924 -0.0798 0.936 -0.331 0.117 110 62 71 0 0
0.3148 3.7039 -0.0801 0.921 -0.372 0.112 111 66 74 0 0
0.3271 3.7294 -0.0811 0.923 -0.359 0.141 108 60 70 0 0
0.3312 3.7381 -0.0814 0.950 -0.293 0.112 109 62 71 0 0
0.3343 3.7493 -0.0818 0.976 -0.177 -0.130 109 64 71 0 0
0.3371 3.7611 -0.0822 0.964 -0.254 -0.079 109 64 70 0 0
0.3405 3.7717 -0.0825 0.942 -0.331 0.064 108 60 68 0 0
0.3449 3.7800 -0.0828 0.901 -0.435 -0.002 108 61 70 0 0
0.3488 3.7893 -0.0832 0.914 -0.405 0.031 109 64 71 0 0
1.3058 3.4837 -0.0948 0.452 -0.865 -0.218 108 81 103 0 0
1.3110 3.4874 -0.0950 0.678 -0.723 -0.132 105 80 101 0 0
1.3156 3.4950 -0.0953 0.705 -0.696 -0.137 102 77 94 0 0
1.3290 3.5205 -0.0963 0.927 -0.324 -0.188 73 51 59 0 0
1.3330 3.5322 -0.0967 0.927 -0.324 -0.188 72 53 60 0 0
1.3370 3.5440 -0.0971 0.927 -0.324 -0.188 79 59 69 0 0
1.3410 3.5564 -0.0975 0.914 -0.357 -0.192 83 62 71 0 0
1.3453 3.5674 -0.0979 0.875 -0.444 -0.192 87 67 76 0 0
1.3498 3.5764 -0.0983 0.875 -0.444 -0.192 88 68 80 0 0
1.3731 3.5761 -0.0987 -0.271 -0.765 0.584 71 53 61 0 0
1.4060 3.7314 -0.1037 0.477 -0.869 0.132 73 60 78 0 0
1.4112 3.7375 -0.1039 0.098 -0.975 -0.197 80 60 72 0 0
1.4684 3.7566 -0.1056 0.634 -0.766 0.105 101 120 154 0 0
1.4739 3.7611 -0.1059 0.634 -0.766 0.105 107 120 155 0 0
1.4794 3.7652 -0.1061 0.654 -0.730 0.201 91 89 121 0 0
1.4884 3.7939 -0.1071 0.903 -0.368 -0.222 49 57 83 0 0
1.5431 3.7739 -0.1077 -0.245 -0.957 0.158 64 66 87 0 0
1.5929 3.8061 -0.1096 0.071 -0.995 0.065 130 147 187 0 0
1.6107 3.7998 -0.1098 0.614 -0.737 -0.284 133 145 185 0 0
1.6161 3.8044 -0.1100 0.614 -0.737 -0.284 124 132 176 0 0
1.6216 3.8091 -0.1103 0.614 -0.737 -0.284 118 130 174 0 0
1.6271 3.8137 -0.1105 0.614 -0.737 -0.284 135 154 195 0 0
1.6326 3.8182 -0.1107 0.271 -0.949 -0.159 148 166 208 0 0
1.6869 3.7558 -0.1102 -0.281 -0.955 0.090 146 162 205 0 0
1.6925 3.7554 -0.1103 -0.544 -0.824 0.159 142 154 199 0 0
1.6983 3.7514 -0.1103 -0.677 -0.729 0.103 139 153 198 0 0
1.7098 3.7403 -0.1102 -0.690 -0.707 0.157 149 165 208 0 0
1.7964 4.1861 -0.1242 0.864 -0.499 0.069 147 164 207 0 0
1.8022 4.1996 -0.1247 0.872 -0.391 0.293 148 165 208 0 0
1.8082 4.2113 -0.1251 0.807 -0.485 0.336 147 165 208 0 0
1.8141 4.2198 -0.1255 0.820 -0.571 0.041 148 166 210 0 0
1.8202 4.2257 -0.1258 0.697 -0.711 0.096 150 167 210 0 0
1.8262 4.2315 -0.1261 0.697 -0.711 0.096 148 165 208 0 0
1.8322 4.2439 -0.1265 0.823 -0.561 0.092 147 164 207 0 0
1.8382 4.2574 -0.1270 0.809 -0.587 0.010 147 164 206 0 0
1.8443 4.2601 -0.1272 0.897 -0.422 0.128 148 165 208 0 0
1.8504 4.2732 -0.1277 0.803 -0.594 -0.044 149 166 208 0 0
1.8565 4.2826 -0.1281 0.776 -0.623 0.095 148 165 207 0 0
1.8626 4.2878 -0.1284 0.639 -0.751 0.169 145 163 205 0 0
1.8687 4.3039 -0.1289 0.669 -0.639 0.380 146 164 206 0 0
1.8748 4.3032 -0.1290 0.719 -0.670 0.187 147 165 207 0 0
1.8810 4.3092 -0.1293 0.658 -0.633 0.408 147 164 207 0 0
1.8872 4.3288 -0.1300 0.869 -0.453 0.201 146 164 207 0 0
1.8934 4.3405 -0.1304 0.869 -0.453 0.201 145 165 207 0 0
1.8997 4.3525 -0.1309 0.822 -0.519 0.234 145 164 206 0 0
1.9060 4.3623 -0.1313 0.822 -0.519 0.234 146 163 206 0 0
1.9122 4.3720 -0.1317 0.822 -0.519 0.234 144 162 204 0 0
1.9185 4.3818 -0.1321 0.822 -0.519 0.234 144 162 205 0 0
1.9249 4.3979 -0.1327 0.820 -0.565 -0.096 145 163 206 0 0
1.9313 4.4071 -0.1331 0.820 -0.565 -0.096 143 162 204 0 0
1.9376 4.4164 -0.1334 0.820 -0.565 -0.096 142 159 202 0 0
1.9440 4.4257 -0.1338 0.820 -0.565 -0.096 140 158 199 0 0
1.9504 4.4351 -0.1342 0.820 -0.565 -0.096 137 155 197 0 0
1.9567 4.4420 -0.1345 0.846 -0.534 0.004 140 157 200 0 0
1.9631 4.4522 -0.1349 0.846 -0.534 0.004 142 159 202 0 0
1.9696 4.4624 -0.1354 0.846 -0.534 0.004 142 159 202 0 0
1.9761 4.4737 -0.1358 0.810 -0.587 0.001 142 159 202 0 0
1.9826 4.4827 -0.1362 0.810 -0.587 0.001 140 157 200 0 0
1.9890 4.4918 -0.1366 0.844 -0.536 -0.016 140 157 199 0 0
1.9955 4.5006 -0.1369 0.810 -0.587 0.001 142 159 201 0 0
2.0023 4.5162 -0.1375 0.861 -0.507 -0.038 142 159 201 0 0
2.0089 4.5275 -0.1380 0.861 -0.507 -0.038 141 158 201 0 0
2.0154 4.5348 -0.1383 0.876 -0.482 0.023 140 157 200 0 0
2.0220 4.5454 -0.1387 0.876 -0.480 -0.052 140 157 200 0 0
2.0289 4.5633 -0.1394 0.794 -0.603 0.070 139 156 199 0 0
2.0354 4.5690 -0.1396 0.765 -0.644 0.017 138 153 195 0 0
2.0420 4.5768 -0.1400 0.765 -0.644 0.017 135 152 193 0 0
2.0486 4.5847 -0.1403 0.765 -0.644 0.017 136 150 194 0 0
2.0553 4.5941 -0.1407 0.777 -0.622 -0.101 135 150 193 0 0
2.0619 4.6024 -0.1411 0.777 -0.622 -0.101 134 150 192 0 0
2.0686 4.6112 -0.1415 0.823 -0.554 0.125 135 150 193 0 0
2.0754 4.6218 -0.1419 0.843 -0.537 0.017 134 152 195 0 0
2.0822 4.6327 -0.1424 0.906 -0.414 0.092 135 155 196 0 0
2.0891 4.6451 -0.1428 0.908 -0.418 0.023 135 152 195 0 0
2.0962 4.6595 -0.1434 0.801 -0.594 0.073 133 150 194 0 0
2.1034 4.6768 -0.1440 0.733 -0.679 0.032 134 150 192 0 0
2.1101 4.6841 -0.1443 0.733 -0.679 0.032 130 148 189 0 0
2.1179 4.7097 -0.1452 0.590 -0.805 0.051 126 142 185 0 0
2.1244 4.7121 -0.1454 0.157 -0.986 0.049 118 132 175 0 0
2.1308 4.7131 -0.1456 0.157 -0.986 0.049 105 114 157 0 0
-3.0560 4.9071 -0.0542 0.892 -0.389 0.231 146 162 208 0 0
-1.6609 4.3295 -0.0656 0.384 -0.894 -0.229 76 49 66 0 0
-1.6446 4.3390 -0.0662 0.610 -0.781 0.138 93 52 60 0 0
-0.7930 3.8231 -0.0684 0.461 -0.882 0.099 97 55 63 0 0
-0.6953 3.8353 -0.0707 0.302 -0.927 0.221 155 149 137 0 0
-0.6699 3.8547 -0.0718 0.722 -0.490 0.488 120 105 105 0 0
-0.6650 3.8616 -0.0721 0.722 -0.490 0.488 121 105 102 0 0
-0.6475 3.8788 -0.0729 0.505 -0.649 0.569 157 149 137 0 0
-0.5709 3.8623 -0.0740 0.536 -0.829 0.160 184 176 168 0 0
-0.3349 3.8497 -0.0783 0.337 -0.931 0.143 98 49 60 0 0
-0.3409 3.8918 -0.0794 0.874 -0.479 -0.082 94 47 56 0 0
-0.3340 3.8957 -0.0797 0.665 -0.731 0.154 96 49 57 0 0
-0.3299 3.9043 -0.0800 0.841 -0.533 0.087 97 50 56 0 0
0.0904 3.7843 -0.0850 0.042 -0.994 -0.103 92 61 74 0 0
0.3018 3.6619 -0.0857 0.949 -0.279 0.145 115 64 72 0 0
0.3049 3.6724 -0.0861 0.949 -0.279 0.145 115 65 75 0 0
0.3085 3.6820 -0.0864 0.963 -0.268 -0.017 110 61 70 0 0
0.3121 3.6916 -0.0868 0.936 -0.344 0.071 111 61 69 0 0
0.3157 3.7012 -0.0871 0.927 -0.364 0.091 113 64 72 0 0
0.3194 3.7106 -0.0875 0.927 -0.364 0.091 114 64 75 0 0
0.3229 3.7206 -0.0878 0.668 -0.711 -0.219 110 61 71 0 0
0.3276 3.7277 -0.0881 0.923 -0.359 0.141 109 61 71 0 0
0.3315 3.7366 -0.0885 0.950 -0.293 0.112 109 61 71 0 0
0.3367 3.7616 -0.0893 0.964 -0.254 -0.079 109 62 71 0 0
0.3407 3.7707 -0.0896 0.942 -0.331 0.064 107 60 68 0 0
0.3447 3.7797 -0.0900 0.901 -0.435 -0.002 109 60 69 0 0
0.3489 3.7886 -0.0903 0.901 -0.431 0.044 109 63 70 0 0
0.3527 3.7984 -0.0907 0.913 -0.406 -0.046 106 59 67 0 0
1.2999 3.4836 -0.1006 0.242 -0.970 -0.006 115 91 108 0 0
1.3056 3.4839 -0.1007 0.519 -0.854 -0.027 114 89 106 0 0
1.3107 3.4882 -0.1010 0.678 -0.723 -0.132 110 84 104 0 0
1.3202 3.5006 -0.1015 0.885 -0.425 -0.191 94 69 84 0 0
1.3246 3.5098 -0.1019 0.885 -0.425 -0.191 91 69 81 0 0
1.3290 3.5189 -0.1022 0.883 -0.407 -0.233 98 75 85 0 0
1.3327 3.5327 -0.1027 0.944 -0.306 -0.127 101 78 87 0 0
1.3366 3.5459 -0.1032 0.940 -0.281 -0.192 104 77 89 0 0
1.3405 3.5584 -0.1036 0.914 -0.357 -0.192 104 78 92 0 0
1.3448 3.5691 -0.1040 0.875 -0.444 -0.192 105 81 93 0 0
1.3493 3.5781 -0.1043 0.875 -0.444 -0.192 101 75 88 0 0
1.3730 3.5748 -0.1047 -0.441 -0.810 0.388 86 64 74 0 0
1.4051 3.7369 -0.1100 0.307 -0.882 -0.357 72 59 75 0 0
1.4109 3.7387 -0.1102 0.098 -0.975 -0.197 77 58 68 0 0
1.4432 3.7688 -0.1117 -0.600 -0.800 -0.032 42 31 40 0 0
1.4683 3.7560 -0.1119 0.700 -0.698 -0.147 99 117 152 0 0
1.4738 3.7592 -0.1121 0.583 -0.804 -0.118 108 116 151 0 0
1.4791 3.7658 -0.1124 0.753 -0.597 -0.275 86 79 108 0 0
1.4879 3.7966 -0.1134 0.903 -0.368 -0.222 61 72 98 0 0
1.4925 3.8101 -0.1139 0.940 -0.341 -0.010 54 58 82 0 0
1.5707 3.7894 -0.1149 0.735 -0.676 -0.046 108 118 159 0 0
1.6102 3.8039 -0.1161 0.475 -0.645 -0.599 138 153 194 0 0
1.6156 3.8083 -0.1163 0.438 -0.767 -0.468 136 150 191 0 0
1.6212 3.8113 -0.1165 0.403 -0.802 -0.440 128 139 184 0 0
1.6267 3.8158 -0.1168 0.614 -0.737 -0.284 133 149 193 0 0
1.6323 3.8185 -0.1170 0.246 -0.964 -0.103 147 165 208 0 0
1.6867 3.7555 -0.1162 -0.185 -0.974 0.134 152 168 210 0 0
1.6923 3.7546 -0.1163 -0.546 -0.823 0.153 145 159 202 0 0
1.7961 4.1850 -0.1308 0.792 -0.594 0.141 146 164 207 0 0
1.8020 4.1943 -0.1312 0.872 -0.391 0.293 147 164 207 0 0
1.8080 4.2064 -0.1317 0.807 -0.485 0.336 149 166 209 0 0
1.8139 4.2160 -0.1321 0.807 -0.485 0.336 151 168 211 0 0
1.8199 4.2272 -0.1325 0.785 -0.473 0.401 149 167 210 0 0
1.8259 4.2336 -0.1328 0.823 -0.561 0.092 147 164 207 0 0
1.8319 4.2424 -0.1332 0.823 -0.561 0.092 146 163 206 0 0
1.8380 4.2512 -0.1336 0.823 -0.561 0.092 146 163 206 0 0
1.8440 4.2584 -0.1339 0.893 -0.440 0.089 146 163 206 0 0
1.8501 4.2690 -0.1344 0.880 -0.475 -0.025 146 163 206 0 0
1.8562 4.2813 -0.1348 0.776 -0.623 0.095 145 163 206 0 0
1.8623 4.2900 -0.1352 0.797 -0.598 -0.086 144 161 204 0 0
1.8684 4.2983 -0.1356 0.797 -0.598 -0.086 143 159 202 0 0
1.8746 4.3047 -0.1359 0.791 -0.522 -0.319 143 160 203 0 0
1.8807 4.3143 -0.1363 0.791 -0.522 -0.319 144 161 204 0 0
1.8869 4.3255 -0.1367 0.811 -0.558 -0.173 145 162 205 0 0
1.8931 4.3349 -0.1371 0.761 -0.636 -0.127 144 163 206 0 0
1.8994 4.3520 -0.1377 0.780 -0.604 0.163 144 162 204 0 0
1.9056 4.3591 -0.1381 0.866 -0.499 0.027 144 162 204 0 0
1.9119 4.3699 -0.1385 0.866 -0.499 0.027 144 162 205 0 0
1.9182 4.3808 -0.1390 0.866 -0.499 0.027 145 162 206 0 0
1.9246 4.3928 -0.1394 0.850 -0.527 -0.016 145 162 206 0 0
1.9308 4.3989 -0.1397 0.862 -0.497 -0.097 143 160 204 0 0
1.9373 4.4172 -0.1404 0.820 -0.565 -0.096 144 160 203 0 0
1.9436 4.4215 -0.1406 0.822 -0.555 -0.127 143 159 200 0 0
1.9500 4.4306 -0.1410 0.800 -0.595 -0.074 141 159 199 0 0
1.9564 4.4415 -0.1415 0.846 -0.534 0.004 141 159 200 0 0
1.9628 4.4517 -0.1419 0.846 -0.534 0.004 140 157 200 0 0
1.9693 4.4619 -0.1423 0.846 -0.534 0.004 139 156 199 0 0
1.9758 4.4735 -0.1428 0.769 -0.623 -0.142 137 154 197 0 0
1.9823 4.4817 -0.1432 0.774 -0.617 -0.143 137 153 196 0 0
1.9887 4.4906 -0.1435 0.812 -0.582 -0.038 138 155 198 0 0
1.9952 4.5001 -0.1439 0.810 -0.587 0.001 138 155 198 0 0
2.0018 4.5094 -0.1443 0.876 -0.482 -0.005 139 156 199 0 0
2.0084 4.5224 -0.1449 0.869 -0.479 0.121 141 157 200 0 0
2.0151 4.5339 -0.1453 0.876 -0.482 0.023 140 157 199 0 0
2.0284 4.5562 -0.1462 0.809 -0.550 0.208 136 153 195 0 0
2.0348 4.5612 -0.1465 0.817 -0.559 -0.141 136 153 193 0 0
2.0417 4.5765 -0.1471 0.735 -0.566 -0.374 134 152 193 0 0
2.0484 4.5854 -0.1475 0.735 -0.566 -0.374 133 149 192 0 0
2.0550 4.5943 -0.1479 0.735 -0.566 -0.374 132 149 190 0 0
2.0617 4.6037 -0.1483 0.775 -0.618 -0.132 131 150 190 0 0
2.0684 4.6117 -0.1486 0.777 -0.622 -0.101 132 150 190 0 0
2.0751 4.6211 -0.1490 0.843 -0.537 0.017 134 151 193 0 0
2.0818 4.6302 -0.1494 0.906 -0.414 0.092 134 152 194 0 0
2.0888 4.6440 -0.1500 0.908 -0.418 0.023 134 152 194 0 0
2.0958 4.6582 -0.1505 0.801 -0.594 0.073 135 152 195 0 0
2.1031 4.6762 -0.1512 0.733 -0.679 0.032 133 150 192 0 0
2.1098 4.6834 -0.1515 0.733 -0.679 0.032 130 147 190 0 0
2.1176 4.7090 -0.1524 0.590 -0.805 0.051 125 142 185 0 0
2.1240 4.7112 -0.1526 0.147 -0.986 0.076 118 134 178 0 0
2.1304 4.7121 -0.1528 0.147 -0.986 0.076 107 118 161 0 0
-1.6440 4.3379 -0.0757 0.610 -0.781 0.138 99 55 63 0 0
-0.7923 3.8218 -0.0764 0.594 -0.761 -0.262 74 36 45 0 0
-0.6786 3.8385 -0.0791 0.480 -0.768 0.424 135 131 134 0 0
-0.6674 3.8504 -0.0797 0.722 -0.490 0.488 116 105 115 0 0
-0.6625 3.8574 -0.0800 0.722 -0.490 0.488 135 121 119 0 0
-0.6410 3.8831 -0.0812 0.334 -0.793 0.509 96 79 72 0 0
-0.5641 3.8658 -0.0822 0.620 -0.784 0.001 183 176 164 0 0
-0.3349 3.8494 -0.0861 0.399 -0.916 0.053 100 51 63 0 0
-0.3405 3.8907 -0.0873 0.864 -0.502 0.050 98 50 60 0 0
-0.3336 3.8945 -0.0875 0.665 -0.731 0.154 99 50 57 0 0
-0.3297 3.9034 -0.0879 0.841 -0.533 0.087 99 50 56 0 0
-0.3257 3.9124 -0.0882 0.854 -0.472 0.217 98 48 57 0 0
0.0361 3.7780 -0.0911 -0.018 -0.841 -0.541 83 43 49 0 0
0.3053 3.6709 -0.0930 0.963 -0.268 -0.017 113 65 73 0 0
0.3083 3.6818 -0.0934 0.963 -0.268 -0.017 109 61 69 0 0
0.3124 3.6903 -0.0938 0.941 -0.317 0.118 111 61 71 0 0
0.3142 3.7040 -0.0942 0.928 -0.370 0.038 114 63 75 0 0
0.3183 3.7127 -0.0946 0.945 -0.326 -0.008 116 64 76 0 0
0.3217 3.7228 -0.0949 0.863 -0.505 -0.015 111 61 71 0 0
0.3412 3.7689 -0.0967 0.855 -0.453 0.254 107 60 69 0 0
0.3447 3.7792 -0.0971 0.901 -0.431 0.044 108 61 70 0 0
0.3489 3.7879 -0.0975 0.901 -0.431 0.044 109 62 71 0 0
1.2996 3.4836 -0.1066 0.242 -0.970 -0.006 104 77 91 0 0
1.3053 3.4839 -0.1067 0.519 -0.854 -0.027 104 80 93 0 0
1.3156 3.4918 -0.1071 0.783 -0.614 -0.100 108 83 96 0 0
1.3198 3.5023 -0.1075 0.885 -0.425 -0.191 95 68 83 0 0
1.3241 3.5115 -0.1079 0.885 -0.425 -0.191 94 72 86 0 0
1.3284 3.5211 -0.1083 0.883 -0.407 -0.233 112 83 95 0 0
1.3328 3.5308 -0.1086 0.883 -0.407 -0.233 113 83 94 0 0
1.3360 3.5481 -0.1092 0.940 -0.281 -0.192 115 85 97 0 0
1.3401 3.5599 -0.1097 0.933 -0.354 -0.061 114 86 100 0 0
1.3443 3.5711 -0.1101 0.933 -0.354 -0.061 114 86 100 0 0
1.3481 3.5849 -0.1106 0.899 -0.434 -0.065 108 80 93 0 0
1.4622 3.7554 -0.1180 0.396 -0.903 -0.166 61 74 103 0 0
1.4680 3.7567 -0.1181 0.618 -0.758 -0.210 98 115 150 0 0
1.4734 3.7612 -0.1184 0.618 -0.758 -0.210 106 113 149 0 0
1.4788 3.7663 -0.1186 0.660 -0.687 -0.303 79 74 107 0 0
1.4876 3.7967 -0.1197 0.940 -0.341 -0.010 67 74 101 0 0
1.4923 3.8097 -0.1202 0.940 -0.341 -0.010 41 40 62 0 0
1.5603 3.7709 -0.1203 0.541 -0.837 -0.089 89 108 143 0 0
1.5925 3.8045 -0.1220 0.148 -0.971 0.189 124 141 178 0 0
1.5983 3.8053 -0.1221 0.148 -0.971 0.189 134 150 190 0 0
1.6096 3.8087 -0.1225 0.468 -0.678 -0.567 142 159 199 0 0
1.6152 3.8118 -0.1227 0.438 -0.767 -0.468 146 161 202 0 0
1.6207 3.8155 -0.1229 -0.225 -0.894 -0.388 142 154 197 0 0
1.6265 3.8151 -0.1230 -0.137 -0.903 -0.406 132 146 190 0 0
1.6320 3.8191 -0.1232 0.246 -0.964 -0.103 145 164 206 0 0
1.7900 4.1710 -0.1370 0.810 -0.586 0.039 145 163 206 0 0
1.7959 4.1832 -0.1375 0.792 -0.594 0.141 145 162 205 0 0
1.8019 4.1887 -0.1377 0.889 -0.420 0.181 146 165 207 0 0
1.8077 4.2017 -0.1383 0.872 -0.391 0.293 148 166 209 0 0
1.8137 4.2112 -0.1387 0.846 -0.425 0.323 149 167 210 0 0
1.8197 4.2213 -0.1391 0.785 -0.473 0.401 149 167 209 0 0
1.8256 4.2342 -0.1396 0.874 -0.405 0.268 147 164 208 0 0
1.8317 4.2422 -0.1399 0.861 -0.416 0.292 147 164 207 0 0
1.8377 4.2497 -0.1403 0.823 -0.561 0.092 147 165 207 0 0
1.8438 4.2579 -0.1407 0.902 -0.430 -0.016 147 164 207 0 0
1.8498 4.2724 -0.1412 0.776 -0.623 0.095 146 163 206 0 0
1.8559 4.2799 -0.1416 0.776 -0.623 0.095 145 163 206 0 0
1.8620 4.2887 -0.1420 0.835 -0.538 -0.110 145 161 204 0 0
1.8682 4.2982 -0.1424 0.835 -0.538 -0.110 144 159 202 0 0
1.8743 4.3079 -0.1428 0.835 -0.538 -0.110 143 158 201 0 0
1.8805 4.3187 -0.1432 0.833 -0.514 -0.204 143 160 203 0 0
1.8867 4.3272 -0.1436 0.811 -0.558 -0.173 144 161 204 0 0
1.8929 4.3359 -0.1440 0.761 -0.636 -0.127 144 163 205 0 0
1.8991 4.3498 -0.1445 0.780 -0.604 0.163 144 163 205 0 0
1.9054 4.3578 -0.1449 0.780 -0.604 0.163 145 163 206 0 0
1.9116 4.3691 -0.1454 0.866 -0.499 0.027 145 162 205 0 0
1.9179 4.3800 -0.1458 0.866 -0.499 0.027 145 162 205 0 0
1.9242 4.3886 -0.1462 0.830 -0.555 -0.059 146 163 206 0 0
1.9306 4.3998 -0.1467 0.862 -0.497 -0.097 145 164 206 0 0
1.9370 4.4132 -0.1472 0.822 -0.555 -0.127 144 161 204 0 0
1.9434 4.4227 -0.1476 0.822 -0.555 -0.127 144 160 202 0 0
1.9497 4.4311 -0.1480 0.800 -0.595 -0.074 142 158 200 0 0
1.9561 4.4381 -0.1483 0.861 -0.506 -0.061 138 155 198 0 0
1.9625 4.4492 -0.1488 0.861 -0.506 -0.061 138 154 197 0 0
1.9691 4.4648 -0.1494 0.844 -0.532 -0.072 137 152 194 0 0
1.9756 4.4748 -0.1498 0.774 -0.617 -0.143 137 153 195 0 0
1.9820 4.4825 -0.1502 0.768 -0.640 0.001 137 154 196 0 0
1.9885 4.4914 -0.1506 0.838 -0.545 0.030 137 154 196 0 0
1.9950 4.5023 -0.1510 0.832 -0.550 0.066 137 154 195 0 0
2.0016 4.5146 -0.1515 0.815 -0.547 0.191 137 155 196 0 0
2.0083 4.5271 -0.1520 0.879 -0.433 0.201 136 153 195 0 0
2.0146 4.5297 -0.1522 0.831 -0.462 0.310 136 153 195 0 0
2.0213 4.5403 -0.1527 0.857 -0.433 0.278 134 151 194 0 0
2.0280 4.5530 -0.1532 0.809 -0.550 0.208 135 152 195 0 0
2.0346 4.5627 -0.1536 0.817 -0.559 -0.141 135 153 196 0 0
2.0413 4.5725 -0.1541 0.817 -0.559 -0.141 137 154 196 0 0
2.0482 4.5874 -0.1546 0.830 -0.540 -0.137 137 152 194 0 0
2.0549 4.5975 -0.1551 0.848 -0.522 -0.096 135 149 192 0 0
2.0615 4.6050 -0.1554 0.775 -0.618 -0.132 132 150 190 0 0
2.0681 4.6125 -0.1558 0.777 -0.622 -0.101 134 151 192 0 0
2.0748 4.6204 -0.1562 0.843 -0.537 0.017 134 150 193 0 0
2.0814 4.6275 -0.1565 0.908 -0.418 0.023 133 150 191 0 0
2.0885 4.6428 -0.1571 0.908 -0.418 0.023 132 150 191 0 0
2.0955 4.6568 -0.1577 0.801 -0.594 0.073 133 150 193 0 0
2.1025 4.6710 -0.1582 0.873 -0.488 0.016 134 151 194 0 0
2.1095 4.6829 -0.1587 0.523 -0.851 0.039 131 149 191 0 0
2.1172 4.7083 -0.1597 0.590 -0.805 0.051 125 142 185 0 0
2.1236 4.7087 -0.1598 0.397 -0.912 0.102 119 135 179 0 0
2.1301 4.7115 -0.1600 0.147 -0.986 0.076 109 118 160 0 0
-1.6512 4.3317 -0.0849 0.669 -0.700 0.248 95 54 68 0 0
-0.7874 3.8283 -0.0848 0.491 -0.823 -0.287 82 49 59 0 0
-0.6767 3.8352 -0.0871 0.480 -0.768 0.424 156 149 143 0 0
-0.6706 3.8404 -0.0874 0.480 -0.708 0.518 133 127 128 0 0
-0.6649 3.8462 -0.0877 0.722 -0.490 0.488 115 107 110 0 0
-0.6387 3.8789 -0.0892 0.334 -0.793 0.509 102 86 82 0 0
-0.5622 3.8625 -0.0901 0.649 -0.759 0.058 161 149 132 0 0
-0.3349 3.8490 -0.0939 0.399 -0.916 0.053 99 52 61 0 0
-0.3404 3.8901 -0.0951 0.864 -0.502 0.050 96 50 58 0 0
-0.3324 3.8919 -0.0953 0.784 -0.620 -0.031 97 49 58 0 0
-0.3250 3.9107 -0.0960 0.909 -0.417 0.012 99 48 56 0 0
0.0076 3.7853 -0.0982 -0.035 -0.654 -0.755 101 54 62 0 0
0.0335 3.7828 -0.0986 -0.018 -0.841 -0.541 92 50 57 0 0
0.3051 3.6708 -0.1000 0.963 -0.268 -0.017 113 64 77 0 0
0.3082 3.6816 -0.1004 0.963 -0.268 -0.017 108 59 69 0 0
0.3112 3.6925 -0.1008 0.950 -0.295 0.098 111 60 70 0 0
0.3145 3.7029 -0.1012 0.950 -0.295 0.098 115 65 75 0 0
0.3181 3.7124 -0.1016 0.945 -0.326 -0.008 115 64 77 0 0
0.3215 3.7227 -0.1020 0.863 -0.505 -0.015 112 63 75 0 0
0.3259 3.7306 -0.1023 0.933 -0.355 0.055 110 61 71 0 0
0.3419 3.7663 -0.1038 0.855 -0.453 0.254 108 62 72 0 0
0.3447 3.7785 -0.1042 0.901 -0.431 0.044 109 62 72 0 0
0.3489 3.7872 -0.1046 0.901 -0.431 0.044 109 62 70 0 0
0.3531 3.7960 -0.1049 0.901 -0.431 0.044 107 59 68 0 0
0.3553 3.8100 -0.1054 0.891 -0.421 -0.169 106 59 68 0 0
1.2992 3.4850 -0.1125 0.282 -0.953 0.111 76 52 68 0 0
1.3051 3.4840 -0.1126 0.519 -0.854 -0.027 68 48 65 0 0
1.3100 3.4895 -0.1129 0.681 -0.729 -0.069 71 54 74 0 0
1.3153 3.4926 -0.1131 0.938 -0.338 -0.082 79 60 78 0 0
1.3193 3.5038 -0.1135 0.938 -0.338 -0.082 78 56 72 0 0
1.3233 3.5151 -0.1139 0.938 -0.338 -0.082 76 57 71 0 0
1.3276 3.5255 -0.1144 0.920 -0.367 -0.138 93 66 79 0 0
1.3317 3.5361 -0.1148 0.920 -0.367 -0.138 97 66 79 0 0
1.3356 3.5495 -0.1153 0.919 -0.361 -0.159 102 73 85 0 0
1.3399 3.5598 -0.1157 0.927 -0.372 -0.057 105 76 88 0 0
1.3440 3.5714 -0.1161 0.933 -0.354 -0.061 105 77 89 0 0
1.3484 3.5815 -0.1165 0.875 -0.444 -0.192 104 75 89 0 0
1.3732 3.5701 -0.1166 -0.561 -0.826 -0.064 99 74 83 0 0
1.3692 3.6429 -0.1189 0.976 -0.206 -0.072 89 69 84 0 0
1.4620 3.7550 -0.1242 0.405 -0.907 -0.118 62 73 100 0 0
1.4675 3.7585 -0.1244 0.560 -0.774 -0.294 97 108 143 0 0
1.4730 3.7626 -0.1247 0.560 -0.774 -0.294 97 102 139 0 0
1.4784 3.7676 -0.1249 0.726 -0.643 -0.244 83 87 123 0 0
1.4874 3.7969 -0.1260 0.945 -0.327 0.014 59 59 85 0 0
1.4924 3.8057 -0.1264 0.947 -0.306 0.101 37 35 56 0 0
1.5010 3.8413 -0.1277 0.937 -0.251 0.243 75 91 119 0 0
1.5055 3.8574 -0.1283 0.877 -0.358 0.321 93 107 141 0 0
1.5110 3.8632 -0.1286 0.748 -0.489 0.449 81 89 125 0 0
1.5167 3.8666 -0.1288 0.575 -0.435 0.693 66 71 103 0 0
1.5221 3.8733 -0.1291 0.552 -0.454 0.699 77 77 102 0 0
1.5600 3.7714 -0.1266 0.541 -0.837 -0.089 86 106 142 0 0
1.5702 3.7897 -0.1273 0.831 -0.551 0.083 107 118 159 0 0
1.5964 3.8288 -0.1291 -0.424 -0.883 0.200 135 152 191 0 0
1.6090 3.8140 -0.1288 0.395 -0.867 -0.303 141 157 199 0 0
1.6146 3.8172 -0.1290 0.173 -0.981 -0.089 145 158 202 0 0
1.6201 3.8211 -0.1293 -0.243 -0.955 -0.170 145 157 201 0 0
1.7898 4.1702 -0.1436 0.810 -0.586 0.039 145 162 205 0 0
1.7957 4.1783 -0.1440 0.810 -0.586 0.039 146 163 206 0 0
1.8016 4.1854 -0.1443 0.889 -0.420 0.181 146 164 206 0 0
1.8075 4.1977 -0.1448 0.889 -0.420 0.181 147 165 207 0 0
1.8135 4.2100 -0.1453 0.889 -0.420 0.181 148 165 209 0 0
1.8194 4.2224 -0.1458 0.889 -0.420 0.181 147 165 208 0 0
1.8254 4.2343 -0.1463 0.869 -0.387 0.308 146 163 206 0 0
1.8314 4.2473 -0.1468 0.869 -0.387 0.308 145 162 206 0 0
1.8374 4.2604 -0.1474 0.869 -0.387 0.308 147 164 207 0 0
1.8435 4.2576 -0.1474 0.902 -0.430 -0.016 147 165 208 0 0
1.8496 4.2710 -0.1479 0.776 -0.623 0.095 146 163 206 0 0
1.8557 4.2786 -0.1483 0.776 -0.623 0.095 145 162 205 0 0
1.8618 4.2865 -0.1487 0.845 -0.528 -0.087 145 162 205 0 0
1.8679 4.2963 -0.1491 0.828 -0.552 -0.098 144 160 203 0 0
1.8741 4.3098 -0.1496 0.887 -0.445 0.121 143 159 202 0 0
1.8802 4.3185 -0.1500 0.864 -0.503 -0.029 145 161 203 0 0
1.8864 4.3292 -0.1505 0.864 -0.503 -0.029 144 161 202 0 0
1.8926 4.3376 -0.1509 0.855 -0.518 -0.010 143 159 202 0 0
1.8988 4.3452 -0.1512 0.786 -0.612 -0.087 144 161 203 0 0
1.9051 4.3575 -0.1517 0.815 -0.524 -0.246 143 160 203 0 0
1.9114 4.3687 -0.1522 0.883 -0.465 -0.055 144 161 204 0 0
1.9177 4.3807 -0.1527 0.883 -0.465 -0.055 143 159 203 0 0
1.9240 4.3884 -0.1531 0.882 -0.462 -0.089 142 159 202 0 0
1.9303 4.4007 -0.1536 0.862 -0.497 -0.097 142 160 203 0 0
1.9367 4.4119 -0.1541 0.862 -0.497 -0.097 144 160 203 0 0
1.9431 4.4225 -0.1545 0.782 -0.607 -0.145 143 158 201 0 0
1.9494 4.4308 -0.1549 0.782 -0.607 -0.145 143 158 201 0 0
1.9558 4.4385 -0.1553 0.861 -0.506 -0.061 140 157 199 0 0
1.9622 4.4495 -0.1558 0.861 -0.506 -0.061 140 156 198 0 0
1.9687 4.4606 -0.1562 0.861 -0.506 -0.061 139 153 196 0 0
1.9752 4.4707 -0.1567 0.838 -0.545 0.030 139 153 195 0 0
1.9817 4.4806 -0.1571 0.838 -0.545 0.030 138 154 196 0 0
1.9882 4.4906 -0.1575 0.838 -0.545 0.030 138 156 198 0 0
1.9947 4.5010 -0.1580 0.832 -0.550 0.066 139 155 198 0 0
2.0012 4.5108 -0.1584 0.832 -0.550 0.066 139 153 195 0 0
2.0208 4.5344 -0.1596 0.841 -0.538 -0.063 135 153 194 0 0
2.0278 4.5548 -0.1603 0.800 -0.600 0.018 136 152 194 0 0
2.0344 4.5635 -0.1607 0.800 -0.600 0.018 136 152 194 0 0
2.0410 4.5730 -0.1612 0.856 -0.510 -0.082 136 154 194 0 0
2.0479 4.5888 -0.1618 0.830 -0.540 -0.137 137 152 193 0 0
2.0547 4.5993 -0.1623 0.830 -0.540 -0.137 135 152 191 0 0
2.0607 4.5931 -0.1622 0.731 -0.679 0.067 135 151 192 0 0
2.0679 4.6134 -0.1630 0.777 -0.622 -0.101 134 151 193 0 0
2.0744 4.6196 -0.1633 0.843 -0.537 0.017 135 151 194 0 0
2.0807 4.6199 -0.1634 0.916 -0.388 0.102 133 150 192 0 0
2.0881 4.6417 -0.1642 0.908 -0.418 0.023 132 149 191 0 0
2.0951 4.6554 -0.1648 0.801 -0.594 0.073 131 148 191 0 0
2.1022 4.6701 -0.1654 0.873 -0.488 0.016 131 148 191 0 0
2.1093 4.6843 -0.1660 0.737 -0.668 0.108 130 147 190 0 0
2.1167 4.7049 -0.1668 0.397 -0.912 0.102 126 142 186 0 0
2.1233 4.7077 -0.1670 0.397 -0.912 0.102 120 135 178 0 0
2.1298 4.7109 -0.1672 0.147 -0.986 0.076 107 116 161 0 0
-1.6459 4.3395 -0.0948 0.614 -0.784 0.093 100 53 64 0 0
-0.6680 3.8361 -0.0953 0.480 -0.768 0.424 148 143 135 0 0
-0.6625 3.8422 -0.0956 0.747 -0.487 0.453 100 97 100 0 0
-0.5539 3.9089 -0.0998 0.218 -0.562 0.798 90 65 62 0 0
-0.3349 3.8485 -0.1016 0.399 -0.916 0.053 99 50 63 0 0
-0.3327 3.8920 -0.1031 0.784 -0.620 -0.031 99 48 58 0 0
-0.3251 3.9104 -0.1039 0.909 -0.417 0.012 99 48 57 0 0
0.2988 3.6494 -0.1062 0.931 -0.360 0.061 113 62 71 0 0
0.3050 3.6706 -0.1070 0.963 -0.268 -0.017 113 64 76 0 0
0.3085 3.6803 -0.1074 0.968 -0.213 0.133 111 63 73 0 0
0.3115 3.6911 -0.1078 0.950 -0.295 0.098 112 62 73 0 0
0.3145 3.7021 -0.1083 0.945 -0.326 -0.008 115 64 74 0 0
0.3180 3.7122 -0.1087 0.945 -0.326 -0.008 115 64 76 0 0
0.3215 3.7220 -0.1091 0.908 -0.404 0.112 114 62 75 0 0
0.3260 3.7298 -0.1094 0.933 -0.355 0.055 109 62 72 0 0
0.3426 3.7640 -0.1108 0.839 -0.486 0.244 109 63 73 0 0
0.3447 3.7779 -0.1113 0.901 -0.431 0.044 109 63 74 0 0
0.3489 3.7866 -0.1117 0.901 -0.431 0.044 109 62 72 0 0
0.3531 3.7953 -0.1121 0.901 -0.431 0.044 108 60 69 0 0
0.3569 3.8053 -0.1125 0.924 -0.382 0.012 108 61 72 0 0
0.3608 3.8148 -0.1129 0.924 -0.382 0.012 107 65 80 0 0
1.2937 3.4821 -0.1183 0.085 -0.996 0.008 92 73 89 0 0
1.3099 3.4890 -0.1188 0.813 -0.575 0.088 105 90 110 0 0
1.3152 3.4913 -0.1190 0.926 -0.356 0.125 111 96 117 0 0
1.3194 3.5019 -0.1194 0.926 -0.356 0.125 112 95 114 0 0
1.3235 3.5128 -0.1198 0.917 -0.374 0.142 110 90 107 0 0
1.3283 3.5189 -0.1201 0.887 -0.455 0.080 104 84 102 0 0
1.3310 3.5394 -0.1209 0.943 -0.317 -0.104 102 83 102 0 0
1.3354 3.5492 -0.1213 0.895 -0.445 -0.022 106 86 103 0 0
1.3396 3.5601 -0.1217 0.927 -0.372 -0.057 110 88 104 0 0
1.3437 3.5717 -0.1222 0.933 -0.354 -0.061 108 85 101 0 0
1.3479 3.5832 -0.1227 0.875 -0.444 -0.192 103 81 97 0 0
1.3611 3.6146 -0.1239 0.911 -0.383 0.153 69 46 59 0 0
1.3652 3.6275 -0.1244 0.973 -0.233 -0.000 59 43 54 0 0
1.3689 3.6436 -0.1251 0.978 -0.206 -0.038 63 55 72 0 0
1.4617 3.7557 -0.1305 0.405 -0.907 -0.118 61 69 94 0 0
1.4672 3.7595 -0.1307 0.618 -0.758 -0.210 85 96 127 0 0
1.4726 3.7640 -0.1309 0.618 -0.758 -0.210 94 103 140 0 0
1.4780 3.7695 -0.1312 0.726 -0.643 -0.244 93 102 140 0 0
1.4873 3.7947 -0.1322 0.902 -0.354 0.248 47 45 69 0 0
1.4924 3.8035 -0.1326 0.947 -0.306 0.101 35 37 57 0 0
1.4963 3.8255 -0.1334 0.935 -0.218 0.281 52 57 79 0 0
1.5006 3.8431 -0.1341 0.935 -0.218 0.281 73 87 118 0 0
1.5057 3.8523 -0.1345 0.877 -0.358 0.321 91 106 143 0 0
1.5112 3.8578 -0.1348 0.748 -0.489 0.449 81 88 125 0 0
1.5166 3.8647 -0.1351 0.704 -0.537 0.466 57 56 84 0 0
1.5597 3.7719 -0.1328 0.541 -0.837 -0.089 87 105 139 0 0
1.5700 3.7886 -0.1335 0.831 -0.551 0.083 108 121 160 0 0
1.5947 3.8498 -0.1360 0.764 -0.576 0.289 137 152 191 0 0
1.6022 3.8252 -0.1353 -0.379 -0.890 0.255 139 154 194 0 0
1.6087 3.8154 -0.1351 0.418 -0.898 -0.140 141 157 197 0 0
1.6143 3.8178 -0.1353 0.173 -0.981 -0.089 144 160 201 0 0
1.7895 4.1699 -0.1502 0.796 -0.600 0.078 147 165 207 0 0
1.7954 4.1776 -0.1506 0.810 -0.586 0.039 149 166 209 0 0
1.8013 4.1879 -0.1511 0.884 -0.462 -0.074 148 165 208 0 0
1.8072 4.2023 -0.1516 0.838 -0.545 0.042 147 164 207 0 0
1.8132 4.2114 -0.1521 0.838 -0.545 0.042 147 164 207 0 0
1.8191 4.2206 -0.1525 0.838 -0.545 0.042 146 164 206 0 0
1.8252 4.2286 -0.1528 0.869 -0.387 0.308 145 163 205 0 0
1.8311 4.2416 -0.1534 0.869 -0.387 0.308 145 163 206 0 0
1.8372 4.2548 -0.1539 0.827 -0.518 0.221 145 163 206 0 0
1.8432 4.2573 -0.1541 0.902 -0.430 -0.016 147 164 207 0 0
1.8493 4.2629 -0.1544 0.812 -0.551 0.193 146 163 206 0 0
1.8554 4.2758 -0.1550 0.781 -0.599 0.178 145 161 204 0 0
1.8615 4.2872 -0.1555 0.845 -0.528 -0.087 144 160 203 0 0
1.8676 4.2971 -0.1559 0.828 -0.552 -0.098 144 161 204 0 0
1.8738 4.3074 -0.1564 0.887 -0.445 0.121 144 160 203 0 0
1.8799 4.3184 -0.1568 0.864 -0.503 -0.029 145 160 203 0 0
1.8861 4.3284 -0.1573 0.809 -0.573 -0.135 143 159 202 0 0
1.8923 4.3380 -0.1577 0.761 -0.636 -0.127 140 156 200 0 0
1.8985 4.3461 -0.1581 0.773 -0.623 -0.123 137 154 198 0 0
1.9048 4.3595 -0.1587 0.815 -0.489 -0.310 140 157 200 0 0
1.9111 4.3690 -0.1591 0.883 -0.465 -0.055 142 160 202 0 0
1.9174 4.3771 -0.1595 0.882 -0.462 -0.089 144 160 203 0 0
1.9237 4.3893 -0.1600 0.882 -0.462 -0.089 142 159 202 0 0
1.9301 4.4015 -0.1605 0.882 -0.462 -0.089 141 158 200 0 0
1.9364 4.4093 -0.1609 0.794 -0.608 -0.010 140 157 199 0 0
1.9428 4.4237 -0.1615 0.817 -0.577 0.008 140 157 198 0 0
1.9492 4.4327 -0.1619 0.817 -0.577 0.008 140 158 199 0 0
1.9555 4.4389 -0.1622 0.861 -0.506 -0.061 141 159 199 0 0
1.9620 4.4499 -0.1627 0.861 -0.506 -0.061 138 155 197 0 0
1.9684 4.4610 -0.1632 0.861 -0.506 -0.061 138 154 197 0 0
1.9749 4.4721 -0.1637 0.861 -0.506 -0.061 137 153 196 0 0
1.9812 4.4737 -0.1639 0.812 -0.583 0.035 137 153 196 0 0
1.9879 4.4897 -0.1645 0.838 -0.545 0.030 139 157 197 0 0
1.9944 4.4997 -0.1650 0.838 -0.545 0.030 138 156 196 0 0
2.0009 4.5095 -0.1654 0.832 -0.550 0.066 138 151 194 0 0
2.0074 4.5164 -0.1658 0.901 -0.431 0.049 136 151 192 0 0
2.0139 4.5244 -0.1662 0.900 -0.435 -0.007 136 152 191 0 0
2.0205 4.5353 -0.1666 0.846 -0.521 -0.116 134 152 191 0 0
2.0272 4.5481 -0.1672 0.773 -0.621 0.128 135 152 192 0 0
2.0340 4.5602 -0.1677 0.834 -0.528 0.159 134 152 192 0 0
2.0406 4.5707 -0.1682 0.834 -0.528 0.159 133 152 190 0 0
2.0473 4.5811 -0.1687 0.834 -0.528 0.159 135 151 192 0 0
2.0538 4.5850 -0.1689 0.676 -0.719 0.161 133 150 191 0 0
2.0603 4.5921 -0.1693 0.731 -0.679 0.067 134 151 193 0 0
2.0669 4.5991 -0.1696 0.731 -0.679 0.067 136 152 194 0 0
2.0743 4.6232 -0.1706 0.825 -0.559 0.088 135 151 194 0 0
2.0810 4.6317 -0.1710 0.897 -0.438 0.061 133 151 193 0 0
2.0878 4.6405 -0.1714 0.908 -0.418 0.023 133 150 193 0 0
2.0947 4.6541 -0.1720 0.801 -0.594 0.073 131 149 191 0 0
2.1013 4.6580 -0.1722 0.619 -0.780 0.091 131 148 191 0 0
2.1089 4.6828 -0.1732 0.737 -0.668 0.108 130 147 190 0 0
2.1164 4.7035 -0.1740 0.619 -0.784 0.048 125 143 186 0 0
2.1230 4.7081 -0.1743 0.332 -0.943 0.034 121 136 179 0 0
2.1295 4.7104 -0.1745 0.332 -0.943 0.034 106 118 159 0 0
-0.6661 3.8329 -0.1032 0.359 -0.897 0.259 133 121 111 0 0
-0.6604 3.8385 -0.1035 0.705 -0.527 0.474 125 122 121 0 0
-0.6552 3.8451 -0.1038 0.705 -0.527 0.474 88 83 95 0 0
-0.5488 3.9003 -0.1076 0.433 -0.726 0.533 67 46 46 0 0
-0.5327 3.9044 -0.1080 0.207 -0.875 0.438 99 71 86 0 0
-0.3348 3.8479 -0.1094 0.319 -0.943 0.093 100 52 63 0 0
-0.3329 3.8918 -0.1109 0.832 -0.555 -0.024 97 49 57 0 0
-0.3189 3.9150 -0.1120 0.129 -0.987 -0.096 103 52 61 0 0
0.2948 3.6405 -0.1128 0.828 -0.561 -0.008 114 61 68 0 0
0.2990 3.6485 -0.1131 0.931 -0.360 0.061 112 61 70 0 0
0.3047 3.6706 -0.1140 0.966 -0.249 -0.062 114 64 74 0 0
0.3092 3.6780 -0.1144 0.975 -0.209 0.074 111 62 71 0 0
0.3118 3.6900 -0.1148 0.975 -0.209 0.074 113 62 73 0 0
0.3144 3.7019 -0.1153 0.945 -0.326 -0.008 114 64 75 0 0
0.3178 3.7119 -0.1157 0.945 -0.326 -0.008 113 64 75 0 0
0.3218 3.7207 -0.1161 0.908 -0.404 0.112 113 63 74 0 0
0.3266 3.7277 -0.1164 0.948 -0.297 0.112 109 62 72 0 0
0.3299 3.7381 -0.1168 0.937 -0.325 0.128 110 61 71 0 0
0.3406 3.7685 -0.1181 0.901 -0.431 0.044 111 62 73 0 0
0.3448 3.7772 -0.1185 0.901 -0.431 0.044 110 63 73 0 0
0.3504 3.7822 -0.1187 0.962 -0.259 -0.086 110 62 71 0 0
1.2935 3.4820 -0.1242 0.085 -0.996 0.008 120 93 106 0 0
1.3050 3.4822 -0.1244 0.593 -0.793 0.143 110 82 98 0 0
1.3098 3.4880 -0.1247 0.813 -0.575 0.088 113 93 110 0 0
1.3194 3.5000 -0.1253 0.926 -0.356 0.125 127 104 121 0 0
1.3236 3.5108 -0.1257 0.917 -0.374 0.142 124 100 114 0 0
1.3282 3.5183 -0.1261 0.877 -0.368 0.308 123 100 113 0 0
1.3364 3.5410 -0.1270 0.842 -0.353 0.407 124 101 116 0 0
1.3405 3.5521 -0.1275 0.897 -0.365 0.251 125 103 116 0 0
1.3478 3.5824 -0.1287 0.924 -0.381 0.016 111 90 106 0 0
1.3521 3.5936 -0.1291 0.888 -0.307 0.343 106 87 103 0 0
1.3557 3.6090 -0.1298 0.896 -0.310 0.319 106 87 100 0 0
1.3612 3.6118 -0.1299 0.785 -0.619 0.022 84 64 78 0 0
1.3651 3.6264 -0.1305 0.966 -0.256 0.031 70 56 73 0 0
1.3685 3.6450 -0.1312 0.963 -0.208 0.170 79 72 95 0 0
1.3721 3.6617 -0.1319 0.976 -0.172 0.131 84 87 116 0 0
1.4723 3.7649 -0.1372 0.663 -0.749 -0.014 109 122 160 0 0
1.4777 3.7697 -0.1375 0.663 -0.749 -0.014 99 106 146 0 0
1.4827 3.7789 -0.1379 0.902 -0.354 0.248 67 66 98 0 0
1.4875 3.7907 -0.1384 0.902 -0.354 0.248 38 35 54 0 0
1.4924 3.8013 -0.1389 0.947 -0.306 0.101 47 47 61 0 0
1.4966 3.8191 -0.1396 0.935 -0.218 0.281 59 60 79 0 0
1.5009 3.8367 -0.1402 0.935 -0.218 0.281 69 81 111 0 0
1.5059 3.8473 -0.1407 0.877 -0.358 0.321 86 97 129 0 0
1.5117 3.8497 -0.1409 0.488 -0.819 0.301 73 74 107 0 0
1.5174 3.8530 -0.1411 0.488 -0.819 0.301 57 55 80 0 0
1.5232 3.8545 -0.1412 0.490 -0.867 0.097 67 65 86 0 0
1.5282 3.8665 -0.1418 0.511 -0.536 0.671 75 74 98 0 0
1.5595 3.7717 -0.1390 0.614 -0.780 0.123 84 104 137 0 0
1.5647 3.7796 -0.1393 0.831 -0.551 0.083 108 126 161 0 0
1.5699 3.7874 -0.1397 0.831 -0.551 0.083 107 122 160 0 0
1.5888 3.8471 -0.1421 0.693 -0.692 0.202 131 150 187 0 0
1.5947 3.8467 -0.1422 0.764 -0.576 0.289 137 152 190 0 0
1.6020 3.8247 -0.1415 -0.326 -0.939 0.111 137 150 193 0 0
1.6080 3.8226 -0.1416 -0.163 -0.940 0.299 140 153 194 0 0
1.7030 3.7434 -0.1404 -0.704 -0.708 -0.043 149 166 208 0 0
1.7893 4.1687 -0.1568 0.796 -0.600 0.078 147 165 208 0 0
1.7952 4.1768 -0.1572 0.810 -0.586 0.039 148 165 209 0 0
1.8011 4.1885 -0.1577 0.884 -0.462 -0.074 149 166 210 0 0
1.8070 4.1962 -0.1581 0.858 -0.484 -0.172 150 167 210 0 0
1.8130 4.2071 -0.1586 0.839 -0.510 -0.192 148 165 208 0 0
1.8189 4.2178 -0.1591 0.874 -0.465 -0.142 147 164 207 0 0
1.8249 4.2292 -0.1596 0.874 -0.465 -0.142 146 163 207 0 0
1.8309 4.2405 -0.1601 0.896 -0.444 0.005 146 163 207 0 0
1.8369 4.2526 -0.1606 0.896 -0.444 0.005 147 164 208 0 0
1.8429 4.2648 -0.1611 0.896 -0.444 0.005 147 163 206 0 0
1.8490 4.2674 -0.1613 0.785 -0.580 0.215 145 161 204 0 0
1.8551 4.2746 -0.1617 0.799 -0.574 0.181 142 158 201 0 0
1.8612 4.2852 -0.1622 0.868 -0.481 -0.125 144 159 202 0 0
1.8673 4.2929 -0.1625 0.887 -0.445 0.121 146 161 204 0 0
1.8735 4.3050 -0.1631 0.887 -0.445 0.121 146 161 204 0 0
1.8797 4.3183 -0.1637 0.864 -0.503 -0.029 145 162 205 0 0
1.8859 4.3290 -0.1641 0.864 -0.503 -0.029 145 162 204 0 0
1.8921 4.3363 -0.1645 0.837 -0.547 0.028 143 159 202 0 0
1.8983 4.3465 -0.1650 0.786 -0.612 -0.087 140 158 201 0 0
1.9046 4.3612 -0.1656 0.862 -0.500 -0.084 142 159 202 0 0
1.9108 4.3693 -0.1660 0.883 -0.465 -0.055 142 159 202 0 0
1.9171 4.3779 -0.1664 0.882 -0.462 -0.089 142 159 202 0 0
1.9234 4.3901 -0.1669 0.882 -0.462 -0.089 142 160 203 0 0
1.9298 4.4024 -0.1675 0.882 -0.462 -0.089 142 159 202 0 0
1.9361 4.4090 -0.1678 0.794 -0.608 -0.010 140 157 200 0 0
1.9424 4.4173 -0.1682 0.794 -0.608 -0.010 140 157 200 0 0
1.9488 4.4283 -0.1687 0.861 -0.506 -0.061 141 159 199 0 0
1.9553 4.4393 -0.1692 0.861 -0.506 -0.061 141 159 200 0 0
1.9617 4.4503 -0.1697 0.861 -0.506 -0.061 139 156 199 0 0
1.9682 4.4614 -0.1702 0.861 -0.506 -0.061 138 155 197 0 0
1.9744 4.4639 -0.1704 0.812 -0.583 0.035 138 155 196 0 0
1.9809 4.4729 -0.1708 0.812 -0.583 0.035 138 154 197 0 0
1.9874 4.4848 -0.1714 0.848 -0.522 0.092 138 154 196 0 0
1.9940 4.4954 -0.1718 0.848 -0.522 0.092 137 155 196 0 0
2.0005 4.5040 -0.1723 0.846 -0.521 -0.116 138 152 196 0 0
2.0070 4.5148 -0.1727 0.846 -0.521 -0.116 136 152 194 0 0
2.0137 4.5257 -0.1732 0.846 -0.521 -0.116 136 152 193 0 0
2.0203 4.5365 -0.1737 0.846 -0.521 -0.116 136 150 192 0 0
2.0269 4.5474 -0.1742 0.846 -0.521 -0.116 134 149 190 0 0
2.0334 4.5542 -0.1746 0.823 -0.555 0.120 134 150 189 0 0
2.0402 4.5682 -0.1752 0.885 -0.447 0.128 133 152 190 0 0
2.0469 4.5784 -0.1757 0.834 -0.528 0.159 135 153 191 0 0
2.0537 4.5907 -0.1762 0.765 -0.601 0.233 135 153 193 0 0
2.0599 4.5888 -0.1762 0.637 -0.752 -0.168 136 153 193 0 0
2.0666 4.5985 -0.1767 0.788 -0.579 -0.209 136 152 194 0 0
2.0733 4.6078 -0.1771 0.788 -0.579 -0.209 135 151 194 0 0
2.0805 4.6274 -0.1780 0.819 -0.569 0.067 134 149 192 0 0
2.0873 4.6365 -0.1784 0.918 -0.369 -0.143 132 150 192 0 0
2.0944 4.6527 -0.1791 0.801 -0.594 0.073 132 150 190 0 0
2.1012 4.6619 -0.1795 0.641 -0.752 0.157 131 150 192 0 0
2.1085 4.6812 -0.1803 0.737 -0.668 0.108 129 148 189 0 0
2.1160 4.7028 -0.1812 0.619 -0.784 0.048 125 142 185 0 0
2.1225 4.7053 -0.1814 0.423 -0.906 0.007 120 134 177 0 0
2.1291 4.7084 -0.1816 0.423 -0.906 0.007 104 115 157 0 0
-0.6593 3.8364 -0.1114 0.636 -0.769 0.067 107 98 96 0 0
-0.6470 3.8467 -0.1120 0.788 -0.488 0.375 108 97 113 0 0
-0.6423 3.8540 -0.1124 0.788 -0.488 0.375 113 100 118 0 0
-0.5496 3.8710 -0.1145 0.881 -0.461 -0.106 93 69 69 0 0
-0.5454 3.8792 -0.1149 0.881 -0.461 -0.106 106 84 76 0 0
-0.5411 3.8874 -0.1152 0.881 -0.461 -0.106 111 97 89 0 0
-0.3347 3.8472 -0.1171 0.319 -0.943 0.093 100 53 63 0 0
-0.3331 3.8918 -0.1188 0.832 -0.555 -0.024 96 48 57 0 0
0.3139 3.7025 -0.1223 0.949 -0.316 -0.000 114 65 74 0 0
0.3177 3.7118 -0.1227 0.949 -0.316 0.015 114 66 77 0 0
0.3221 3.7194 -0.1231 0.908 -0.404 0.112 113 63 74 0 0
0.3268 3.7265 -0.1234 0.937 -0.325 0.128 110 62 71 0 0
0.3415 3.7655 -0.1251 0.936 -0.351 -0.015 112 62 72 0 0
0.3448 3.7765 -0.1256 0.952 -0.295 -0.078 110 62 72 0 0
0.3499 3.7828 -0.1259 0.962 -0.259 -0.086 110 62 73 0 0
0.3547 3.8096 -0.1269 0.896 -0.437 0.080 108 61 73 0 0
1.3243 3.5045 -0.1315 0.877 -0.368 0.308 129 104 118 0 0
1.3286 3.5143 -0.1319 0.877 -0.368 0.308 126 101 115 0 0
1.3326 3.5259 -0.1324 0.865 -0.299 0.404 123 99 114 0 0
1.3451 3.5593 -0.1338 0.918 -0.240 0.316 123 97 111 0 0
1.3489 3.5732 -0.1344 0.918 -0.240 0.316 116 93 106 0 0
1.3526 3.5884 -0.1350 0.888 -0.307 0.343 111 89 102 0 0
1.3562 3.6042 -0.1357 0.896 -0.310 0.319 110 88 101 0 0
1.3610 3.6114 -0.1360 0.785 -0.619 0.022 105 82 95 0 0
1.3650 3.6253 -0.1366 0.966 -0.256 0.031 86 67 82 0 0
1.3687 3.6413 -0.1372 0.963 -0.208 0.170 90 78 102 0 0
1.4722 3.7633 -0.1434 0.643 -0.746 0.174 114 127 166 0 0
1.4777 3.7679 -0.1437 0.643 -0.746 0.174 97 102 142 0 0
1.4825 3.7788 -0.1442 0.835 -0.479 0.270 50 47 75 0 0
1.4876 3.7872 -0.1445 0.947 -0.279 0.158 33 33 47 0 0
1.4923 3.7992 -0.1451 0.947 -0.306 0.101 44 43 55 0 0
1.4968 3.8144 -0.1457 0.957 -0.281 0.078 51 49 67 0 0
1.5011 3.8322 -0.1464 0.948 -0.318 -0.012 62 68 91 0 0
1.5065 3.8387 -0.1468 0.653 -0.757 -0.011 66 68 93 0 0
1.5117 3.8473 -0.1472 0.465 -0.879 0.107 54 51 75 0 0
1.5174 3.8503 -0.1474 0.465 -0.879 0.107 64 62 81 0 0
1.5230 3.8537 -0.1476 0.490 -0.867 0.097 73 72 91 0 0
1.5283 3.8619 -0.1480 0.688 -0.717 -0.112 77 78 102 0 0
1.5593 3.7706 -0.1451 0.614 -0.780 0.123 84 100 134 0 0
1.5645 3.7784 -0.1455 0.831 -0.551 0.083 109 127 163 0 0
1.5697 3.7862 -0.1459 0.831 -0.551 0.083 108 121 160 0 0
1.5948 3.8415 -0.1483 0.645 -0.735 0.210 137 152 189 0 0
1.6004 3.8450 -0.1485 0.477 -0.869 -0.135 138 153 192 0 0
1.6076 3.8252 -0.1479 0.160 -0.916 -0.368 139 154 192 0 0
1.6138 3.8181 -0.1477 0.289 -0.955 -0.074 141 156 195 0 0
1.6486 3.8134 -0.1481 0.061 -0.996 0.068 147 164 207 0 0
1.6604 3.8072 -0.1481 0.078 -0.992 -0.094 149 165 209 0 0
1.7890 4.1687 -0.1635 0.814 -0.569 0.114 146 163 206 0 0
1.7949 4.1807 -0.1640 0.827 -0.547 -0.133 146 163 206 0 0
1.8008 4.1890 -0.1644 0.884 -0.462 -0.074 146 165 208 0 0
1.8067 4.2004 -0.1649 0.884 -0.462 -0.074 149 167 210 0 0
1.8127 4.2080 -0.1653 0.874 -0.465 -0.142 149 166 209 0 0
1.8186 4.2193 -0.1658 0.874 -0.465 -0.142 147 164 207 0 0
1.8246 4.2307 -0.1664 0.874 -0.465 -0.142 146 163 207 0 0
1.8306 4.2422 -0.1669 0.874 -0.465 -0.142 147 165 208 0 0
1.8367 4.2492 -0.1672 0.852 -0.516 -0.089 147 163 206 0 0
1.8427 4.2560 -0.1676 0.854 -0.505 -0.128 143 160 203 0 0
1.8488 4.2665 -0.1681 0.854 -0.504 -0.128 143 160 203 0 0
1.8549 4.2770 -0.1685 0.854 -0.504 -0.128 143 160 202 0 0
1.8610 4.2832 -0.1689 0.895 -0.445 -0.025 142 160 201 0 0
1.8671 4.2955 -0.1694 0.895 -0.445 -0.025 144 162 204 0 0
1.8732 4.3062 -0.1699 0.915 -0.394 -0.090 145 162 205 0 0
1.8794 4.3183 -0.1705 0.864 -0.503 -0.029 144 161 204 0 0
1.8856 4.3289 -0.1710 0.864 -0.503 -0.029 143 160 203 0 0
1.8918 4.3391 -0.1714 0.786 -0.612 -0.087 143 160 202 0 0
1.8980 4.3471 -0.1718 0.786 -0.612 -0.087 143 161 202 0 0
1.9043 4.3619 -0.1725 0.862 -0.500 -0.084 142 159 202 0 0
1.9106 4.3728 -0.1730 0.862 -0.500 -0.084 143 160 204 0 0
1.9168 4.3802 -0.1734 0.874 -0.483 -0.054 144 162 206 0 0
1.9231 4.3892 -0.1738 0.847 -0.529 -0.057 144 164 206 0 0
1.9295 4.3981 -0.1742 0.852 -0.514 0.104 144 160 203 0 0
1.9358 4.4085 -0.1747 0.852 -0.514 0.104 143 159 202 0 0
1.9422 4.4190 -0.1752 0.852 -0.514 0.104 144 160 203 0 0
1.9485 4.4249 -0.1755 0.840 -0.541 0.040 142 160 201 0 0
1.9549 4.4340 -0.1760 0.829 -0.552 -0.083 140 159 200 0 0
1.9614 4.4507 -0.1767 0.861 -0.506 -0.061 140 158 200 0 0
1.9679 4.4618 -0.1772 0.861 -0.506 -0.061 138 156 197 0 0
1.9744 4.4729 -0.1777 0.861 -0.506 -0.061 137 155 196 0 0
1.9806 4.4720 -0.1778 0.812 -0.583 0.035 139 156 198 0 0
1.9871 4.4831 -0.1783 0.848 -0.522 0.092 139 156 199 0 0
1.9936 4.4936 -0.1788 0.848 -0.522 0.092 139 156 199 0 0
2.0002 4.5042 -0.1793 0.848 -0.522 0.092 139 156 199 0 0
2.0068 4.5147 -0.1798 0.848 -0.522 0.092 139 156 199 0 0
2.0134 4.5254 -0.1803 0.848 -0.522 0.092 139 155 197 0 0
2.0198 4.5319 -0.1806 0.890 -0.428 0.160 136 152 194 0 0
2.0266 4.5450 -0.1812 0.872 -0.460 0.167 134 149 190 0 0
2.0333 4.5574 -0.1818 0.878 -0.446 0.175 133 150 190 0 0
2.0401 4.5705 -0.1824 0.878 -0.446 0.175 133 151 190 0 0
2.0467 4.5792 -0.1828 0.762 -0.502 0.409 134 152 191 0 0
2.0533 4.5873 -0.1832 0.754 -0.581 0.306 134 152 193 0 0
2.0599 4.5957 -0.1836 0.749 -0.659 0.063 135 152 194 0 0
2.0664 4.5992 -0.1838 0.825 -0.539 -0.167 133 150 192 0 0
2.0731 4.6094 -0.1843 0.765 -0.455 -0.456 133 149 193 0 0
2.0799 4.6197 -0.1848 0.837 -0.511 -0.193 134 150 192 0 0
2.0871 4.6389 -0.1856 0.918 -0.369 -0.143 132 149 189 0 0
2.0940 4.6502 -0.1862 0.820 -0.569 0.070 131 149 189 0 0
2.1008 4.6601 -0.1866 0.641 -0.752 0.157 129 147 190 0 0
2.1081 4.6795 -0.1875 0.741 -0.671 0.025 130 146 189 0 0
2.1157 4.7021 -0.1884 0.423 -0.906 0.007 126 143 186 0 0
2.1222 4.7051 -0.1887 0.423 -0.906 0.007 120 135 178 0 0
2.1288 4.7082 -0.1889 0.423 -0.906 0.007 104 115 158 0 0
-1.6517 4.3309 -0.1230 0.573 -0.812 0.110 98 55 66 0 0
-0.6585 3.8349 -0.1194 0.264 -0.964 -0.001 63 51 51 0 0
-0.6504 3.8371 -0.1196 0.264 -0.964 -0.001 78 68 73 0 0
-0.6396 3.8495 -0.1202 0.768 -0.579 0.273 108 94 108 0 0
-0.6345 3.8562 -0.1206 0.768 -0.579 0.273 116 102 121 0 0
-0.5684 3.8559 -0.1216 0.469 -0.881 -0.066 80 60 60 0 0
-0.3345 3.8464 -0.1249 0.319 -0.943 0.093 99 52 61 0 0
-0.3334 3.8918 -0.1266 0.832 -0.555 -0.024 96 49 58 0 0
-0.2284 3.8947 -0.1283 0.286 -0.958 -0.026 101 51 61 0 0
0.3137 3.7023 -0.1294 0.936 -0.338 0.102 115 63 74 0 0
0.3187 3.7086 -0.1297 0.779 -0.619 0.104 114 64 75 0 0
0.3238 3.7148 -0.1300 0.779 -0.619 0.104 113 62 72 0 0
0.3264 3.7270 -0.1305 0.908 -0.404 0.112 112 60 71 0 0
0.3455 3.7742 -0.1326 0.917 -0.325 -0.231 109 63 73 0 0
0.3490 3.7845 -0.1331 0.914 -0.344 -0.215 109 63 73 0 0
0.3520 3.7964 -0.1336 0.900 -0.370 -0.229 109 61 72 0 0
0.3548 3.8086 -0.1341 0.896 -0.437 0.080 110 63 76 0 0
0.3568 3.8231 -0.1347 0.610 -0.657 0.443 107 65 80 0 0
1.3049 3.4797 -0.1362 0.358 -0.927 0.110 110 81 93 0 0
1.3103 3.4821 -0.1364 0.428 -0.903 0.050 111 87 102 0 0
1.3209 3.4878 -0.1367 0.642 -0.767 -0.017 127 107 123 0 0
1.3237 3.5066 -0.1375 0.895 -0.417 0.157 132 112 126 0 0
1.3289 3.5103 -0.1377 0.877 -0.368 0.308 132 111 126 0 0
1.3330 3.5217 -0.1382 0.900 -0.335 0.278 129 109 126 0 0
1.3375 3.5303 -0.1386 0.842 -0.353 0.407 126 106 121 0 0
1.3418 3.5401 -0.1391 0.842 -0.353 0.407 124 105 118 0 0
1.3459 3.5516 -0.1396 0.873 -0.270 0.407 121 99 114 0 0
1.3494 3.5677 -0.1403 0.918 -0.240 0.316 116 94 109 0 0
1.3530 3.5837 -0.1409 0.897 -0.260 0.359 113 91 107 0 0
1.3566 3.5996 -0.1416 0.859 -0.347 0.376 113 89 105 0 0
1.3610 3.6100 -0.1421 0.859 -0.347 0.376 110 83 98 0 0
1.3650 3.6235 -0.1426 0.956 -0.278 0.089 88 65 82 0 0
1.3690 3.6376 -0.1432 0.963 -0.208 0.170 80 73 94 0 0
1.4151 3.6912 -0.1460 0.973 -0.177 0.147 63 52 69 0 0
1.4721 3.7617 -0.1496 0.584 -0.742 0.329 113 127 163 0 0
1.4776 3.7664 -0.1499 0.643 -0.746 0.174 96 101 138 0 0
1.4826 3.7755 -0.1503 0.835 -0.479 0.270 43 39 68 0 0
1.4875 3.7851 -0.1507 0.958 -0.277 0.079 30 31 45 0 0
1.4923 3.7974 -0.1513 0.957 -0.281 0.078 48 46 58 0 0
1.4968 3.8125 -0.1519 0.957 -0.281 0.078 47 44 60 0 0
1.5009 3.8318 -0.1527 0.948 -0.318 -0.012 51 54 76 0 0
1.5064 3.8370 -0.1530 0.732 -0.677 0.071 57 60 83 0 0
1.5116 3.8456 -0.1534 0.530 -0.848 -0.028 60 61 82 0 0
1.5172 3.8497 -0.1537 0.490 -0.867 0.097 68 67 88 0 0
1.5229 3.8529 -0.1539 0.490 -0.867 0.097 72 76 100 0 0
1.5279 3.8633 -0.1544 0.651 -0.717 -0.249 77 86 114 0 0
1.5592 3.7695 -0.1513 0.614 -0.780 0.123 82 98 131 0 0
1.5946 3.8419 -0.1546 0.832 -0.553 0.044 120 130 169 0 0
1.6002 3.8450 -0.1548 0.520 -0.853 -0.040 122 131 172 0 0
1.6073 3.8248 -0.1541 0.084 -0.946 -0.312 125 135 176 0 0
1.6135 3.8185 -0.1540 0.289 -0.955 -0.074 131 143 182 0 0
1.6484 3.8130 -0.1543 0.061 -0.996 0.068 146 163 205 0 0
1.6541 3.8143 -0.1544 0.141 -0.989 -0.030 148 166 207 0 0
1.6657 3.8098 -0.1545 -0.183 -0.976 -0.120 147 162 204 0 0
1.7082 3.7398 -0.1524 -0.716 -0.696 -0.060 152 170 213 0 0
1.8005 4.1905 -0.1712 0.843 -0.530 -0.089 149 166 210 0 0
1.8064 4.2006 -0.1716 0.857 -0.483 -0.180 150 167 210 0 0
1.8124 4.2097 -0.1721 0.763 -0.524 -0.379 149 167 210 0 0
1.8184 4.2210 -0.1726 0.877 -0.461 -0.137 148 165 209 0 0
1.8243 4.2325 -0.1731 0.877 -0.461 -0.137 146 163 207 0 0
1.8303 4.2432 -0.1736 0.778 -0.614 -0.134 147 164 207 0 0
1.8364 4.2502 -0.1740 0.696 -0.714 0.077 146 163 206 0 0
1.8424 4.2561 -0.1743 0.696 -0.714 0.077 144 163 205 0 0
1.8485 4.2617 -0.1746 0.523 -0.757 0.391 144 161 204 0 0
1.8546 4.2770 -0.1753 0.884 -0.463 0.073 145 161 204 0 0
1.8607 4.2830 -0.1756 0.895 -0.445 -0.025 144 161 204 0 0
1.8668 4.2954 -0.1762 0.895 -0.445 -0.025 145 162 205 0 0
1.8730 4.3078 -0.1768 0.895 -0.445 -0.025 145 162 205 0 0
1.8791 4.3215 -0.1774 0.814 -0.580 -0.013 146 161 204 0 0
1.8853 4.3288 -0.1778 0.864 -0.503 -0.029 145 159 201 0 0
1.8915 4.3397 -0.1783 0.786 -0.612 -0.087 143 159 202 0 0
1.8977 4.3477 -0.1787 0.786 -0.612 -0.087 143 160 203 0 0
1.9040 4.3575 -0.1792 0.874 -0.483 -0.054 143 159 202 0 0
1.9103 4.3690 -0.1797 0.874 -0.483 -0.054 143 159 202 0 0
1.9166 4.3804 -0.1802 0.874 -0.483 -0.054 144 160 203 0 0
1.9229 4.3892 -0.1807 0.873 -0.481 0.075 143 160 203 0 0
1.9292 4.3975 -0.1811 0.866 -0.499 0.027 142 158 201 0 0
1.9356 4.4111 -0.1817 0.794 -0.553 0.254 141 159 202 0 0
1.9419 4.4200 -0.1822 0.794 -0.553 0.254 143 161 203 0 0
