ply
format ascii 1.0
element vertex 834
property float x
property float y
property float z
property float nx
property float ny
property float nz
property uchar diffuse_red
property uchar diffuse_green
property uchar diffuse_blue
property uchar class
property uchar detection
end_header
0.0071 4.0873 1.6678 -0.090 -0.987 0.130 119 98 122 0 0
0.0154 4.0863 1.6664 -0.090 -0.987 0.130 126 103 127 0 0
0.0240 4.0843 1.6647 -0.332 -0.907 0.259 121 98 120 0 0
0.0423 4.0758 1.6594 -0.517 -0.850 0.098 112 95 119 0 0
0.0516 4.0708 1.6565 -0.383 -0.902 0.198 120 101 125 0 0
0.0603 4.0681 1.6544 -0.478 -0.875 0.078 107 88 112 0 0
0.0697 4.0628 1.6514 -0.407 -0.913 -0.038 105 86 108 0 0
0.0786 4.0590 1.6490 -0.206 -0.977 0.054 118 98 118 0 0
0.0870 4.0572 1.6473 -0.206 -0.977 0.054 114 96 119 0 0
0.1151 4.0397 1.6376 -0.298 -0.950 0.093 115 92 114 0 0
0.1235 4.0373 1.6357 -0.296 -0.939 0.174 111 88 110 0 0
0.1406 4.0318 1.6317 -0.206 -0.975 -0.077 109 92 114 0 0
0.1489 4.0302 1.6301 -0.206 -0.975 -0.077 116 98 120 0 0
0.1571 4.0286 1.6285 -0.206 -0.975 -0.077 125 104 127 0 0
0.1650 4.0284 1.6275 -0.141 -0.990 -0.009 129 105 128 0 0
0.1732 4.0267 1.6259 -0.194 -0.967 -0.164 120 99 122 0 0
0.2172 4.0036 1.6122 -0.389 -0.894 -0.221 113 85 104 0 0
0.2256 4.0008 1.6102 -0.355 -0.916 -0.187 105 76 93 0 0
0.2339 3.9980 1.6082 -0.355 -0.916 -0.187 113 86 101 0 0
0.2422 3.9952 1.6062 -0.355 -0.916 -0.187 117 90 108 0 0
0.2493 3.9984 1.6065 -0.110 -0.994 -0.010 116 88 107 0 0
0.7226 3.8153 1.4832 -0.183 -0.982 0.046 111 99 119 0 0
1.1245 3.6570 1.3776 -0.397 -0.913 -0.093 77 65 89 0 0
1.2582 3.5993 1.3406 -0.324 -0.929 0.178 115 88 114 0 0
1.2819 3.5926 1.3354 -0.384 -0.886 0.259 114 89 119 0 0
1.3848 3.7901 1.3931 0.630 -0.738 -0.242 72 60 71 0 0
1.4041 3.8841 1.4242 0.449 -0.591 0.670 73 58 71 0 0
1.4057 3.8204 1.4013 0.836 -0.400 -0.374 77 65 76 0 0
1.4135 3.8419 1.4080 -0.826 -0.539 0.165 68 53 63 0 0
1.5191 3.9029 1.4168 0.244 -0.963 0.114 68 69 102 0 0
1.5255 3.9045 1.4166 0.244 -0.963 0.114 59 64 95 0 0
1.5321 3.9069 1.4166 0.095 -0.969 0.229 71 79 108 0 0
1.5383 3.9068 1.4158 -0.422 -0.900 0.111 65 74 107 0 0
1.5442 3.9038 1.4140 -0.422 -0.900 0.111 84 108 150 0 0
1.5501 3.9008 1.4122 -0.422 -0.900 0.111 137 166 210 0 0
1.8975 4.5126 1.5876 0.830 -0.556 0.026 166 180 227 0 0
1.9068 4.5266 1.5914 0.830 -0.556 0.026 165 180 227 0 0
1.9161 4.5407 1.5953 0.830 -0.556 0.026 165 182 228 0 0
1.9254 4.5546 1.5991 0.861 -0.504 -0.070 166 183 230 0 0
1.9344 4.5666 1.6023 0.800 -0.592 0.096 168 183 233 0 0
1.9433 4.5779 1.6052 0.799 -0.589 -0.121 166 181 230 0 0
1.9530 4.5933 1.6095 0.858 -0.509 0.063 166 180 228 0 0
1.9632 4.6110 1.6146 0.858 -0.509 0.063 164 179 226 0 0
1.9734 4.6289 1.6197 0.858 -0.509 0.063 162 177 224 0 0
1.9836 4.6468 1.6248 0.858 -0.509 0.063 162 178 224 0 0
1.9939 4.6649 1.6300 0.858 -0.509 0.063 162 179 225 0 0
2.0043 4.6830 1.6352 0.858 -0.509 0.063 163 177 226 0 0
2.0146 4.7003 1.6401 0.768 -0.639 0.032 162 177 226 0 0
2.0236 4.7105 1.6426 0.833 -0.551 -0.036 161 178 224 0 0
2.0335 4.7252 1.6466 0.833 -0.551 -0.036 160 176 222 0 0
2.0444 4.7450 1.6524 0.863 -0.500 0.070 158 175 220 0 0
2.0553 4.7648 1.6581 0.860 -0.505 0.068 158 175 220 0 0
2.0654 4.7802 1.6623 0.874 -0.486 0.025 156 172 216 0 0
2.0775 4.8054 1.6698 0.783 -0.621 0.038 155 172 215 0 0
2.0899 4.8322 1.6778 0.769 -0.637 0.051 154 169 212 0 0
2.0995 4.8440 1.6809 0.769 -0.637 0.051 145 156 200 0 0
2.1105 4.8629 1.6863 0.809 -0.581 0.088 127 136 181 0 0
2.1236 4.8559 1.6821 -0.669 -0.742 -0.044 84 94 136 0 0
2.1287 4.8455 1.6778 -0.651 -0.752 -0.098 72 82 118 0 0
2.1350 4.8411 1.6755 -0.600 -0.798 -0.055 50 65 93 0 0
2.1336 4.6006 1.5900 0.252 -0.964 0.086 71 104 141 0 0
2.1411 4.6037 1.5902 0.301 -0.950 0.082 133 165 200 0 0
2.1484 4.6060 1.5901 0.301 -0.950 0.082 151 172 211 0 0
-2.7338 5.0760 2.3448 0.177 -0.970 0.169 172 188 240 0 0
-2.7233 5.0793 2.3446 0.678 -0.726 0.116 172 188 240 0 0
-2.7109 5.0798 2.3433 0.902 -0.430 0.027 173 189 241 0 0
-2.7063 5.0912 2.3467 0.827 -0.563 -0.003 175 192 241 0 0
-2.7022 5.1034 2.3506 0.706 -0.701 0.099 147 164 207 0 0
-2.6948 5.1110 2.3524 0.706 -0.701 0.099 125 118 150 0 0
-2.6784 5.1060 2.3486 -0.419 -0.907 0.047 121 99 123 0 0
-2.6589 5.0967 2.3429 -0.419 -0.907 0.047 127 103 127 0 0
-2.6395 5.0875 2.3373 -0.419 -0.907 0.047 129 106 129 0 0
-2.6212 5.0797 2.3323 -0.444 -0.891 0.096 128 107 132 0 0
-2.5994 5.0669 2.3251 -0.378 -0.925 -0.050 128 107 130 0 0
-2.5828 5.0613 2.3211 -0.373 -0.923 -0.090 126 103 124 0 0
-2.5653 5.0544 2.3165 -0.396 -0.909 0.131 121 98 119 0 0
-2.5490 5.0492 2.3127 -0.374 -0.926 0.049 122 97 117 0 0
-2.5292 5.0390 2.3066 -0.190 -0.964 -0.186 129 105 124 0 0
-2.5151 5.0367 2.3041 -0.190 -0.964 -0.186 129 105 123 0 0
-2.5009 5.0344 2.3016 -0.190 -0.964 -0.186 123 102 119 0 0
-2.4863 5.0312 2.2987 -0.171 -0.951 -0.258 120 100 117 0 0
-2.4729 5.0299 2.2966 -0.271 -0.913 -0.305 111 93 109 0 0
-2.4576 5.0259 2.2933 -0.384 -0.896 -0.222 99 80 98 0 0
-2.4410 5.0198 2.2891 -0.384 -0.896 -0.222 104 80 100 0 0
-2.4245 5.0138 2.2849 -0.384 -0.896 -0.222 118 91 110 0 0
-2.4061 5.0049 2.2795 -0.471 -0.882 -0.007 127 101 120 0 0
-2.3892 4.9982 2.2751 -0.381 -0.922 -0.065 128 107 127 0 0
-2.3714 4.9901 2.2701 -0.388 -0.899 -0.201 130 113 132 0 0
-2.3550 4.9840 2.2659 -0.388 -0.899 -0.201 130 113 132 0 0
-2.3387 4.9779 2.2617 -0.388 -0.899 -0.201 120 102 121 0 0
-2.3188 4.9664 2.2552 -0.457 -0.889 0.011 113 94 114 0 0
-2.3008 4.9576 2.2499 -0.412 -0.900 0.142 121 101 120 0 0
-2.2817 4.9472 2.2439 -0.457 -0.889 0.011 121 103 122 0 0
-2.2659 4.9416 2.2400 -0.404 -0.906 0.126 123 105 123 0 0
-2.2488 4.9340 2.2352 -0.147 -0.977 0.152 122 105 124 0 0
-2.2319 4.9266 2.2305 -0.122 -0.992 0.014 116 100 122 0 0
-2.2191 4.9254 2.2285 -0.308 -0.951 -0.038 107 89 109 0 0
-2.1904 4.9182 2.2225 -0.139 -0.990 -0.024 120 99 119 0 0
-2.1752 4.9132 2.2189 -0.129 -0.982 -0.140 123 105 124 0 0
-2.1613 4.9100 2.2160 -0.282 -0.958 -0.042 119 102 121 0 0
-2.1482 4.9083 2.2138 -0.453 -0.891 0.029 106 87 106 0 0
-2.1309 4.8998 2.2087 -0.464 -0.886 -0.003 107 83 102 0 0
-2.1131 4.8905 2.2032 -0.464 -0.886 -0.003 116 91 108 0 0
-2.0973 4.8842 2.1991 -0.460 -0.887 0.034 128 105 123 0 0
-2.0790 4.8739 2.1932 -0.403 -0.915 -0.033 123 102 121 0 0
-2.0635 4.8679 2.1892 -0.363 -0.930 0.060 115 95 113 0 0
-2.0478 4.8615 2.1850 -0.377 -0.914 0.147 98 78 100 0 0
-2.0314 4.8540 2.1803 -0.377 -0.914 0.147 98 77 98 0 0
-2.0151 4.8465 2.1757 -0.377 -0.914 0.147 102 79 102 0 0
-2.0002 4.8413 2.1720 -0.256 -0.957 0.136 112 90 111 0 0
-1.9859 4.8371 2.1688 -0.256 -0.957 0.136 112 95 116 0 0
-1.9711 4.8317 2.1651 -0.157 -0.984 0.087 107 88 109 0 0
-1.9581 4.8295 2.1627 -0.157 -0.984 0.087 121 101 123 0 0
-1.9434 4.8243 2.1591 -0.256 -0.957 0.136 119 103 123 0 0
-1.9294 4.8201 2.1559 -0.256 -0.957 0.136 116 101 121 0 0
-1.9183 4.8208 2.1548 -0.331 -0.932 0.151 111 93 115 0 0
-1.9032 4.8148 2.1508 -0.331 -0.932 0.151 104 85 106 0 0
-1.8881 4.8088 2.1468 -0.331 -0.932 0.151 105 84 104 0 0
-1.8717 4.8005 2.1419 -0.358 -0.898 0.255 104 83 103 0 0
-1.8558 4.7928 2.1372 -0.358 -0.898 0.255 107 84 105 0 0
-1.8410 4.7871 2.1334 -0.328 -0.926 0.184 111 90 110 0 0
-1.8289 4.7858 2.1314 -0.296 -0.930 0.219 106 88 108 0 0
-1.8110 4.7747 2.1253 -0.125 -0.969 0.214 108 90 110 0 0
-1.7997 4.7747 2.1240 -0.296 -0.930 0.219 119 99 119 0 0
-1.7853 4.7692 2.1202 -0.296 -0.930 0.219 118 98 118 0 0
-1.7709 4.7638 2.1166 -0.316 -0.935 0.161 117 97 117 0 0
-1.7565 4.7584 2.1129 -0.348 -0.909 0.228 114 95 115 0 0
-1.7413 4.7515 2.1086 -0.348 -0.909 0.228 116 91 111 0 0
-1.7247 4.7420 2.1032 -0.311 -0.927 0.210 122 94 112 0 0
-1.7103 4.7363 2.0994 -0.311 -0.927 0.210 124 96 114 0 0
-1.6963 4.7314 2.0960 -0.266 -0.911 -0.315 124 96 112 0 0
-1.6827 4.7268 2.0927 -0.229 -0.955 -0.189 125 96 115 0 0
-1.6687 4.7216 2.0891 -0.204 -0.979 0.023 128 103 125 0 0
-1.6568 4.7201 2.0872 -0.368 -0.906 -0.209 125 100 122 0 0
-1.6431 4.7153 2.0838 -0.368 -0.906 -0.209 119 93 113 0 0
-1.6280 4.7080 2.0793 -0.479 -0.869 -0.125 115 90 109 0 0
-1.6127 4.7002 2.0747 -0.479 -0.869 -0.125 106 84 104 0 0
-1.5994 4.6959 2.0716 -0.398 -0.915 -0.059 98 71 93 0 0
-1.5852 4.6900 2.0677 -0.398 -0.915 -0.059 103 73 95 0 0
-1.5719 4.6857 2.0646 -0.375 -0.926 0.043 110 79 101 0 0
-1.5578 4.6798 2.0608 -0.375 -0.926 0.043 124 94 114 0 0
-1.5454 4.6768 2.0582 -0.244 -0.961 -0.128 130 103 122 0 0
-1.5334 4.6747 2.0560 -0.199 -0.967 -0.159 128 105 125 0 0
-1.5217 4.6730 2.0540 -0.268 -0.963 -0.010 128 107 127 0 0
-1.5090 4.6695 2.0512 -0.268 -0.963 -0.010 122 100 121 0 0
-1.4950 4.6635 2.0474 -0.355 -0.927 0.120 119 94 116 0 0
-1.4783 4.6524 2.0414 0.012 -0.955 0.298 121 96 118 0 0
-1.4657 4.6488 2.0386 -0.021 -0.903 0.429 122 98 121 0 0
-1.4507 4.6406 2.0338 0.122 -0.823 0.554 120 101 123 0 0
-1.4406 4.6417 2.0330 -0.067 -0.967 0.245 110 96 117 0 0
-1.4314 4.6443 2.0328 -0.267 -0.938 0.220 110 89 111 0 0
-1.4184 4.6399 2.0296 -0.267 -0.938 0.220 109 84 105 0 0
-1.3865 4.6194 2.0185 -0.448 -0.877 0.174 120 95 113 0 0
-1.3704 4.6086 2.0127 -0.416 -0.909 0.031 113 88 106 0 0
-1.3564 4.6018 2.0085 -0.369 -0.927 0.064 115 88 103 0 0
-1.3468 4.6035 2.0080 -0.359 -0.931 0.059 116 90 105 0 0
-1.3316 4.5943 2.0029 -0.279 -0.959 -0.042 110 85 100 0 0
-1.3195 4.5909 2.0002 -0.279 -0.959 -0.042 111 85 101 0 0
-1.2937 4.5811 1.9936 -0.487 -0.865 0.121 103 77 91 0 0
-1.2799 4.5744 1.9895 -0.370 -0.927 0.062 104 77 92 0 0
-1.2675 4.5701 1.9865 -0.369 -0.929 0.028 109 82 97 0 0
-1.2551 4.5661 1.9835 -0.134 -0.981 0.142 100 76 93 0 0
-1.2450 4.5664 1.9824 -0.056 -0.990 0.127 101 77 99 0 0
-1.2343 4.5656 1.9808 -0.056 -0.990 0.127 118 92 114 0 0
-1.2215 4.5605 1.9775 -0.289 -0.955 0.073 119 96 118 0 0
-1.2081 4.5541 1.9735 -0.466 -0.875 -0.128 114 95 119 0 0
-1.1804 4.5391 1.9649 -0.470 -0.869 -0.153 119 100 125 0 0
-1.1443 4.5273 1.9563 -0.174 -0.919 0.354 104 79 100 0 0
-1.1326 4.5241 1.9537 -0.174 -0.919 0.354 108 80 101 0 0
-1.1201 4.5189 1.9503 -0.188 -0.948 0.258 106 81 102 0 0
-1.1079 4.5145 1.9473 -0.269 -0.935 0.230 115 94 117 0 0
-1.0836 4.5054 1.9411 -0.473 -0.864 0.173 110 90 112 0 0
-1.0706 4.4990 1.9372 -0.392 -0.906 0.159 116 93 115 0 0
-1.0574 4.4921 1.9332 -0.230 -0.959 0.168 109 90 111 0 0
-1.0460 4.4889 1.9307 -0.230 -0.959 0.168 94 77 100 0 0
-1.0346 4.4857 1.9281 -0.230 -0.959 0.168 103 81 103 0 0
-1.0232 4.4825 1.9256 -0.230 -0.959 0.168 117 92 114 0 0
-1.0119 4.4793 1.9231 -0.248 -0.939 0.236 118 92 114 0 0
-0.9997 4.4742 1.9198 -0.485 -0.872 0.068 118 92 115 0 0
-0.9863 4.4664 1.9154 -0.485 -0.872 0.068 120 95 119 0 0
-0.9724 4.4575 1.9106 -0.305 -0.952 -0.016 117 93 117 0 0
-0.9610 4.4539 1.9079 -0.305 -0.952 -0.016 112 86 112 0 0
-0.9496 4.4503 1.9052 -0.305 -0.952 -0.016 110 85 111 0 0
-0.9374 4.4448 1.9018 -0.211 -0.976 0.062 110 86 110 0 0
-0.9262 4.4413 1.8992 -0.287 -0.958 -0.030 112 87 108 0 0
-0.9143 4.4365 1.8960 -0.418 -0.899 -0.131 102 75 97 0 0
-0.9045 4.4362 1.8947 -0.326 -0.945 -0.004 104 80 102 0 0
-0.8927 4.4314 1.8916 -0.406 -0.913 0.039 111 85 107 0 0
-0.8807 4.4259 1.8882 -0.406 -0.913 0.039 113 85 106 0 0
-0.8647 4.4111 1.8810 -0.615 -0.787 0.042 117 90 111 0 0
-0.8459 4.3896 1.8711 -0.691 -0.712 0.125 120 94 118 0 0
-0.8309 4.3769 1.8647 -0.667 -0.729 0.156 122 96 123 0 0
-0.8141 4.3598 1.8566 -0.667 -0.729 0.156 119 94 120 0 0
-0.7651 4.3103 1.8331 -0.175 -0.946 -0.274 134 126 127 0 0
-0.7552 4.3090 1.8314 -0.175 -0.946 -0.274 155 147 137 0 0
-0.7453 4.3076 1.8297 -0.175 -0.946 -0.274 186 175 155 0 0
-0.7355 4.3063 1.8281 -0.061 -0.992 -0.107 153 130 122 0 0
-0.7245 4.3020 1.8252 -0.039 -0.998 0.059 132 86 103 0 0
-0.7122 4.2948 1.8211 -0.373 -0.928 0.026 134 96 126 0 0
-0.7023 4.2932 1.8194 -0.366 -0.864 0.347 122 92 125 0 0
-0.6927 4.2921 1.8178 -0.353 -0.923 0.152 147 127 157 0 0
-0.6799 4.2832 1.8131 -0.309 -0.946 0.100 130 108 131 0 0
-0.6680 4.2764 1.8092 -0.283 -0.947 0.151 179 168 164 0 0
-0.6583 4.2752 1.8076 -0.411 -0.899 0.149 84 102 107 0 0
-0.6469 4.2694 1.8042 -0.411 -0.899 0.149 62 99 119 0 0
-0.6357 4.2641 1.8009 -0.394 -0.907 0.150 83 114 143 0 0
-0.6263 4.2634 1.7995 -0.413 -0.910 0.025 114 141 185 0 0
-0.6135 4.2539 1.7946 -0.049 -0.986 0.159 110 131 178 0 0
-0.6042 4.2532 1.7932 -0.049 -0.986 0.159 78 87 125 0 0
-0.5933 4.2485 1.7902 -0.497 -0.866 0.055 137 122 133 0 0
-0.5816 4.2415 1.7863 -0.497 -0.866 0.055 112 105 125 0 0
-0.5700 4.2346 1.7824 -0.497 -0.866 0.055 113 127 175 0 0
-0.5500 4.2293 1.7781 0.079 -0.991 0.108 165 153 154 0 0
-0.5277 4.2415 1.7797 0.640 -0.767 0.048 50 35 34 0 0
-0.5143 4.2539 1.7825 0.714 -0.700 0.013 63 57 72 0 0
-0.5078 4.2605 1.7840 0.714 -0.700 0.013 71 61 78 0 0
-0.4566 4.2674 1.7802 -0.422 -0.874 -0.242 102 86 114 0 0
-0.4462 4.2632 1.7775 -0.441 -0.862 -0.249 105 87 114 0 0
-0.4357 4.2586 1.7746 -0.441 -0.862 -0.249 111 89 117 0 0
-0.4252 4.2540 1.7717 -0.131 -0.981 -0.142 121 99 127 0 0
-0.4160 4.2530 1.7702 -0.131 -0.981 -0.142 132 114 137 0 0
-0.4065 4.2511 1.7683 -0.037 -0.999 -0.030 127 108 131 0 0
-0.3976 4.2507 1.7671 -0.149 -0.982 -0.113 122 106 130 0 0
-0.3867 4.2448 1.7637 -0.352 -0.929 0.115 124 109 133 0 0
-0.3744 4.2341 1.7584 -0.465 -0.878 0.114 119 103 128 0 0
-0.3492 4.2110 1.7471 0.046 -0.983 0.176 120 102 129 0 0
-0.3415 4.2141 1.7473 -0.075 -0.978 0.193 115 99 124 0 0
-0.3324 4.2131 1.7458 -0.075 -0.978 0.193 101 80 104 0 0
-0.3237 4.2131 1.7448 0.190 -0.950 0.246 124 97 116 0 0
-0.3156 4.2146 1.7443 0.190 -0.950 0.246 127 101 119 0 0
-0.3076 4.2167 1.7441 0.258 -0.906 0.336 129 106 128 0 0
-0.2728 4.1890 1.7300 -0.184 -0.970 -0.161 119 91 113 0 0
-0.2638 4.1875 1.7284 -0.184 -0.970 -0.161 125 97 118 0 0
-0.2548 4.1861 1.7268 -0.184 -0.970 -0.161 107 84 104 0 0
-0.2458 4.1848 1.7252 0.193 -0.953 -0.233 81 60 80 0 0
-0.2363 4.1816 1.7229 -0.204 -0.962 -0.181 108 88 107 0 0
-0.2274 4.1804 1.7214 -0.228 -0.947 -0.225 124 98 120 0 0
-0.2160 4.1712 1.7168 -0.499 -0.865 -0.052 124 96 119 0 0
-0.2057 4.1651 1.7133 -0.538 -0.843 -0.018 125 98 121 0 0
-0.1953 4.1588 1.7099 -0.465 -0.876 -0.127 131 106 128 0 0
-0.1856 4.1546 1.7072 -0.181 -0.974 -0.137 124 96 119 0 0
-0.1325 4.1452 1.6974 -0.247 -0.690 -0.680 93 66 83 0 0
-0.1145 4.1408 1.6936 -0.475 -0.859 -0.194 106 83 104 0 0
-0.1043 4.1342 1.6900 -0.493 -0.861 -0.127 104 82 103 0 0
-0.0944 4.1284 1.6868 -0.372 -0.928 -0.025 96 74 94 0 0
-0.0851 4.1249 1.6844 -0.372 -0.927 -0.044 99 79 102 0 0
-0.0758 4.1212 1.6819 -0.040 -0.973 0.229 109 90 116 0 0
-0.0662 4.1162 1.6790 -0.278 -0.935 0.220 117 97 120 0 0
-0.0593 4.1210 1.6799 -0.062 -0.998 -0.013 112 91 115 0 0
-0.0504 4.1186 1.6779 -0.140 -0.974 0.178 112 95 115 0 0
-0.0120 4.0975 1.6658 -0.401 -0.898 0.181 123 103 123 0 0
-0.0028 4.0936 1.6633 -0.347 -0.922 0.170 115 94 117 0 0
0.0072 4.0861 1.6594 -0.090 -0.987 0.130 119 95 119 0 0
0.0156 4.0852 1.6580 -0.090 -0.987 0.130 123 99 122 0 0
0.0246 4.0815 1.6556 -0.332 -0.907 0.259 117 93 116 0 0
0.0337 4.0775 1.6531 -0.332 -0.907 0.259 118 95 118 0 0
0.0425 4.0747 1.6510 -0.517 -0.850 0.098 116 93 118 0 0
0.0520 4.0688 1.6478 -0.383 -0.902 0.198 120 97 121 0 0
0.0612 4.0643 1.6451 -0.383 -0.902 0.198 104 80 102 0 0
0.0701 4.0606 1.6426 -0.262 -0.930 0.256 108 88 108 0 0
0.0791 4.0565 1.6401 -0.225 -0.961 0.163 111 93 114 0 0
0.0876 4.0542 1.6383 -0.225 -0.961 0.163 114 95 116 0 0
0.0956 4.0543 1.6373 -0.381 -0.903 0.200 118 96 118 0 0
0.1044 4.0509 1.6350 -0.301 -0.908 0.293 122 97 119 0 0
0.1323 4.0331 1.6253 -0.298 -0.950 0.093 116 94 117 0 0
0.1403 4.0325 1.6241 -0.206 -0.975 -0.077 116 91 117 0 0
0.1486 4.0308 1.6225 -0.206 -0.975 -0.077 121 97 123 0 0
0.1568 4.0292 1.6210 -0.206 -0.975 -0.077 127 105 129 0 0
0.1646 4.0295 1.6201 -0.194 -0.967 -0.164 132 113 137 0 0
0.1728 4.0281 1.6186 -0.194 -0.967 -0.164 119 100 124 0 0
0.1824 4.0201 1.6146 -0.389 -0.833 -0.394 102 79 101 0 0
1.1676 3.6346 1.3578 -0.228 -0.948 0.222 89 70 91 0 0
1.1921 3.6290 1.3528 -0.347 -0.903 0.254 122 99 122 0 0
1.2102 3.6189 1.3470 -0.437 -0.866 0.243 112 88 115 0 0
1.2818 3.5937 1.3293 -0.284 -0.958 -0.046 117 92 120 0 0
1.2878 3.5941 1.3287 0.116 -0.993 -0.023 115 92 118 0 0
1.2940 3.5995 1.3299 0.425 -0.902 0.078 118 94 117 0 0
1.4028 3.8697 1.4124 0.449 -0.591 0.670 66 53 63 0 0
1.4058 3.8243 1.3959 0.763 -0.528 -0.372 70 57 67 0 0
1.4132 3.8401 1.4006 -0.826 -0.539 0.165 77 62 73 0 0
1.5124 3.9004 1.4099 0.593 -0.744 0.308 91 110 139 0 0
1.9151 4.5362 1.5861 0.849 -0.526 -0.053 166 182 228 0 0
1.9250 4.5537 1.5911 0.782 -0.619 0.073 167 184 230 0 0
1.9344 4.5678 1.5949 0.799 -0.589 -0.121 168 184 232 0 0
1.9434 4.5794 1.5979 0.799 -0.589 -0.121 166 182 232 0 0
1.9514 4.5857 1.5992 0.823 -0.567 -0.021 165 180 228 0 0
1.9617 4.6041 1.6045 0.888 -0.428 -0.169 164 179 226 0 0
1.9727 4.6267 1.6111 0.858 -0.509 0.063 162 178 224 0 0
1.9830 4.6447 1.6162 0.858 -0.509 0.063 163 179 225 0 0
1.9933 4.6627 1.6214 0.858 -0.509 0.063 164 180 227 0 0
2.0037 4.6809 1.6265 0.858 -0.509 0.063 164 179 227 0 0
2.0142 4.6994 1.6318 0.768 -0.639 0.032 162 176 225 0 0
2.0232 4.7094 1.6343 0.820 -0.571 0.046 163 177 224 0 0
2.0328 4.7230 1.6379 0.863 -0.500 0.070 159 175 221 0 0
2.0436 4.7425 1.6435 0.863 -0.500 0.070 159 175 220 0 0
2.0545 4.7621 1.6491 0.863 -0.500 0.070 161 176 221 0 0
2.0649 4.7788 1.6538 0.874 -0.486 0.025 158 173 217 0 0
2.0770 4.8043 1.6613 0.783 -0.621 0.038 156 171 215 0 0
2.0889 4.8285 1.6685 0.805 -0.591 0.062 153 168 212 0 0
2.0990 4.8427 1.6723 0.769 -0.637 0.051 146 159 202 0 0
2.1097 4.8605 1.6773 0.809 -0.581 0.088 128 139 184 0 0
2.1160 4.8558 1.6748 -0.490 -0.871 -0.034 108 117 161 0 0
2.1245 4.8620 1.6760 -0.862 -0.506 0.025 84 96 135 0 0
2.1332 4.5998 1.5820 0.252 -0.964 0.086 68 100 139 0 0
2.1407 4.6029 1.5822 0.301 -0.950 0.082 130 164 200 0 0
-2.7325 5.0742 2.3328 0.177 -0.970 0.169 171 187 239 0 0
-2.7225 5.0782 2.3330 0.678 -0.726 0.116 172 188 241 0 0
-2.7025 5.1038 2.3396 0.505 -0.859 0.085 153 167 210 0 0
-2.6954 5.1118 2.3415 0.397 -0.912 0.102 124 117 149 0 0
-2.6777 5.1051 2.3370 -0.419 -0.907 0.047 125 104 127 0 0
-2.6582 5.0958 2.3314 -0.419 -0.907 0.047 125 104 126 0 0
-2.6388 5.0866 2.3257 -0.419 -0.907 0.047 128 109 132 0 0
-2.6021 5.0707 2.3157 -0.343 -0.938 0.060 121 98 120 0 0
-2.5837 5.0627 2.3106 -0.373 -0.923 -0.090 119 95 115 0 0
-2.5655 5.0548 2.3056 -0.436 -0.897 0.064 123 98 119 0 0
-2.5503 5.0511 2.3025 -0.387 -0.916 -0.106 126 101 122 0 0
-2.5302 5.0403 2.2962 -0.183 -0.862 -0.473 130 106 127 0 0
-2.5164 5.0386 2.2940 -0.183 -0.862 -0.473 128 107 126 0 0
-2.5027 5.0370 2.2917 -0.183 -0.862 -0.473 100 83 103 0 0
-2.4891 5.0353 2.2895 -0.183 -0.862 -0.473 95 75 95 0 0
-2.4755 5.0338 2.2873 -0.271 -0.913 -0.305 99 81 101 0 0
-2.4585 5.0271 2.2829 -0.450 -0.831 -0.327 110 91 110 0 0
-2.4413 5.0203 2.2784 -0.412 -0.814 -0.410 124 101 120 0 0
-2.4251 5.0147 2.2745 -0.391 -0.867 -0.309 128 109 128 0 0
-2.4092 5.0095 2.2706 -0.401 -0.870 -0.287 128 110 130 0 0
-2.3899 4.9992 2.2647 -0.381 -0.922 -0.065 126 108 128 0 0
-2.3678 4.9847 2.2569 -0.310 -0.912 0.268 128 110 128 0 0
-2.3507 4.9775 2.2523 -0.310 -0.912 0.268 130 110 128 0 0
-2.3336 4.9704 2.2477 -0.310 -0.912 0.268 127 107 125 0 0
-2.3157 4.9618 2.2425 -0.395 -0.879 0.266 122 100 119 0 0
-2.2966 4.9514 2.2365 -0.395 -0.879 0.266 120 99 118 0 0
-2.2821 4.9478 2.2335 -0.302 -0.906 0.296 122 102 122 0 0
-2.2644 4.9393 2.2283 -0.404 -0.906 0.126 121 102 121 0 0
-2.2485 4.9335 2.2244 -0.246 -0.967 -0.062 111 95 114 0 0
-2.2347 4.9308 2.2217 -0.059 -0.998 0.013 106 88 108 0 0
-2.2194 4.9259 2.2181 -0.308 -0.951 -0.038 108 89 108 0 0
-2.2055 4.9230 2.2154 -0.420 -0.901 -0.105 111 89 107 0 0
-2.1906 4.9185 2.2120 -0.139 -0.990 -0.024 120 100 119 0 0
-2.1762 4.9147 2.2089 -0.129 -0.982 -0.140 122 105 123 0 0
-2.1616 4.9106 2.2057 -0.282 -0.958 -0.042 121 102 121 0 0
-2.1479 4.9078 2.2030 -0.453 -0.891 0.029 108 87 105 0 0
-2.1316 4.9009 2.1986 -0.474 -0.879 0.038 112 89 108 0 0
-2.1123 4.8892 2.1921 -0.506 -0.861 -0.042 112 88 106 0 0
-2.0970 4.8836 2.1883 -0.460 -0.887 0.034 114 94 112 0 0
-2.0794 4.8744 2.1830 -0.403 -0.915 -0.033 106 88 108 0 0
-2.0644 4.8693 2.1793 -0.317 -0.947 0.050 106 84 105 0 0
-2.0489 4.8634 2.1753 -0.342 -0.933 -0.112 113 88 108 0 0
-2.0360 4.8614 2.1731 -0.384 -0.864 -0.325 123 100 119 0 0
-2.0034 4.8465 2.1639 -0.366 -0.915 -0.171 118 97 119 0 0
-1.9861 4.8372 2.1585 -0.265 -0.964 -0.013 117 101 124 0 0
-1.9721 4.8334 2.1555 -0.265 -0.964 -0.013 112 98 120 0 0
-1.9583 4.8297 2.1524 -0.265 -0.964 -0.013 119 103 125 0 0
-1.9423 4.8224 2.1479 -0.304 -0.950 0.068 114 96 119 0 0
-1.9284 4.8184 2.1449 -0.323 -0.940 -0.108 114 97 117 0 0
-1.9195 4.8228 2.1453 -0.399 -0.907 0.138 107 91 110 0 0
-1.9028 4.8141 2.1402 -0.436 -0.892 0.116 113 95 114 0 0
-1.8868 4.8065 2.1356 -0.331 -0.932 0.151 113 92 112 0 0
-1.8706 4.7987 2.1309 -0.327 -0.944 0.054 111 92 112 0 0
-1.8494 4.7821 2.1224 -0.409 -0.908 -0.096 107 86 105 0 0
-1.8417 4.7882 2.1237 -0.327 -0.944 0.054 110 88 107 0 0
-1.8269 4.7824 2.1198 -0.296 -0.930 0.219 109 89 110 0 0
-1.8123 4.7769 2.1161 -0.296 -0.930 0.219 104 85 107 0 0
-1.7978 4.7714 2.1124 -0.296 -0.930 0.219 117 95 116 0 0
-1.7833 4.7659 2.1087 -0.296 -0.930 0.219 125 102 123 0 0
-1.7689 4.7604 2.1050 -0.296 -0.930 0.219 124 105 123 0 0
-1.7547 4.7552 2.1014 -0.239 -0.961 0.137 115 97 116 0 0
-1.7403 4.7497 2.0978 -0.323 -0.944 0.068 114 89 107 0 0
-1.7251 4.7426 2.0934 -0.385 -0.923 0.000 125 97 113 0 0
-1.7110 4.7375 2.0899 -0.219 -0.926 -0.309 116 89 107 0 0
-1.6971 4.7326 2.0865 -0.370 -0.842 -0.393 114 86 103 0 0
-1.6845 4.7300 2.0840 -0.294 -0.907 -0.302 117 91 108 0 0
-1.6703 4.7244 2.0803 -0.324 -0.935 -0.145 116 94 113 0 0
-1.6569 4.7203 2.0772 -0.324 -0.935 -0.145 116 98 118 0 0
-1.6445 4.7177 2.0748 -0.479 -0.869 -0.125 94 77 97 0 0
-1.6291 4.7099 2.0702 -0.479 -0.869 -0.125 88 65 85 0 0
-1.6138 4.7021 2.0656 -0.479 -0.869 -0.125 110 81 103 0 0
-1.5988 4.6949 2.0613 -0.479 -0.844 -0.242 125 97 117 0 0
-1.5857 4.6908 2.0582 -0.398 -0.915 -0.059 132 107 129 0 0
-1.5716 4.6851 2.0545 -0.375 -0.926 0.043 135 111 132 0 0
-1.5576 4.6792 2.0507 -0.375 -0.926 0.043 134 109 130 0 0
-1.5445 4.6751 2.0477 -0.114 -0.992 0.053 130 106 127 0 0
-1.5329 4.6737 2.0457 -0.114 -0.992 0.053 129 103 125 0 0
-1.5210 4.6717 2.0436 -0.305 -0.906 0.294 121 95 117 0 0
-1.5070 4.6658 2.0398 -0.305 -0.906 0.294 121 95 116 0 0
-1.4931 4.6599 2.0361 -0.305 -0.906 0.294 121 96 116 0 0
-1.4792 4.6540 2.0323 -0.305 -0.906 0.294 115 90 111 0 0
-1.4626 4.6429 2.0264 -0.021 -0.903 0.429 116 88 110 0 0
-1.4478 4.6351 2.0218 -0.033 -0.882 0.470 118 94 116 0 0
-1.4364 4.6337 2.0199 -0.033 -0.882 0.470 114 97 116 0 0
-1.4250 4.6323 2.0180 -0.033 -0.882 0.470 114 91 109 0 0
-1.4162 4.6357 2.0182 -0.081 -0.925 0.372 114 87 104 0 0
-1.4004 4.6257 2.0127 -0.266 -0.884 0.383 110 81 98 0 0
-1.3870 4.6202 2.0092 -0.234 -0.880 0.413 117 90 106 0 0
-1.3702 4.6082 2.0029 -0.416 -0.909 0.031 113 86 101 0 0
-1.3564 4.6017 1.9989 -0.416 -0.909 0.031 119 90 106 0 0
-1.3462 4.6022 1.9978 -0.355 -0.930 0.092 110 79 96 0 0
-1.3316 4.5942 1.9932 -0.421 -0.903 0.085 107 78 93 0 0
-1.3177 4.5873 1.9891 -0.421 -0.903 0.085 110 80 95 0 0
-1.3072 4.5871 1.9878 -0.398 -0.917 0.025 102 76 88 0 0
-1.2938 4.5812 1.9841 -0.398 -0.917 0.025 88 62 76 0 0
-1.2802 4.5748 1.9802 -0.315 -0.948 0.051 106 77 93 0 0
-1.2672 4.5694 1.9767 -0.398 -0.917 0.025 110 85 102 0 0
-1.2563 4.5682 1.9749 -0.253 -0.967 -0.001 106 84 104 0 0
-1.2444 4.5651 1.9724 -0.253 -0.967 -0.001 111 88 109 0 0
-1.2329 4.5626 1.9701 -0.317 -0.945 -0.075 122 97 118 0 0
-1.2222 4.5618 1.9685 -0.356 -0.933 -0.058 119 95 117 0 0
-1.2086 4.5550 1.9645 -0.449 -0.893 -0.034 116 93 117 0 0
-1.1945 4.5471 1.9600 -0.513 -0.853 -0.090 114 91 114 0 0
-1.1815 4.5412 1.9563 -0.470 -0.869 -0.153 120 96 121 0 0
-1.1462 4.5311 1.9485 -0.406 -0.912 -0.057 122 100 120 0 0
-1.1306 4.5197 1.9426 -0.094 -0.934 0.346 123 104 125 0 0
-1.1186 4.5157 1.9397 -0.188 -0.948 0.258 118 100 121 0 0
-1.1072 4.5128 1.9373 -0.188 -0.948 0.258 120 99 120 0 0
-1.0962 4.5107 1.9352 -0.462 -0.869 0.174 111 93 114 0 0
-1.0694 4.4964 1.9269 -0.380 -0.908 0.174 119 95 116 0 0
-1.0586 4.4946 1.9250 -0.273 -0.945 0.179 116 95 116 0 0
-1.0445 4.4856 1.9201 -0.149 -0.986 -0.079 103 88 111 0 0
-1.0344 4.4852 1.9187 -0.115 -0.993 -0.015 113 95 117 0 0
-1.0240 4.4841 1.9170 -0.115 -0.993 -0.015 122 98 120 0 0
-0.9715 4.4554 1.9005 -0.240 -0.971 -0.013 114 90 112 0 0
-0.9606 4.4527 1.8983 -0.259 -0.962 0.092 118 95 116 0 0
-0.9496 4.4500 1.8960 -0.240 -0.971 -0.013 110 84 106 0 0
-0.9369 4.4434 1.8921 -0.115 -0.993 -0.023 108 82 105 0 0
-0.9266 4.4421 1.8904 -0.255 -0.967 -0.000 120 94 118 0 0
-0.9160 4.4402 1.8884 -0.326 -0.945 -0.004 113 85 108 0 0
-0.9046 4.4362 1.8857 -0.326 -0.945 -0.004 106 77 97 0 0
-0.8923 4.4302 1.8820 -0.437 -0.873 -0.217 107 82 101 0 0
-0.8807 4.4259 1.8791 -0.403 -0.890 -0.215 112 88 109 0 0
-0.8644 4.4104 1.8717 -0.615 -0.787 0.042 122 95 117 0 0
-0.8436 4.3841 1.8598 -0.800 -0.542 -0.260 129 103 126 0 0
-0.8145 4.3606 1.8480 -0.718 -0.689 -0.097 125 99 124 0 0
-0.7984 4.3448 1.8405 -0.718 -0.689 -0.097 122 98 120 0 0
-0.7814 4.3268 1.8321 -0.602 -0.778 -0.179 136 117 126 0 0
-0.7689 4.3191 1.8279 -0.385 -0.834 -0.395 133 130 146 0 0
-0.7565 4.3120 1.8239 -0.163 -0.902 -0.399 126 128 150 0 0
-0.7468 4.3109 1.8223 -0.163 -0.902 -0.399 147 145 146 0 0
-0.7357 4.3065 1.8194 -0.173 -0.950 -0.259 140 137 141 0 0
-0.7260 4.3056 1.8179 -0.075 -0.971 -0.227 119 95 117 0 0
-0.6920 4.2903 1.8084 -0.353 -0.923 0.152 133 108 142 0 0
-0.6796 4.2823 1.8040 -0.312 -0.948 0.068 133 119 141 0 0
-0.6674 4.2748 1.7999 -0.237 -0.971 -0.012 159 167 165 0 0
-0.6577 4.2733 1.7982 -0.410 -0.906 0.109 82 112 120 0 0
-0.6462 4.2675 1.7948 -0.411 -0.899 0.149 60 98 116 0 0
-0.6350 4.2623 1.7915 -0.394 -0.907 0.150 72 103 128 0 0
-0.6251 4.2600 1.7896 -0.256 -0.934 0.248 79 102 143 0 0
-0.6130 4.2523 1.7854 -0.049 -0.986 0.159 73 82 122 0 0
-0.6037 4.2517 1.7840 -0.049 -0.986 0.159 103 87 102 0 0
-0.5939 4.2499 1.7822 -0.485 -0.867 0.117 156 137 126 0 0
-0.5822 4.2428 1.7782 -0.485 -0.867 0.117 128 118 118 0 0
-0.5701 4.2348 1.7740 -0.449 -0.893 -0.017 107 120 161 0 0
-0.5490 4.2264 1.7684 0.169 -0.986 -0.002 171 168 175 0 0
-0.5420 4.2316 1.7694 0.456 -0.888 0.064 162 146 124 0 0
-0.5345 4.2355 1.7699 0.456 -0.888 0.064 150 134 114 0 0
-0.5270 4.2394 1.7703 0.456 -0.888 0.064 69 53 51 0 0
-0.5205 4.2461 1.7719 0.561 -0.814 0.151 52 40 54 0 0
-0.5134 4.2512 1.7729 0.561 -0.814 0.151 51 40 59 0 0
-0.4576 4.2699 1.7727 -0.422 -0.874 -0.242 95 74 104 0 0
-0.4472 4.2659 1.7700 -0.463 -0.885 -0.053 117 98 125 0 0
-0.4364 4.2604 1.7668 -0.463 -0.885 -0.053 125 107 132 0 0
-0.4272 4.2593 1.7653 -0.301 -0.950 0.079 123 105 131 0 0
-0.4171 4.2559 1.7628 -0.301 -0.950 0.079 124 106 132 0 0
-0.4070 4.2523 1.7603 -0.064 -0.993 0.101 122 101 124 0 0
-0.3963 4.2467 1.7570 -0.323 -0.941 0.102 120 97 118 0 0
-0.3850 4.2392 1.7530 -0.453 -0.870 0.194 118 97 120 0 0
-0.3740 4.2328 1.7494 -0.465 -0.878 0.114 114 96 121 0 0
-0.3632 4.2266 1.7459 -0.474 -0.873 0.118 115 96 121 0 0
-0.3499 4.2129 1.7395 -0.064 -0.981 0.183 121 102 125 0 0
-0.3409 4.2120 1.7381 -0.064 -0.981 0.183 110 95 119 0 0
-0.3320 4.2113 1.7367 -0.075 -0.978 0.193 103 83 107 0 0
-0.3229 4.2103 1.7353 -0.075 -0.978 0.193 127 102 123 0 0
-0.3139 4.2093 1.7338 -0.179 -0.982 0.054 131 105 125 0 0
-0.3066 4.2134 1.7344 0.258 -0.906 0.336 126 100 122 0 0
-0.2938 4.2004 1.7283 -0.373 -0.923 -0.093 122 97 119 0 0
-0.2834 4.1949 1.7251 -0.319 -0.915 -0.248 119 94 117 0 0
-0.2740 4.1923 1.7230 -0.312 -0.918 -0.245 127 101 121 0 0
-0.2644 4.1892 1.7208 -0.216 -0.957 -0.195 126 98 118 0 0
-0.2553 4.1875 1.7190 -0.184 -0.970 -0.161 118 92 111 0 0
-0.2467 4.1873 1.7179 -0.003 -0.981 -0.193 97 75 96 0 0
-0.2364 4.1816 1.7147 -0.334 -0.938 -0.096 115 91 113 0 0
-0.2262 4.1763 1.7116 -0.466 -0.870 -0.162 125 101 122 0 0
-0.2155 4.1690 1.7077 -0.556 -0.830 -0.034 125 98 119 0 0
-0.2059 4.1654 1.7052 -0.538 -0.843 -0.018 122 93 115 0 0
-0.1977 4.1662 1.7045 -0.401 -0.892 0.209 121 93 115 0 0
-0.1861 4.1558 1.6994 -0.181 -0.974 -0.137 120 91 111 0 0
-0.1764 4.1517 1.6968 0.218 -0.922 -0.321 119 93 112 0 0
-0.1678 4.1509 1.6955 0.390 -0.873 -0.291 110 87 103 0 0
-0.1254 4.1494 1.6898 -0.409 -0.807 -0.426 111 94 115 0 0
-0.1152 4.1428 1.6863 -0.475 -0.859 -0.194 109 93 118 0 0
-0.1039 4.1323 1.6812 -0.491 -0.870 0.050 115 99 123 0 0
-0.0942 4.1273 1.6782 -0.438 -0.887 0.150 110 92 115 0 0
-0.0845 4.1222 1.6753 -0.468 -0.854 0.226 107 90 115 0 0
-0.0750 4.1177 1.6725 -0.248 -0.928 0.277 109 92 118 0 0
-0.0665 4.1167 1.6711 -0.221 -0.934 0.281 115 97 121 0 0
-0.0583 4.1170 1.6702 0.028 -0.982 0.185 118 99 122 0 0
-0.0501 4.1170 1.6692 0.028 -0.982 0.185 116 95 117 0 0
-0.0395 4.1081 1.6648 -0.389 -0.887 0.250 125 101 124 0 0
-0.0299 4.1031 1.6619 -0.389 -0.887 0.250 123 101 122 0 0
-0.0206 4.0986 1.6592 -0.434 -0.837 0.333 121 101 122 0 0
-0.0107 4.0921 1.6557 -0.434 -0.837 0.333 115 97 117 0 0
-0.0025 4.0917 1.6545 -0.370 -0.906 0.205 116 97 117 0 0
0.0073 4.0853 1.6511 -0.329 -0.934 0.136 120 95 117 0 0
0.0161 4.0828 1.6491 -0.332 -0.907 0.259 124 99 121 0 0
0.0252 4.0787 1.6466 -0.332 -0.907 0.259 125 104 126 0 0
0.0343 4.0747 1.6441 -0.332 -0.907 0.259 115 96 118 0 0
0.0433 4.0712 1.6417 -0.379 -0.902 0.207 113 94 118 0 0
0.0523 4.0673 1.6393 -0.369 -0.924 0.097 119 100 121 0 0
0.0613 4.0634 1.6368 -0.369 -0.924 0.097 111 93 113 0 0
0.0702 4.0596 1.6344 -0.369 -0.924 0.097 102 81 102 0 0
0.0792 4.0555 1.6318 -0.376 -0.921 0.099 109 88 109 0 0
0.0881 4.0516 1.6294 -0.376 -0.921 0.099 121 98 119 0 0
0.0970 4.0477 1.6269 -0.376 -0.921 0.099 117 94 117 0 0
0.1141 4.0428 1.6231 -0.444 -0.874 0.196 118 98 121 0 0
0.1237 4.0357 1.6194 -0.359 -0.933 -0.026 118 100 122 0 0
0.1295 4.0447 1.6219 -0.352 -0.723 -0.595 121 99 123 0 0
0.5534 3.8732 1.5099 -0.345 -0.937 -0.050 115 95 116 0 0
1.1735 3.6307 1.3491 -0.285 -0.951 0.122 115 92 114 0 0
1.1796 3.6287 1.3476 -0.285 -0.951 0.122 116 93 117 0 0
1.2816 3.5929 1.3226 0.046 -0.995 0.091 116 90 117 0 0
1.2876 3.5931 1.3219 0.042 -0.987 0.152 115 90 117 0 0
1.2937 3.5970 1.3226 0.465 -0.850 0.248 119 93 117 0 0
1.3848 3.7954 1.3815 0.676 -0.573 -0.463 45 31 35 0 0
1.4059 3.8281 1.3905 0.731 -0.559 -0.392 58 53 61 0 0
1.5052 3.9573 1.4240 -0.455 -0.849 -0.270 62 60 84 0 0
1.5118 3.8966 1.4017 0.593 -0.744 0.308 67 85 115 0 0
1.5253 3.9061 1.4034 0.042 -0.998 0.041 96 104 138 0 0
1.5894 3.9748 1.4199 0.017 -0.998 -0.054 136 145 189 0 0
1.5956 3.9740 1.4189 -0.115 -0.984 -0.137 129 136 181 0 0
1.5490 3.4826 1.2512 0.140 -0.990 -0.034 132 150 194 0 0
1.6180 3.9515 1.4082 0.320 -0.938 0.133 160 175 221 0 0
1.6247 3.9551 1.4087 0.198 -0.967 0.160 162 176 221 0 0
1.6479 3.9426 1.4014 -0.385 -0.887 -0.255 127 138 177 0 0
1.8683 4.4635 1.5584 0.849 -0.526 -0.053 164 180 229 0 0
1.8775 4.4780 1.5624 0.849 -0.526 -0.053 167 183 231 0 0
1.9149 4.5367 1.5785 0.849 -0.526 -0.053 165 180 227 0 0
1.9245 4.5520 1.5828 0.782 -0.619 0.073 166 182 229 0 0
1.9334 4.5637 1.5858 0.782 -0.619 0.073 167 183 232 0 0
1.9435 4.5817 1.5909 0.808 -0.586 -0.061 166 182 231 0 0
1.9515 4.5873 1.5919 0.844 -0.525 -0.111 164 181 228 0 0
1.9614 4.6040 1.5966 0.864 -0.502 -0.033 164 179 226 0 0
1.9721 4.6246 1.6026 0.858 -0.509 0.063 164 177 225 0 0
1.9823 4.6425 1.6077 0.858 -0.509 0.063 164 178 224 0 0
1.9927 4.6606 1.6128 0.858 -0.509 0.063 163 179 225 0 0
2.0029 4.6781 1.6177 0.829 -0.557 0.051 164 180 226 0 0
2.0128 4.6932 1.6218 0.829 -0.557 0.051 163 178 226 0 0
2.0226 4.7080 1.6258 0.820 -0.571 0.046 162 178 225 0 0
2.0327 4.7238 1.6302 0.880 -0.470 -0.065 159 176 222 0 0
2.0435 4.7432 1.6357 0.880 -0.470 -0.065 160 177 223 0 0
2.0538 4.7595 1.6402 0.863 -0.500 0.070 161 177 224 0 0
2.0643 4.7774 1.6453 0.874 -0.486 0.025 159 176 222 0 0
2.0765 4.8032 1.6529 0.783 -0.621 0.038 158 174 218 0 0
2.0883 4.8268 1.6598 0.805 -0.591 0.062 154 170 214 0 0
2.0984 4.8414 1.6637 0.769 -0.637 0.051 147 160 204 0 0
2.1090 4.8581 1.6683 0.809 -0.581 0.088 132 142 188 0 0
2.1241 4.8611 1.6675 -0.855 -0.504 0.123 87 95 135 0 0
2.1489 4.8412 1.6575 -0.080 -0.954 0.290 50 72 98 0 0
2.1328 4.5990 1.5740 0.252 -0.964 0.086 67 96 134 0 0
2.1403 4.6022 1.5743 0.257 -0.957 0.132 128 161 197 0 0
-2.7307 5.0719 2.3206 0.603 -0.797 0.020 172 188 240 0 0
-2.7225 5.0782 2.3218 0.603 -0.797 0.020 173 189 241 0 0
-2.7136 5.0837 2.3227 0.667 -0.743 0.055 173 189 241 0 0
-2.7086 5.0945 2.3258 0.804 -0.594 0.029 175 191 242 0 0
-2.7020 5.1032 2.3281 0.441 -0.892 0.096 153 167 210 0 0
-2.6946 5.1108 2.3299 0.397 -0.912 0.102 122 114 146 0 0
-2.6770 5.1042 2.3254 -0.419 -0.907 0.047 126 103 127 0 0
-2.6575 5.0949 2.3198 -0.419 -0.907 0.047 127 105 126 0 0
-2.6381 5.0857 2.3142 -0.419 -0.907 0.047 116 96 117 0 0
-2.6188 5.0764 2.3086 -0.419 -0.907 0.047 119 95 117 0 0
-2.6012 5.0695 2.3041 -0.294 -0.935 -0.198 122 95 116 0 0
-2.5847 5.0641 2.3002 -0.373 -0.923 -0.090 123 97 117 0 0
-2.5646 5.0536 2.2941 -0.436 -0.897 0.064 125 101 119 0 0
-2.5445 5.0428 2.2878 -0.253 -0.949 0.186 121 98 119 0 0
-2.5272 5.0361 2.2834 0.283 -0.956 0.079 125 102 125 0 0
-2.5160 5.0381 2.2827 -0.046 -0.990 -0.131 123 103 125 0 0
-2.5033 5.0377 2.2811 -0.008 -0.911 -0.412 107 89 112 0 0
-2.4929 5.0408 2.2809 -0.183 -0.862 -0.473 112 94 117 0 0
-2.4782 5.0377 2.2780 -0.271 -0.913 -0.305 115 105 126 0 0
-2.4613 5.0314 2.2738 -0.379 -0.869 -0.318 124 112 130 0 0
-2.4450 5.0257 2.2698 -0.379 -0.869 -0.318 127 111 130 0 0
-2.4287 5.0200 2.2658 -0.379 -0.869 -0.318 126 109 129 0 0
-2.4121 5.0138 2.2616 -0.401 -0.870 -0.287 122 106 125 0 0
-2.3832 4.9894 2.2496 -0.342 -0.917 0.204 124 106 124 0 0
-2.3658 4.9818 2.2448 -0.342 -0.917 0.204 124 105 124 0 0
-2.3463 4.9711 2.2387 -0.214 -0.874 0.436 129 107 126 0 0
-2.3303 4.9655 2.2348 -0.310 -0.912 0.268 128 109 127 0 0
-2.3119 4.9560 2.2292 -0.395 -0.879 0.266 124 106 123 0 0
-2.2997 4.9560 2.2278 -0.409 -0.890 0.203 124 106 123 0 0
-2.2810 4.9461 2.2220 -0.409 -0.890 0.203 124 106 124 0 0
-2.2640 4.9388 2.2174 -0.380 -0.923 0.061 120 103 122 0 0
-2.2495 4.9351 2.2143 -0.245 -0.964 -0.106 110 93 113 0 0
-2.2350 4.9314 2.2113 -0.271 -0.962 -0.029 108 88 108 0 0
-2.2198 4.9264 2.2077 -0.308 -0.951 -0.038 112 92 111 0 0
-2.2066 4.9246 2.2055 -0.420 -0.901 -0.105 114 92 112 0 0
-2.1908 4.9187 2.2015 -0.139 -0.990 -0.024 116 95 114 0 0
-2.1767 4.9154 2.1986 -0.233 -0.972 -0.011 115 98 116 0 0
-2.1620 4.9111 2.1954 -0.282 -0.958 -0.042 109 92 111 0 0
-2.1464 4.9053 2.1914 -0.420 -0.898 0.127 100 82 101 0 0
-2.1312 4.9002 2.1878 -0.474 -0.879 0.038 113 93 113 0 0
-2.1128 4.8900 2.1820 -0.506 -0.861 -0.042 108 87 107 0 0
-2.0966 4.8830 2.1776 -0.460 -0.887 0.034 101 76 98 0 0
-2.0797 4.8750 2.1727 -0.403 -0.915 -0.033 110 87 109 0 0
-2.0648 4.8699 2.1691 -0.342 -0.933 -0.112 117 94 116 0 0
-2.0499 4.8649 2.1656 -0.342 -0.933 -0.112 119 94 116 0 0
-2.0391 4.8663 2.1648 -0.306 -0.901 -0.308 118 94 116 0 0
-2.0049 4.8488 2.1545 -0.366 -0.915 -0.171 119 95 119 0 0
-1.9900 4.8436 2.1508 -0.366 -0.915 -0.171 109 91 116 0 0
-1.9752 4.8383 2.1472 -0.366 -0.915 -0.171 114 97 119 0 0
-1.9608 4.8337 2.1439 -0.408 -0.907 -0.108 115 97 117 0 0
-1.9453 4.8272 2.1397 -0.408 -0.907 -0.108 112 92 113 0 0
-1.9266 4.8154 2.1333 -0.311 -0.946 -0.091 113 95 114 0 0
-1.9185 4.8210 2.1343 -0.436 -0.892 0.116 105 88 108 0 0
-1.9016 4.8121 2.1291 -0.436 -0.892 0.116 106 88 106 0 0
-1.8854 4.8042 2.1244 -0.331 -0.932 0.151 112 93 112 0 0
-1.8704 4.7983 2.1205 -0.331 -0.932 0.151 110 92 111 0 0
-1.8215 4.7733 2.1058 -0.276 -0.944 -0.179 111 90 111 0 0
-1.8116 4.7756 2.1054 -0.313 -0.948 0.055 115 93 115 0 0
-1.7974 4.7707 2.1020 -0.313 -0.948 0.055 119 95 116 0 0
-1.7833 4.7659 2.0986 -0.313 -0.948 0.055 124 103 122 0 0
-1.7693 4.7611 2.0952 -0.385 -0.923 0.000 116 100 120 0 0
-1.7545 4.7549 2.0912 -0.385 -0.923 0.000 116 99 118 0 0
-1.7398 4.7488 2.0873 -0.385 -0.923 0.000 113 91 109 0 0
-1.7251 4.7426 2.0834 -0.385 -0.923 0.000 112 87 104 0 0
-1.7128 4.7406 2.0812 -0.271 -0.962 0.038 110 86 103 0 0
-1.6995 4.7368 2.0782 -0.294 -0.907 -0.302 108 86 102 0 0
-1.6865 4.7335 2.0755 -0.294 -0.907 -0.302 98 80 97 0 0
-1.6708 4.7253 2.0707 -0.345 -0.887 -0.307 84 65 84 0 0
-1.6580 4.7221 2.0680 -0.324 -0.935 -0.145 85 65 86 0 0
-1.6446 4.7180 2.0650 -0.438 -0.888 -0.138 83 61 80 0 0
-1.6302 4.7118 2.0611 -0.479 -0.869 -0.125 109 79 98 0 0
-1.6149 4.7040 2.0565 -0.479 -0.869 -0.125 132 103 120 0 0
-1.6009 4.6985 2.0528 -0.479 -0.844 -0.242 134 110 128 0 0
-1.5871 4.6934 2.0494 -0.434 -0.898 -0.076 134 112 132 0 0
-1.5725 4.6867 2.0453 -0.434 -0.898 -0.076 136 113 132 0 0
-1.5573 4.6787 2.0406 -0.375 -0.926 0.043 134 113 130 0 0
-1.5422 4.6708 2.0360 -0.285 -0.954 0.093 126 103 124 0 0
-1.5326 4.6731 2.0357 -0.114 -0.992 0.053 119 93 115 0 0
-1.4768 4.6494 2.0206 -0.305 -0.906 0.294 117 90 111 0 0
-1.4595 4.6370 2.0142 -0.021 -0.903 0.429 117 89 111 0 0
-1.4483 4.6359 2.0124 -0.021 -0.903 0.429 115 92 113 0 0
-1.4371 4.6349 2.0107 -0.021 -0.903 0.429 110 93 112 0 0
-1.4248 4.6318 2.0081 -0.210 -0.882 0.421 117 96 115 0 0
-1.4118 4.6271 2.0049 -0.210 -0.882 0.421 127 102 120 0 0
-1.3983 4.6216 2.0014 -0.274 -0.890 0.365 119 91 109 0 0
-1.3835 4.6135 1.9967 -0.234 -0.880 0.413 119 91 107 0 0
-1.3708 4.6092 1.9937 -0.397 -0.911 0.110 123 94 109 0 0
-1.3570 4.6027 1.9897 -0.397 -0.911 0.110 128 98 114 0 0
-1.3429 4.5956 1.9855 -0.249 -0.964 0.096 125 98 113 0 0
-1.3297 4.5903 1.9821 -0.194 -0.979 0.063 117 92 107 0 0
-1.3181 4.5880 1.9799 -0.233 -0.973 -0.000 104 76 91 0 0
-1.3070 4.5867 1.9780 -0.379 -0.925 0.028 95 67 82 0 0
-1.2666 4.5681 1.9667 -0.448 -0.893 -0.028 108 91 110 0 0
-1.2547 4.5650 1.9641 -0.377 -0.917 -0.129 106 90 110 0 0
-1.2449 4.5659 1.9633 -0.280 -0.948 -0.151 107 90 114 0 0
-1.2333 4.5633 1.9609 -0.260 -0.949 -0.178 119 96 119 0 0
-1.2226 4.5625 1.9594 -0.356 -0.933 -0.058 122 99 122 0 0
-1.2094 4.5565 1.9557 -0.513 -0.853 -0.090 124 101 123 0 0
-1.1953 4.5485 1.9511 -0.513 -0.853 -0.090 124 100 122 0 0
-1.1776 4.5330 1.9436 -0.358 -0.927 -0.110 130 107 128 0 0
-1.1689 4.5360 1.9436 -0.454 -0.883 -0.116 125 104 126 0 0
-1.1552 4.5287 1.9393 -0.498 -0.866 -0.053 125 102 124 0 0
-1.1466 4.5319 1.9394 -0.406 -0.912 -0.057 125 102 123 0 0
-1.1286 4.5154 1.9315 -0.094 -0.934 0.346 115 97 117 0 0
-1.1172 4.5125 1.9291 -0.188 -0.948 0.258 114 94 115 0 0
-1.1057 4.5096 1.9267 -0.188 -0.948 0.258 117 94 116 0 0
-1.0949 4.5079 1.9248 -0.462 -0.869 0.174 108 86 107 0 0
-1.0810 4.4996 1.9202 -0.462 -0.869 0.174 111 88 106 0 0
-1.0675 4.4921 1.9159 -0.265 -0.963 0.055 119 95 112 0 0
-1.0561 4.4889 1.9134 -0.055 -0.999 0.001 119 95 115 0 0
-1.0452 4.4869 1.9114 -0.123 -0.981 -0.148 103 84 106 0 0
-1.0348 4.4858 1.9097 -0.123 -0.981 -0.148 108 91 112 0 0
-1.0245 4.4850 1.9082 0.011 -0.994 -0.109 110 91 113 0 0
-1.0143 4.4844 1.9067 -0.135 -0.972 -0.192 115 94 117 0 0
-0.9717 4.4555 1.8915 -0.240 -0.971 -0.013 108 83 101 0 0
-0.9607 4.4528 1.8892 -0.240 -0.971 -0.013 107 80 101 0 0
-0.9497 4.4502 1.8869 -0.240 -0.971 -0.013 117 90 112 0 0
-0.9377 4.4450 1.8837 -0.255 -0.967 -0.000 120 94 116 0 0
-0.9267 4.4421 1.8813 -0.255 -0.967 -0.000 124 100 123 0 0
-0.9161 4.4402 1.8794 -0.326 -0.945 -0.004 119 96 120 0 0
-0.9047 4.4363 1.8766 -0.326 -0.945 -0.004 110 86 108 0 0
-0.8935 4.4329 1.8741 -0.403 -0.890 -0.215 102 75 94 0 0
-0.8819 4.4284 1.8711 -0.403 -0.890 -0.215 110 80 101 0 0
-0.8643 4.4099 1.8625 -0.638 -0.770 -0.009 118 89 110 0 0
-0.8470 4.3919 1.8541 -0.800 -0.542 -0.260 125 98 120 0 0
-0.7994 4.3470 1.8325 -0.718 -0.689 -0.097 124 106 118 0 0
-0.7827 4.3295 1.8244 -0.602 -0.778 -0.179 158 145 140 0 0
-0.7701 4.3219 1.8202 -0.462 -0.864 -0.200 139 137 156 0 0
-0.7581 4.3156 1.8165 -0.239 -0.938 -0.251 150 150 176 0 0
-0.7479 4.3135 1.8145 -0.239 -0.938 -0.251 151 151 161 0 0
-0.7367 4.3088 1.8116 -0.173 -0.950 -0.259 106 114 152 0 0
-0.7269 4.3075 1.8099 -0.075 -0.971 -0.227 113 107 142 0 0
-0.6914 4.2886 1.7990 -0.353 -0.923 0.152 121 107 138 0 0
-0.6794 4.2816 1.7951 -0.312 -0.948 0.068 124 130 154 0 0
-0.6682 4.2764 1.7919 -0.376 -0.918 0.126 85 111 125 0 0
-0.6572 4.2720 1.7890 -0.456 -0.879 0.138 57 95 108 0 0
-0.6240 4.2572 1.7798 -0.256 -0.934 0.248 74 86 112 0 0
-0.6132 4.2528 1.7769 -0.141 -0.950 0.278 65 68 96 0 0
-0.6033 4.2504 1.7749 -0.182 -0.941 0.286 107 103 105 0 0
-0.5934 4.2483 1.7730 -0.485 -0.867 0.117 145 137 118 0 0
-0.5817 4.2412 1.7691 -0.485 -0.867 0.117 158 147 130 0 0
-0.5706 4.2357 1.7658 -0.192 -0.981 0.006 128 124 146 0 0
-0.5593 4.2298 1.7624 -0.367 -0.908 -0.201 131 130 167 0 0
-0.5497 4.2280 1.7606 0.155 -0.976 -0.152 164 159 164 0 0
-0.5416 4.2304 1.7604 0.427 -0.890 -0.159 148 136 117 0 0
-0.5274 4.2404 1.7622 0.575 -0.810 -0.117 81 69 66 0 0
-0.5205 4.2457 1.7633 0.622 -0.772 -0.129 69 56 73 0 0
-0.5136 4.2514 1.7644 0.672 -0.740 -0.018 82 64 87 0 0
-0.5071 4.2582 1.7660 0.655 -0.754 0.057 93 74 97 0 0
-0.4254 4.2539 1.7546 -0.144 -0.926 0.349 116 99 124 0 0
-0.4158 4.2517 1.7527 -0.144 -0.926 0.349 111 93 118 0 0
-0.4062 4.2495 1.7507 -0.144 -0.926 0.349 124 104 127 0 0
-0.3947 4.2417 1.7466 -0.331 -0.914 0.234 121 99 120 0 0
-0.3737 4.2314 1.7405 -0.465 -0.878 0.114 113 92 115 0 0
-0.3628 4.2252 1.7370 -0.474 -0.873 0.118 112 93 115 0 0
-0.3502 4.2136 1.7314 -0.222 -0.968 -0.114 110 92 116 0 0
-0.3409 4.2116 1.7296 -0.222 -0.968 -0.114 106 91 116 0 0
-0.3315 4.2097 1.7277 -0.222 -0.968 -0.114 104 87 111 0 0
-0.3219 4.2069 1.7256 -0.250 -0.951 -0.181 125 97 119 0 0
-0.3114 4.2011 1.7223 -0.436 -0.877 -0.201 129 102 121 0 0
-0.3044 4.2061 1.7232 0.256 -0.955 -0.150 129 103 122 0 0
-0.2937 4.1999 1.7198 -0.319 -0.915 -0.248 123 99 115 0 0
-0.2842 4.1972 1.7176 -0.319 -0.915 -0.248 118 96 113 0 0
-0.2748 4.1945 1.7156 -0.312 -0.918 -0.245 122 103 120 0 0
-0.2559 4.1890 1.7113 -0.319 -0.915 -0.248 96 77 93 0 0
-0.2470 4.1879 1.7099 -0.048 -0.950 -0.310 95 73 92 0 0
-0.2371 4.1836 1.7072 -0.319 -0.915 -0.248 114 93 115 0 0
-0.2269 4.1781 1.7040 -0.466 -0.870 -0.162 108 86 106 0 0
-0.2157 4.1695 1.6996 -0.556 -0.830 -0.034 110 85 103 0 0
-0.2061 4.1657 1.6971 -0.538 -0.843 -0.018 108 85 100 0 0
-0.1972 4.1644 1.6956 -0.200 -0.965 0.168 96 75 90 0 0
-0.1865 4.1569 1.6917 -0.181 -0.974 -0.137 96 75 89 0 0
-0.1773 4.1541 1.6896 0.218 -0.922 -0.321 93 74 89 0 0
-0.1688 4.1538 1.6885 0.531 -0.581 -0.617 77 59 76 0 0
-0.1610 4.1561 1.6883 0.016 -0.831 -0.556 85 64 83 0 0
-0.1522 4.1546 1.6867 -0.060 -0.852 -0.521 103 83 104 0 0
-0.1438 4.1546 1.6857 -0.060 -0.852 -0.521 110 92 116 0 0
-0.1359 4.1562 1.6853 -0.270 -0.890 -0.366 113 95 119 0 0
-0.1234 4.1420 1.6788 -0.520 -0.844 0.129 119 101 124 0 0
-0.1135 4.1364 1.6756 -0.438 -0.887 0.150 117 99 124 0 0
-0.1036 4.1310 1.6726 -0.438 -0.887 0.150 116 99 122 0 0
-0.0938 4.1256 1.6695 -0.438 -0.887 0.150 114 97 119 0 0
-0.0837 4.1191 1.6660 -0.408 -0.889 0.209 111 94 118 0 0
-0.0743 4.1147 1.6633 -0.248 -0.928 0.277 114 98 120 0 0
-0.0658 4.1138 1.6619 -0.221 -0.934 0.281 118 102 121 0 0
-0.0570 4.1117 1.6601 -0.004 -0.929 0.369 120 101 122 0 0
-0.0489 4.1121 1.6593 -0.211 -0.904 0.373 119 97 119 0 0
-0.0016 4.0881 1.6452 -0.377 -0.915 0.143 117 93 116 0 0
0.0075 4.0843 1.6427 -0.344 -0.930 0.134 121 96 117 0 0
0.0349 4.0719 1.6351 -0.332 -0.907 0.259 117 94 117 0 0
0.0435 4.0697 1.6333 -0.282 -0.959 0.031 116 93 116 0 0
0.0522 4.0671 1.6313 -0.282 -0.959 0.031 114 91 114 0 0
0.0609 4.0645 1.6293 -0.282 -0.959 0.031 118 96 117 0 0
0.8219 3.7656 1.4324 -0.198 -0.980 0.027 110 96 120 0 0
0.8969 3.7415 1.4148 -0.085 -0.996 -0.014 118 102 128 0 0
0.9239 3.7288 1.4071 -0.237 -0.933 -0.271 107 84 107 0 0
1.2814 3.5933 1.3163 -0.061 -0.997 0.049 118 93 116 0 0
1.2874 3.5921 1.3152 0.042 -0.987 0.152 115 90 115 0 0
1.3924 3.8176 1.3816 0.849 -0.461 -0.260 43 32 37 0 0
1.4060 3.8319 1.3850 -0.234 -0.899 0.369 36 32 40 0 0
1.4130 3.8418 1.3876 -0.780 -0.605 0.161 58 53 61 0 0
1.5251 3.9058 1.3965 0.042 -0.998 0.041 88 105 136 0 0
1.5902 3.9836 1.4159 0.075 -0.842 -0.534 140 151 194 0 0
1.5962 3.9812 1.4144 0.085 -0.742 -0.665 132 141 187 0 0
1.6018 3.9750 1.4115 -0.406 -0.637 -0.655 139 151 193 0 0
1.6178 3.9519 1.4015 0.269 -0.950 0.158 160 176 222 0 0
1.6243 3.9538 1.4013 0.269 -0.950 0.158 158 174 219 0 0
1.6363 3.9502 1.3986 -0.709 -0.704 -0.039 133 138 185 0 0
1.6479 3.9438 1.3950 -0.337 -0.934 -0.122 121 127 167 0 0
1.8589 4.4496 1.5470 0.849 -0.526 -0.053 166 182 229 0 0
1.8681 4.4640 1.5509 0.849 -0.526 -0.053 165 181 229 0 0
1.8773 4.4785 1.5549 0.849 -0.526 -0.053 166 183 230 0 0
1.9147 4.5372 1.5710 0.849 -0.526 -0.053 164 180 227 0 0
1.9242 4.5520 1.5750 0.849 -0.526 -0.053 166 182 230 0 0
1.9337 4.5668 1.5791 0.855 -0.515 -0.058 167 183 231 0 0
1.9433 4.5820 1.5832 0.849 -0.526 -0.053 166 182 230 0 0
1.9529 4.5970 1.5873 0.869 -0.496 0.005 166 180 227 0 0
1.9612 4.6042 1.5888 0.864 -0.502 -0.033 165 177 225 0 0
1.9712 4.6211 1.5936 0.864 -0.502 -0.033 164 177 224 0 0
1.9813 4.6382 1.5984 0.864 -0.502 -0.033 163 178 223 0 0
1.9915 4.6554 1.6032 0.864 -0.502 -0.033 162 179 224 0 0
2.0017 4.6727 1.6080 0.864 -0.502 -0.033 164 180 226 0 0
2.0120 4.6901 1.6129 0.864 -0.502 -0.033 164 180 226 0 0
2.0207 4.6990 1.6149 0.895 -0.435 -0.101 162 179 223 0 0
2.0318 4.7205 1.6211 0.895 -0.435 -0.101 159 175 220 0 0
2.0430 4.7421 1.6274 0.895 -0.435 -0.101 159 176 221 0 0
2.0530 4.7570 1.6314 0.863 -0.500 0.070 161 178 222 0 0
2.0638 4.7760 1.6367 0.874 -0.486 0.025 160 177 221 0 0
2.0760 4.8021 1.6444 0.783 -0.621 0.038 158 175 219 0 0
2.0877 4.8250 1.6511 0.805 -0.591 0.062 154 170 214 0 0
2.0979 4.8400 1.6551 0.769 -0.637 0.051 148 162 206 0 0
2.1083 4.8557 1.6593 0.809 -0.581 0.088 134 146 191 0 0
2.1238 4.8610 1.6593 -0.844 -0.523 0.117 90 99 141 0 0
2.1481 4.8385 1.6485 -0.080 -0.954 0.290 52 74 100 0 0
2.1551 4.8377 1.6473 0.254 -0.858 0.446 57 79 106 0 0
2.1323 4.5982 1.5660 0.252 -0.964 0.086 64 91 128 0 0
2.1398 4.6010 1.5661 0.257 -0.957 0.132 123 158 193 0 0
-2.7312 5.0726 2.3097 0.498 -0.867 0.011 171 187 240 0 0
-2.7223 5.0780 2.3105 0.603 -0.797 0.020 172 188 240 0 0
-2.7133 5.0832 2.3113 0.667 -0.743 0.055 173 189 240 0 0
-2.7057 5.0906 2.3129 0.603 -0.797 0.020 175 191 240 0 0
-2.7028 5.1044 2.3174 0.548 -0.809 0.211 149 161 204 0 0
-2.6939 5.1099 2.3182 0.397 -0.912 0.102 128 113 145 0 0
-2.6760 5.1029 2.3136 -0.485 -0.874 -0.014 131 107 130 0 0
-2.6546 5.0908 2.3068 -0.483 -0.875 -0.024 134 114 134 0 0
-2.6191 5.0769 2.2977 -0.389 -0.921 0.009 126 103 119 0 0
-2.6009 5.0691 2.2928 -0.389 -0.921 0.009 122 97 115 0 0
-2.5847 5.0642 2.2891 -0.439 -0.899 0.006 118 93 112 0 0
-2.5428 5.0404 2.2758 -0.273 -0.952 0.138 122 97 116 0 0
-2.5275 5.0366 2.2726 0.214 -0.976 -0.048 123 99 119 0 0
-2.5157 5.0376 2.2715 0.092 -0.991 -0.094 121 98 119 0 0
-2.5040 5.0388 2.2705 0.092 -0.991 -0.094 118 99 123 0 0
-2.4914 5.0387 2.2690 -0.046 -0.990 -0.131 115 100 126 0 0
-2.4731 5.0303 2.2639 -0.215 -0.940 0.266 118 107 131 0 0
-2.4561 5.0238 2.2595 -0.439 -0.887 0.143 127 115 134 0 0
-2.4329 5.0080 2.2513 -0.474 -0.863 0.176 126 109 128 0 0
-2.4173 5.0033 2.2477 -0.329 -0.922 0.206 125 106 126 0 0
-2.4001 4.9961 2.2431 -0.329 -0.922 0.206 121 99 119 0 0
-2.3827 4.9887 2.2384 -0.277 -0.909 0.310 125 103 121 0 0
-2.3633 4.9782 2.2324 -0.342 -0.917 0.204 123 101 119 0 0
-2.3460 4.9707 2.2277 -0.342 -0.917 0.204 127 102 120 0 0
-2.3275 4.9612 2.2222 -0.345 -0.909 0.233 127 106 123 0 0
-2.3080 4.9503 2.2161 -0.395 -0.879 0.266 122 104 121 0 0
-2.2938 4.9471 2.2132 -0.404 -0.915 0.006 120 102 120 0 0
-2.2852 4.9525 2.2141 -0.307 -0.948 0.085 120 103 119 0 0
-2.2695 4.9471 2.2103 -0.307 -0.948 0.085 113 97 117 0 0
-2.2500 4.9358 2.2040 -0.271 -0.962 -0.029 101 83 103 0 0
-2.2353 4.9317 2.2008 -0.271 -0.962 -0.029 109 90 109 0 0
-2.2201 4.9270 2.1973 -0.322 -0.937 0.132 104 87 106 0 0
-2.2026 4.9185 2.1922 -0.434 -0.898 -0.077 105 89 107 0 0
-2.1887 4.9155 2.1895 -0.144 -0.975 0.170 105 88 106 0 0
-2.1752 4.9131 2.1871 -0.144 -0.975 0.170 101 84 103 0 0
-2.1623 4.9117 2.1850 -0.282 -0.958 -0.042 99 79 99 0 0
-2.1449 4.9030 2.1799 -0.420 -0.898 0.127 105 83 103 0 0
-2.1307 4.8994 2.1769 -0.474 -0.879 0.038 113 88 108 0 0
-2.1124 4.8893 2.1712 -0.474 -0.879 0.038 119 93 115 0 0
-2.0962 4.8824 2.1668 -0.460 -0.887 0.034 114 88 110 0 0
