ply
format ascii 1.0
element vertex 856
property float x
property float y
property float z
property float nx
property float ny
property float nz
property uchar diffuse_red
property uchar diffuse_green
property uchar diffuse_blue
property uchar class
property uchar detection
end_header
-0.5684 2.7946 -0.8499 0.429 -0.860 0.276 101 59 71 0 0
-0.5497 2.8054 -0.8525 0.364 -0.929 0.073 82 54 67 0 0
-0.5447 2.8073 -0.8529 0.364 -0.929 0.073 91 58 71 0 0
-0.5397 2.8092 -0.8533 0.364 -0.929 0.073 97 61 74 0 0
-0.5348 2.8111 -0.8537 0.364 -0.929 0.073 106 67 81 0 0
-0.5298 2.8130 -0.8541 0.364 -0.929 0.073 111 70 85 0 0
-0.5248 2.8150 -0.8545 0.364 -0.929 0.073 112 72 86 0 0
-0.4988 2.8215 -0.8556 0.460 -0.886 -0.061 124 85 104 0 0
-0.4939 2.8235 -0.8561 0.507 -0.856 -0.106 126 88 105 0 0
-0.4892 2.8265 -0.8568 0.518 -0.855 -0.004 127 89 105 0 0
-0.4845 2.8293 -0.8575 0.543 -0.840 0.006 129 92 107 0 0
-0.4664 2.8434 -0.8610 0.383 -0.922 0.050 140 99 117 0 0
-0.4614 2.8454 -0.8614 0.383 -0.922 0.050 142 100 119 0 0
-0.4572 2.8498 -0.8626 0.512 -0.850 0.123 144 102 121 0 0
-0.4375 2.8592 -0.8647 0.429 -0.887 0.169 143 97 113 0 0
-0.4328 2.8625 -0.8655 0.352 -0.912 0.209 143 97 113 0 0
-0.4177 2.8688 -0.8669 0.501 -0.839 0.212 129 85 101 0 0
-0.4129 2.8715 -0.8675 0.501 -0.839 0.212 129 85 100 0 0
-0.4077 2.8732 -0.8678 0.364 -0.885 0.290 116 73 87 0 0
-0.4026 2.8750 -0.8682 0.195 -0.938 0.288 112 71 85 0 0
-0.3976 2.8773 -0.8687 0.214 -0.920 0.329 115 73 87 0 0
-0.3923 2.8786 -0.8689 0.509 -0.815 0.276 124 80 95 0 0
-0.3827 2.8845 -0.8704 0.576 -0.800 0.167 128 83 98 0 0
-0.3634 2.8965 -0.8732 0.360 -0.931 0.063 125 80 95 0 0
-0.3356 2.9195 -0.8790 0.119 -0.989 0.092 131 84 98 0 0
-0.3312 2.9244 -0.8803 -0.181 -0.972 0.149 132 86 101 0 0
-0.3241 2.9190 -0.8785 0.054 -0.968 0.244 132 85 101 0 0
-0.3084 2.9242 -0.8796 0.362 -0.908 0.212 129 82 98 0 0
-0.3028 2.9241 -0.8794 0.347 -0.922 0.171 131 83 97 0 0
-0.2970 2.9238 -0.8791 0.439 -0.896 0.065 136 84 97 0 0
-0.2920 2.9262 -0.8797 0.439 -0.896 0.065 130 81 94 0 0
-0.2871 2.9296 -0.8805 0.335 -0.942 0.025 121 75 90 0 0
-0.2819 2.9315 -0.8809 0.335 -0.942 0.025 128 85 99 0 0
-0.2767 2.9332 -0.8813 0.451 -0.892 0.035 123 81 96 0 0
-0.2717 2.9361 -0.8820 0.465 -0.881 0.088 133 88 105 0 0
-0.2667 2.9387 -0.8826 0.465 -0.881 0.088 129 85 102 0 0
-0.2617 2.9413 -0.8832 0.465 -0.881 0.088 130 87 105 0 0
-0.2563 2.9428 -0.8834 0.437 -0.896 -0.074 123 83 100 0 0
-0.2515 2.9465 -0.8844 0.465 -0.881 0.088 108 71 85 0 0
-0.2465 2.9491 -0.8850 0.465 -0.881 0.088 102 69 80 0 0
-0.1721 3.0854 -0.9216 0.882 -0.466 -0.072 139 98 118 0 0
-0.0746 3.3558 -0.9958 0.928 -0.367 -0.066 88 84 102 0 0
-0.0702 3.3676 -0.9990 0.928 -0.367 -0.066 82 79 97 0 0
-0.0161 3.3825 -1.0018 -0.081 -0.337 0.938 73 75 88 0 0
0.0042 3.3706 -0.9978 -0.809 -0.355 0.468 75 75 89 0 0
0.3292 3.3297 -0.9772 -0.111 -0.994 0.004 76 59 61 0 0
0.3694 3.3742 -0.9887 0.922 -0.343 0.181 87 81 97 0 0
0.3811 3.3889 -0.9926 0.667 -0.291 0.686 68 71 83 0 0
0.3868 3.3995 -0.9954 0.768 -0.408 0.494 64 69 79 0 0
0.3929 3.3975 -0.9947 0.300 -0.352 0.887 61 67 78 0 0
0.3988 3.4025 -0.9959 0.303 -0.348 0.887 58 67 76 0 0
0.4047 3.4080 -0.9973 0.414 -0.335 0.846 58 66 76 0 0
0.4106 3.4125 -0.9985 0.416 -0.345 0.841 57 66 73 0 0
0.5884 3.3849 -0.9857 0.202 -0.104 0.974 77 82 98 0 0
0.5944 3.3893 -0.9868 0.347 -0.099 0.933 77 82 99 0 0
0.6005 3.3951 -0.9883 0.325 -0.102 0.940 76 83 95 0 0
0.8742 3.4646 -1.0004 0.217 -0.061 0.974 89 88 94 0 0
0.8927 3.4736 -1.0025 0.109 -0.496 0.862 69 72 73 0 0
0.9047 3.4769 -1.0031 -0.059 -0.705 0.707 69 69 70 0 0
0.9162 3.4761 -1.0025 -0.163 -0.947 0.276 84 76 85 0 0
0.9219 3.4752 -1.0021 -0.163 -0.947 0.276 86 77 88 0 0
1.0204 3.4416 -0.9899 -0.079 -0.934 0.349 110 93 107 0 0
1.0271 3.4486 -0.9916 -0.047 -0.969 0.242 105 90 104 0 0
1.0320 3.4436 -0.9901 -0.082 -0.982 -0.168 104 91 103 0 0
1.0845 3.4202 -0.9820 -0.195 -0.981 -0.004 118 103 118 0 0
1.1368 3.4017 -0.9753 -0.258 -0.965 0.046 111 97 109 0 0
1.1427 3.4039 -0.9757 -0.212 -0.976 -0.042 109 93 107 0 0
1.2427 3.3590 -0.9602 -0.143 -0.986 -0.082 37 26 79 0 0
1.2479 3.3583 -0.9599 -0.143 -0.986 -0.082 19 22 53 0 0
1.2532 3.3579 -0.9596 -0.051 -0.998 0.038 33 40 81 0 0
1.2956 3.3332 -0.9514 0.001 -0.987 -0.161 155 173 245 0 0
1.2983 3.3223 -0.9482 0.477 -0.874 0.089 155 173 245 0 0
1.3044 3.3255 -0.9490 0.477 -0.874 0.089 154 171 240 0 0
1.3105 3.3288 -0.9497 0.477 -0.874 0.089 140 148 211 0 0
1.3170 3.3335 -0.9509 0.372 -0.927 0.054 104 95 141 0 0
1.3228 3.3358 -0.9514 0.372 -0.927 0.054 99 87 108 0 0
1.3287 3.3382 -0.9519 0.372 -0.927 0.054 97 87 101 0 0
1.4653 3.4485 -0.9795 -0.298 -0.594 0.747 61 53 63 0 0
1.4702 3.4469 -0.9789 -0.298 -0.594 0.747 51 50 60 0 0
1.4754 3.4461 -0.9785 -0.353 -0.649 0.674 63 69 76 0 0
1.6625 3.7370 -1.0560 0.241 -0.689 -0.683 59 62 70 0 0
1.6690 3.7391 -1.0565 0.171 -0.627 -0.760 39 38 48 0 0
1.6784 3.7326 -1.0543 -0.743 -0.523 0.418 26 23 28 0 0
1.6827 3.7278 -1.0528 -0.743 -0.523 0.418 36 28 31 0 0
1.6858 3.7196 -1.0504 -0.744 -0.545 0.387 49 40 44 0 0
1.6895 3.7132 -1.0485 -0.337 -0.512 0.790 62 52 62 0 0
-2.1836 3.0199 -0.9650 -0.238 -0.138 0.961 71 78 96 0 0
-2.0930 3.0313 -0.9657 -0.231 -0.150 0.961 61 68 85 0 0
-2.0867 3.0324 -0.9658 -0.237 -0.154 0.959 60 67 86 0 0
-2.0996 3.0661 -0.9758 -0.290 -0.161 0.943 59 67 85 0 0
-1.9297 3.0673 -0.9714 -0.162 -0.111 0.981 64 72 84 0 0
-1.4956 3.0897 -0.9657 0.052 -0.997 -0.060 58 66 76 0 0
-0.5882 2.7865 -0.8535 0.024 -0.991 0.132 96 66 80 0 0
-0.5727 2.7903 -0.8542 0.486 -0.873 0.030 109 74 88 0 0
-0.5680 2.7929 -0.8548 0.486 -0.873 0.030 113 78 93 0 0
-0.5633 2.7955 -0.8554 0.486 -0.873 0.030 115 81 96 0 0
-0.5586 2.7983 -0.8561 0.529 -0.828 -0.187 117 84 99 0 0
-0.5538 2.8006 -0.8566 0.535 -0.844 0.040 114 84 97 0 0
-0.5448 2.8070 -0.8582 0.364 -0.919 0.150 114 79 92 0 0
-0.5399 2.8092 -0.8586 0.349 -0.937 -0.019 124 84 97 0 0
-0.5343 2.8094 -0.8586 0.455 -0.876 -0.160 139 96 111 0 0
-0.5089 2.8176 -0.8602 0.126 -0.933 -0.336 131 87 101 0 0
-0.5055 2.8242 -0.8620 0.280 -0.955 0.095 136 87 101 0 0
-0.4991 2.8218 -0.8611 0.594 -0.803 -0.058 139 90 106 0 0
-0.4942 2.8240 -0.8616 0.507 -0.856 -0.106 139 91 109 0 0
-0.4909 2.8314 -0.8636 0.469 -0.882 -0.044 138 91 107 0 0
-0.4858 2.8329 -0.8639 0.413 -0.871 0.267 139 94 110 0 0
-0.4665 2.8431 -0.8663 0.383 -0.922 0.050 141 95 112 0 0
-0.4615 2.8451 -0.8667 0.383 -0.922 0.050 140 97 116 0 0
-0.4571 2.8491 -0.8678 0.512 -0.850 0.123 141 96 116 0 0
-0.4373 2.8583 -0.8698 0.429 -0.887 0.169 137 91 109 0 0
-0.4326 2.8614 -0.8706 0.352 -0.912 0.209 140 92 110 0 0
-0.4175 2.8676 -0.8719 0.446 -0.895 0.023 126 82 97 0 0
-0.4123 2.8691 -0.8722 0.450 -0.891 -0.052 127 85 100 0 0
-0.4073 2.8713 -0.8727 0.390 -0.920 -0.046 112 73 85 0 0
-0.4025 2.8743 -0.8734 0.157 -0.982 -0.102 118 78 92 0 0
-0.3971 2.8752 -0.8735 0.157 -0.982 -0.102 124 81 96 0 0
-0.3923 2.8779 -0.8742 0.412 -0.911 -0.017 125 82 97 0 0
-0.3826 2.8834 -0.8755 0.613 -0.790 -0.002 131 86 99 0 0
-0.3733 2.8909 -0.8774 0.281 -0.959 0.040 125 81 98 0 0
-0.3681 2.8924 -0.8777 0.281 -0.959 0.040 127 85 99 0 0
-0.3629 2.8940 -0.8779 0.281 -0.959 0.040 129 86 100 0 0
-0.3479 2.9012 -0.8796 0.486 -0.873 -0.029 132 86 101 0 0
-0.3428 2.9035 -0.8801 0.411 -0.912 -0.015 137 89 106 0 0
-0.3414 2.9196 -0.8847 0.168 -0.975 -0.146 134 87 105 0 0
-0.3360 2.9206 -0.8848 0.168 -0.975 -0.146 133 86 103 0 0
-0.3184 2.9181 -0.8836 0.337 -0.936 0.102 137 90 106 0 0
-0.3133 2.9203 -0.8841 -0.018 -0.999 0.051 133 86 101 0 0
-0.3079 2.9213 -0.8842 0.347 -0.922 0.171 129 81 96 0 0
-0.3027 2.9232 -0.8846 0.347 -0.922 0.171 133 85 100 0 0
-0.2975 2.9251 -0.8850 0.475 -0.876 0.087 135 85 98 0 0
-0.2925 2.9279 -0.8857 0.336 -0.941 0.036 126 78 90 0 0
-0.2872 2.9293 -0.8859 0.322 -0.944 0.069 120 76 89 0 0
-0.2820 2.9311 -0.8863 0.322 -0.944 0.069 125 79 94 0 0
-0.2768 2.9330 -0.8867 0.451 -0.892 0.035 126 82 97 0 0
-0.2718 2.9359 -0.8874 0.501 -0.857 0.119 130 88 103 0 0
-0.2668 2.9387 -0.8881 0.501 -0.857 0.119 121 78 94 0 0
-0.2617 2.9408 -0.8885 0.465 -0.881 0.088 132 87 104 0 0
-0.2566 2.9432 -0.8890 0.437 -0.896 -0.074 126 84 101 0 0
-0.2525 2.9502 -0.8909 0.289 -0.931 0.224 108 70 83 0 0
-0.2419 2.9533 -0.8915 0.289 -0.931 0.224 116 77 86 0 0
-0.2369 2.9561 -0.8922 0.324 -0.917 0.232 122 78 89 0 0
-0.2316 2.9579 -0.8926 0.324 -0.917 0.232 117 73 83 0 0
-0.2264 2.9597 -0.8929 0.324 -0.917 0.232 119 74 82 0 0
-0.0012 3.3628 -1.0019 -0.446 -0.365 0.817 78 82 94 0 0
0.0345 3.3243 -0.9899 -0.359 -0.406 0.841 82 85 95 0 0
0.0411 3.3205 -0.9886 -0.421 -0.415 0.807 79 85 95 0 0
0.3412 3.3218 -0.9805 0.515 -0.846 0.142 78 67 75 0 0
0.3693 3.3746 -0.9949 0.878 -0.435 0.200 74 74 90 0 0
0.3928 3.3903 -0.9987 0.303 -0.348 0.887 65 72 83 0 0
0.3988 3.3935 -0.9995 0.303 -0.348 0.887 64 71 81 0 0
0.4046 3.3997 -1.0011 0.340 -0.418 0.842 65 73 83 0 0
0.4106 3.4029 -1.0018 0.276 -0.426 0.862 65 72 83 0 0
0.4166 3.4056 -1.0024 0.276 -0.426 0.862 66 72 84 0 0
0.4406 3.3967 -0.9992 -0.420 -0.469 0.777 64 71 83 0 0
0.4466 3.3869 -0.9962 -0.315 -0.434 0.844 66 73 85 0 0
0.5996 3.3788 -0.9896 0.318 -0.096 0.943 70 76 79 0 0
0.6950 3.4158 -0.9975 0.307 -0.049 0.950 78 78 93 0 0
0.9274 3.4738 -1.0076 -0.299 -0.953 -0.045 80 81 94 0 0
1.0318 3.4435 -0.9960 -0.241 -0.970 -0.032 99 85 94 0 0
1.0622 3.4220 -0.9890 -0.411 -0.868 0.279 102 87 99 0 0
1.1056 3.4142 -0.9856 -0.261 -0.946 0.191 118 102 113 0 0
1.1111 3.4142 -0.9854 -0.074 -0.997 0.002 114 101 111 0 0
1.1365 3.4015 -0.9811 -0.258 -0.965 0.046 110 96 108 0 0
1.1426 3.4042 -0.9817 -0.212 -0.976 -0.042 111 98 110 0 0
1.1476 3.4017 -0.9808 -0.329 -0.941 -0.084 109 96 110 0 0
1.2115 3.3658 -0.9687 -0.292 -0.940 -0.178 157 174 246 0 0
1.2424 3.3588 -0.9659 -0.127 -0.977 -0.172 18 19 46 0 0
1.2477 3.3580 -0.9655 -0.127 -0.977 -0.172 16 23 38 0 0
1.2530 3.3577 -0.9653 -0.051 -0.998 0.038 17 23 42 0 0
1.2917 3.3398 -0.9591 -0.011 -0.979 0.202 154 174 244 0 0
1.2957 3.3342 -0.9574 0.001 -0.987 -0.161 154 173 245 0 0
1.3040 3.3248 -0.9544 0.477 -0.874 0.089 154 172 242 0 0
1.3101 3.3280 -0.9552 0.477 -0.874 0.089 143 153 218 0 0
1.3163 3.3315 -0.9560 0.434 -0.887 0.159 105 99 147 0 0
1.3223 3.3344 -0.9567 0.434 -0.887 0.159 100 89 111 0 0
1.3285 3.3377 -0.9575 0.372 -0.927 0.054 96 88 101 0 0
1.5159 3.4746 -0.9913 0.432 -0.607 0.667 32 28 34 0 0
1.5226 3.4789 -0.9924 0.402 -0.664 0.631 26 24 30 0 0
1.5343 3.4817 -0.9929 0.489 -0.863 -0.125 43 44 49 0 0
1.5899 3.5392 -1.0077 0.195 -0.692 -0.695 50 50 58 0 0
1.6671 3.7525 -1.0666 0.057 -0.728 -0.683 51 55 65 0 0
1.6893 3.7133 -1.0547 -0.625 -0.693 0.359 27 22 28 0 0
1.6930 3.7069 -1.0528 -0.589 -0.717 0.372 34 26 35 0 0
1.6967 3.7007 -1.0509 -0.382 -0.520 0.764 42 31 44 0 0
-2.1382 2.9997 -0.9641 -0.089 -0.198 0.976 65 71 91 0 0
-2.0791 3.0140 -0.9666 -0.229 -0.152 0.962 64 70 88 0 0
-1.9380 3.0407 -0.9703 -0.194 -0.116 0.974 65 74 85 0 0
-1.5918 3.1233 -0.9842 -0.206 -0.110 0.972 72 78 99 0 0
-1.4959 3.0900 -0.9719 0.052 -0.997 -0.060 63 71 82 0 0
-0.5881 2.7859 -0.8587 0.024 -0.991 0.132 125 83 98 0 0
-0.5728 2.7904 -0.8596 0.476 -0.878 -0.044 118 74 89 0 0
-0.5680 2.7927 -0.8601 0.464 -0.886 0.012 128 82 98 0 0
-0.5633 2.7951 -0.8606 0.464 -0.886 0.012 124 78 95 0 0
-0.5586 2.7979 -0.8613 0.486 -0.873 0.030 125 79 96 0 0
-0.5446 2.8062 -0.8633 0.364 -0.919 0.150 112 71 87 0 0
-0.5397 2.8082 -0.8637 0.364 -0.919 0.150 123 79 95 0 0
-0.5044 2.8204 -0.8662 0.126 -0.933 -0.336 130 79 94 0 0
-0.4891 2.8254 -0.8672 0.267 -0.951 -0.159 134 87 101 0 0
-0.4840 2.8269 -0.8675 0.267 -0.951 -0.159 135 88 104 0 0
-0.4761 2.8374 -0.8703 0.425 -0.880 -0.214 137 90 106 0 0
-0.4712 2.8399 -0.8709 0.425 -0.880 -0.214 134 87 104 0 0
-0.4665 2.8428 -0.8716 0.383 -0.922 0.050 138 91 109 0 0
-0.4615 2.8448 -0.8720 0.383 -0.922 0.050 141 95 114 0 0
-0.4515 2.8489 -0.8729 0.443 -0.891 0.098 138 91 110 0 0
-0.4466 2.8512 -0.8735 0.443 -0.891 0.098 139 92 110 0 0
-0.4372 2.8574 -0.8750 0.429 -0.887 0.169 134 86 103 0 0
-0.4322 2.8597 -0.8755 0.429 -0.887 0.169 137 89 106 0 0
-0.4275 2.8628 -0.8762 0.576 -0.817 0.013 138 91 107 0 0
-0.4228 2.8660 -0.8771 0.576 -0.817 0.013 126 80 95 0 0
-0.4176 2.8674 -0.8773 0.446 -0.895 0.023 130 83 98 0 0
-0.4125 2.8693 -0.8777 0.450 -0.891 -0.052 129 84 99 0 0
-0.4075 2.8715 -0.8782 0.390 -0.920 -0.046 119 77 91 0 0
-0.4025 2.8737 -0.8787 0.206 -0.975 -0.089 128 84 99 0 0
-0.3974 2.8757 -0.8791 0.157 -0.982 -0.102 131 84 100 0 0
-0.3924 2.8779 -0.8796 0.412 -0.911 -0.017 129 84 100 0 0
-0.3874 2.8800 -0.8801 0.552 -0.833 0.028 128 83 97 0 0
-0.3826 2.8832 -0.8808 0.552 -0.833 0.028 133 86 101 0 0
-0.3779 2.8863 -0.8816 0.552 -0.833 0.028 132 87 104 0 0
-0.3733 2.8902 -0.8826 0.383 -0.909 0.164 125 81 97 0 0
-0.3682 2.8922 -0.8830 0.383 -0.909 0.164 130 82 96 0 0
-0.3480 2.9013 -0.8851 0.486 -0.873 -0.029 136 89 105 0 0
-0.3383 2.9072 -0.8865 0.446 -0.885 0.134 135 88 105 0 0
-0.3333 2.9097 -0.8871 0.446 -0.885 0.134 133 86 102 0 0
-0.3181 2.9166 -0.8886 0.359 -0.917 0.173 135 89 104 0 0
-0.3133 2.9200 -0.8895 -0.018 -0.999 0.051 134 87 100 0 0
-0.3080 2.9215 -0.8898 0.160 -0.974 0.159 133 86 101 0 0
-0.3026 2.9224 -0.8899 0.160 -0.974 0.159 135 88 103 0 0
-0.2975 2.9245 -0.8903 0.475 -0.876 0.087 133 85 101 0 0
-0.2925 2.9272 -0.8910 0.335 -0.934 0.121 121 75 88 0 0
-0.2873 2.9289 -0.8913 0.322 -0.944 0.069 113 69 81 0 0
-0.2820 2.9307 -0.8917 0.322 -0.944 0.069 116 72 85 0 0
-0.2769 2.9327 -0.8921 0.451 -0.892 0.035 122 79 93 0 0
-0.2718 2.9350 -0.8926 0.465 -0.881 0.088 131 89 104 0 0
-0.2667 2.9376 -0.8932 0.465 -0.881 0.088 116 75 91 0 0
-0.2617 2.9402 -0.8938 0.465 -0.881 0.088 122 79 96 0 0
-0.2566 2.9428 -0.8944 0.465 -0.881 0.088 125 82 97 0 0
-0.2524 2.9490 -0.8961 0.289 -0.931 0.224 112 73 86 0 0
-0.2418 2.9521 -0.8967 0.289 -0.931 0.224 115 75 86 0 0
-0.2365 2.9537 -0.8970 0.289 -0.931 0.224 122 76 87 0 0
-0.2312 2.9553 -0.8973 0.289 -0.931 0.224 119 74 84 0 0
-0.2262 2.9584 -0.8981 0.324 -0.917 0.232 120 75 85 0 0
-0.1751 3.0700 -0.9287 0.904 -0.422 -0.070 140 99 119 0 0
-0.0697 3.3622 -1.0098 0.983 -0.053 -0.174 73 76 87 0 0
-0.0257 3.3156 -0.9951 0.033 -0.249 0.968 75 77 90 0 0
-0.0126 3.3099 -0.9931 -0.574 -0.340 0.745 75 77 90 0 0
0.0485 3.3082 -0.9909 -0.196 -0.370 0.908 80 83 96 0 0
0.3635 3.3606 -0.9970 0.891 -0.440 0.114 74 80 96 0 0
0.3988 3.3834 -1.0026 0.264 -0.369 0.891 69 75 89 0 0
0.4109 3.3735 -0.9994 -0.641 -0.413 0.647 69 75 88 0 0
0.4169 3.3672 -0.9974 -0.641 -0.413 0.647 69 75 88 0 0
0.4229 3.3593 -0.9950 -0.538 -0.435 0.722 67 74 87 0 0
0.4348 3.3503 -0.9920 -0.206 -0.401 0.893 67 74 89 0 0
0.4407 3.3486 -0.9914 -0.206 -0.401 0.893 68 74 90 0 0
0.4700 3.3050 -0.9780 0.580 -0.053 0.813 69 76 91 0 0
0.4758 3.3071 -0.9785 0.641 -0.064 0.765 67 74 90 0 0
0.4817 3.3199 -0.9820 0.631 -0.059 0.773 70 78 92 0 0
0.4876 3.3305 -0.9849 0.609 -0.052 0.791 72 78 91 0 0
0.4934 3.3328 -0.9854 0.240 -0.116 0.964 71 79 89 0 0
0.5988 3.3628 -0.9910 0.318 -0.096 0.943 67 77 83 0 0
0.6861 3.3717 -0.9911 0.287 -0.048 0.957 80 79 99 0 0
0.8092 3.3994 -0.9956 0.257 -0.047 0.965 72 76 103 0 0
0.9144 3.4191 -0.9982 0.225 -0.048 0.973 72 78 92 0 0
0.9431 3.4209 -0.9979 0.159 -0.065 0.985 77 78 93 0 0
0.9493 3.4242 -0.9987 0.163 -0.063 0.985 75 78 91 0 0
0.9609 3.4260 -0.9989 0.102 -0.184 0.978 77 80 91 0 0
1.0617 3.4201 -0.9944 -0.225 -0.571 0.789 99 83 94 0 0
1.0833 3.4154 -0.9924 -0.106 -0.762 0.639 110 94 107 0 0
1.0888 3.4148 -0.9921 -0.106 -0.762 0.639 110 94 108 0 0
1.1424 3.4039 -0.9874 -0.207 -0.978 0.029 107 92 106 0 0
1.1528 3.4006 -0.9862 -0.317 -0.943 -0.099 108 96 108 0 0
1.2116 3.3669 -0.9748 -0.292 -0.940 -0.178 156 173 244 0 0
1.2161 3.3627 -0.9735 -0.380 -0.919 -0.110 153 170 239 0 0
1.2474 3.3577 -0.9712 -0.051 -0.998 0.038 15 22 33 0 0
1.2528 3.3575 -0.9709 -0.051 -0.998 0.038 16 20 35 0 0
1.2913 3.3387 -0.9644 -0.011 -0.979 0.202 153 174 245 0 0
1.2958 3.3352 -0.9633 0.001 -0.987 -0.161 153 173 245 0 0
1.3013 3.3362 -0.9634 -0.319 -0.948 -0.007 154 172 245 0 0
1.3062 3.3346 -0.9628 -0.319 -0.948 -0.007 154 172 244 0 0
1.3100 3.3284 -0.9609 0.349 -0.923 0.162 147 159 226 0 0
1.3159 3.3305 -0.9614 0.349 -0.923 0.162 108 104 157 0 0
1.3217 3.3327 -0.9618 0.104 -0.974 0.204 96 86 112 0 0
1.3272 3.3333 -0.9619 0.104 -0.974 0.204 95 86 100 0 0
1.3533 3.3117 -0.9549 -0.452 -0.889 -0.073 102 95 107 0 0
1.3739 3.3102 -0.9539 0.269 -0.961 0.069 103 97 115 0 0
1.4818 3.4322 -0.9859 0.146 -0.669 0.728 65 65 66 0 0
1.5202 3.4715 -0.9962 0.423 -0.350 0.836 31 29 37 0 0
1.5924 3.5481 -1.0161 0.504 -0.674 -0.541 46 53 59 0 0
-2.0715 2.9958 -0.9673 -0.242 -0.151 0.958 64 71 90 0 0
-2.0645 3.0221 -0.9747 -0.290 -0.173 0.941 59 65 83 0 0
-1.8755 3.0412 -0.9748 -0.283 -0.137 0.949 66 76 89 0 0
-0.5879 2.7849 -0.8637 0.037 -0.980 0.196 121 74 89 0 0
-0.5823 2.7849 -0.8636 0.554 -0.832 0.035 115 70 82 0 0
-0.5776 2.7876 -0.8642 0.520 -0.853 0.049 121 78 92 0 0
-0.5678 2.7916 -0.8651 0.246 -0.967 -0.064 118 72 87 0 0
-0.5634 2.7950 -0.8660 0.464 -0.886 0.012 120 74 88 0 0
-0.5625 2.8088 -0.8699 0.256 -0.907 0.334 124 78 92 0 0
-0.5539 2.8001 -0.8671 0.535 -0.844 0.040 125 78 93 0 0
-0.5445 2.8055 -0.8684 0.364 -0.919 0.150 116 71 86 0 0
-0.5395 2.8074 -0.8688 0.364 -0.919 0.150 130 85 101 0 0
-0.5362 2.8141 -0.8707 0.385 -0.916 0.114 137 90 108 0 0
-0.5314 2.8166 -0.8713 0.440 -0.882 0.166 130 83 99 0 0
-0.5160 2.8210 -0.8721 0.077 -0.987 0.143 123 73 87 0 0
-0.5052 2.8224 -0.8722 0.126 -0.933 -0.336 131 80 96 0 0
-0.4895 2.8262 -0.8729 0.052 -0.919 -0.391 134 88 105 0 0
-0.4844 2.8277 -0.8731 0.267 -0.951 -0.159 134 87 103 0 0
-0.4616 2.8445 -0.8774 0.383 -0.922 0.050 137 91 108 0 0
-0.4569 2.8477 -0.8782 0.512 -0.850 0.123 137 90 107 0 0
-0.4520 2.8501 -0.8787 0.319 -0.940 0.125 135 88 106 0 0
-0.4469 2.8519 -0.8791 0.429 -0.887 0.169 135 88 106 0 0
-0.4370 2.8565 -0.8801 0.429 -0.887 0.169 128 83 99 0 0
-0.4321 2.8588 -0.8806 0.429 -0.887 0.169 135 88 103 0 0
-0.4177 2.8672 -0.8827 0.446 -0.895 0.023 131 83 98 0 0
-0.4127 2.8696 -0.8832 0.450 -0.891 -0.052 131 83 95 0 0
-0.4078 2.8721 -0.8838 0.450 -0.891 -0.052 126 79 93 0 0
-0.4028 2.8742 -0.8843 0.206 -0.975 -0.089 132 85 102 0 0
-0.3975 2.8753 -0.8844 0.206 -0.975 -0.089 130 83 99 0 0
-0.3925 2.8776 -0.8849 0.399 -0.917 0.013 132 85 101 0 0
-0.3880 2.8817 -0.8860 0.501 -0.864 0.045 131 85 98 0 0
-0.3833 2.8849 -0.8868 0.354 -0.922 0.154 133 87 102 0 0
-0.3779 2.8861 -0.8870 0.552 -0.833 0.028 132 87 102 0 0
-0.3732 2.8893 -0.8878 0.383 -0.909 0.164 125 81 96 0 0
-0.3681 2.8913 -0.8882 0.383 -0.909 0.164 121 76 91 0 0
-0.3482 2.9014 -0.8906 0.486 -0.873 -0.029 139 91 108 0 0
-0.3431 2.9035 -0.8910 0.411 -0.912 -0.015 141 91 111 0 0
-0.3383 2.9065 -0.8918 0.446 -0.885 0.134 136 89 106 0 0
-0.3332 2.9089 -0.8923 0.446 -0.885 0.134 134 87 104 0 0
-0.3278 2.9099 -0.8924 0.394 -0.916 0.079 135 87 103 0 0
-0.3227 2.9120 -0.8929 0.405 -0.913 0.049 135 87 104 0 0
-0.3178 2.9149 -0.8936 0.460 -0.886 0.063 135 88 104 0 0
-0.3129 2.9178 -0.8943 0.239 -0.957 -0.167 134 87 103 0 0
-0.3075 2.9189 -0.8945 0.433 -0.899 0.062 133 85 101 0 0
-0.3025 2.9214 -0.8950 0.475 -0.876 0.087 136 85 101 0 0
-0.2975 2.9240 -0.8957 0.475 -0.876 0.087 133 84 98 0 0
-0.2925 2.9265 -0.8962 0.462 -0.876 0.136 118 74 86 0 0
-0.2873 2.9285 -0.8967 0.322 -0.944 0.069 107 69 80 0 0
-0.2821 2.9303 -0.8970 0.322 -0.944 0.069 108 70 82 0 0
-0.2770 2.9325 -0.8975 0.451 -0.892 0.035 120 79 92 0 0
-0.2718 2.9345 -0.8980 0.465 -0.881 0.088 132 91 105 0 0
-0.2667 2.9371 -0.8986 0.465 -0.881 0.088 116 77 92 0 0
-0.2620 2.9409 -0.8995 0.465 -0.881 -0.083 118 76 91 0 0
-0.2523 2.9478 -0.9012 0.289 -0.931 0.224 114 76 89 0 0
-0.2470 2.9493 -0.9015 0.289 -0.931 0.224 118 79 92 0 0
-0.2417 2.9509 -0.9018 0.289 -0.931 0.224 120 80 91 0 0
-0.2364 2.9525 -0.9021 0.289 -0.931 0.224 117 72 83 0 0
-0.2311 2.9541 -0.9024 0.289 -0.931 0.224 121 77 90 0 0
-0.2257 2.9554 -0.9027 0.354 -0.890 0.288 123 80 92 0 0
-0.0382 3.3159 -1.0016 -0.553 -0.682 0.478 77 79 89 0 0
-0.0287 3.2929 -0.9947 0.266 -0.238 0.934 78 79 90 0 0
-0.0232 3.2968 -0.9957 0.331 -0.249 0.910 74 78 89 0 0
0.1048 3.2332 -0.9736 0.207 -0.086 0.975 83 86 95 0 0
0.1104 3.2367 -0.9745 0.207 -0.086 0.975 80 86 93 0 0
0.1160 3.2398 -0.9752 0.362 -0.033 0.932 81 87 95 0 0
0.1264 3.2540 -0.9790 0.368 -0.037 0.929 83 90 97 0 0
0.1322 3.2556 -0.9793 0.368 -0.039 0.929 83 88 98 0 0
0.4048 3.3727 -1.0054 -0.441 -0.630 0.639 74 80 94 0 0
0.4108 3.3636 -1.0026 -0.269 -0.526 0.807 73 80 93 0 0
0.4582 3.3051 -0.9843 0.420 -0.094 0.903 74 81 95 0 0
0.4640 3.2850 -0.9783 0.472 -0.086 0.878 74 81 96 0 0
0.4698 3.2866 -0.9786 0.549 -0.070 0.833 75 81 98 0 0
0.4756 3.2877 -0.9787 0.600 -0.048 0.799 75 81 97 0 0
0.4814 3.3005 -0.9823 0.610 -0.058 0.790 75 81 96 0 0
0.4873 3.3126 -0.9856 0.548 -0.070 0.834 75 81 97 0 0
0.4990 3.3295 -0.9902 0.236 -0.159 0.959 73 79 92 0 0
0.5161 3.3034 -0.9821 0.311 -0.099 0.945 72 78 93 0 0
0.5219 3.3091 -0.9836 0.350 -0.093 0.932 77 81 96 0 0
0.5500 3.2835 -0.9754 0.353 -0.113 0.929 79 85 102 0 0
0.5559 3.2875 -0.9764 0.341 -0.112 0.933 79 84 100 0 0
0.5618 3.2968 -0.9789 0.392 -0.090 0.915 78 85 99 0 0
0.5677 3.3020 -0.9802 0.372 -0.103 0.923 76 84 97 0 0
0.5738 3.3120 -0.9830 0.429 -0.083 0.900 74 81 90 0 0
0.6280 3.3701 -0.9982 0.195 -0.079 0.978 78 80 94 0 0
0.6336 3.3661 -0.9969 0.156 -0.085 0.984 78 80 93 0 0
0.6672 3.3464 -0.9902 0.313 -0.061 0.948 74 77 97 0 0
0.6784 3.3434 -0.9891 0.274 -0.050 0.960 77 75 97 0 0
0.6848 3.3530 -0.9916 0.280 -0.051 0.959 78 78 95 0 0
0.6895 3.3372 -0.9869 0.351 -0.031 0.936 79 78 96 0 0
0.6953 3.3384 -0.9871 0.214 -0.061 0.975 79 77 98 0 0
0.7014 3.3443 -0.9886 0.249 -0.055 0.967 78 79 98 0 0
0.7073 3.3468 -0.9892 0.136 -0.071 0.988 79 81 98 0 0
0.7132 3.3503 -0.9900 0.178 -0.065 0.982 83 83 101 0 0
0.7183 3.3412 -0.9873 0.401 -0.024 0.916 82 82 101 0 0
0.7647 3.3523 -0.9892 0.360 -0.036 0.932 77 80 99 0 0
0.8871 3.3838 -0.9948 0.286 -0.036 0.957 75 78 94 0 0
0.8935 3.3899 -0.9963 0.280 -0.035 0.959 74 76 95 0 0
0.9000 3.3964 -0.9980 0.266 -0.040 0.963 74 76 95 0 0
0.9055 3.3948 -0.9974 0.268 -0.037 0.963 72 76 93 0 0
0.9112 3.3957 -0.9975 0.226 -0.049 0.973 72 77 91 0 0
0.9175 3.4003 -0.9986 0.208 -0.052 0.977 76 77 96 0 0
0.9234 3.4019 -0.9989 0.190 -0.054 0.980 73 78 94 0 0
0.9296 3.4059 -0.9999 0.190 -0.054 0.980 72 77 92 0 0
0.9353 3.4063 -0.9999 0.208 -0.051 0.977 72 76 92 0 0
0.9405 3.4028 -0.9987 0.159 -0.065 0.985 72 77 92 0 0
0.9465 3.4057 -0.9994 0.169 -0.063 0.984 73 79 92 0 0
0.9531 3.4121 -1.0010 0.159 -0.183 0.970 73 78 91 0 0
0.9585 3.4105 -1.0004 0.124 -0.214 0.969 73 78 91 0 0
1.1099 3.4095 -0.9958 -0.095 -0.992 0.084 96 90 91 0 0
1.1154 3.4090 -0.9955 -0.095 -0.992 0.084 84 93 78 0 0
1.2116 3.3680 -0.9809 -0.292 -0.940 -0.178 152 169 239 0 0
1.2419 3.3579 -0.9771 -0.147 -0.971 0.189 17 21 33 0 0
1.2472 3.3575 -0.9768 -0.051 -0.998 0.038 16 21 33 0 0
1.2525 3.3573 -0.9766 -0.051 -0.998 0.038 15 21 33 0 0
1.2861 3.3400 -0.9706 -0.196 -0.980 0.040 153 173 242 0 0
1.2912 3.3390 -0.9702 -0.196 -0.980 0.040 153 172 245 0 0
1.2963 3.3380 -0.9698 -0.196 -0.980 0.040 154 172 244 0 0
1.3012 3.3363 -0.9691 -0.319 -0.948 -0.007 154 172 245 0 0
1.3061 3.3346 -0.9685 -0.319 -0.948 -0.007 154 172 245 0 0
1.3158 3.3308 -0.9671 0.104 -0.984 0.143 113 109 167 0 0
1.3212 3.3315 -0.9672 0.104 -0.974 0.204 94 80 108 0 0
1.3311 3.3284 -0.9660 -0.215 -0.954 0.207 92 84 93 0 0
1.3689 3.3119 -0.9601 0.074 -0.995 -0.062 114 104 121 0 0
1.4757 3.4303 -0.9913 -0.168 -0.595 0.786 52 52 52 0 0
1.4802 3.4272 -0.9903 -0.196 -0.613 0.765 61 61 62 0 0
1.6287 3.6121 -1.0395 0.567 -0.123 0.815 50 50 53 0 0
1.6491 3.6235 -1.0423 0.407 -0.099 0.908 58 68 71 0 0
-2.0998 2.9617 -0.9644 -0.001 -0.192 0.981 57 64 83 0 0
-1.9388 2.9868 -0.9670 -0.161 -0.113 0.981 64 71 87 0 0
-1.4472 3.0646 -0.9754 0.057 -0.413 0.909 65 72 85 0 0
-1.4406 3.0648 -0.9753 -0.013 -0.484 0.875 67 74 87 0 0
-0.5876 2.7839 -0.8688 0.037 -0.980 0.196 119 73 85 0 0
-0.5776 2.7873 -0.8695 0.520 -0.853 0.049 121 78 91 0 0
-0.5680 2.7919 -0.8705 0.246 -0.967 -0.064 112 68 82 0 0
-0.5610 2.8040 -0.8738 0.383 -0.856 0.348 125 80 94 0 0
-0.5506 2.8065 -0.8743 0.487 -0.853 0.188 117 72 86 0 0
-0.5458 2.8088 -0.8748 0.440 -0.882 0.166 123 77 92 0 0
-0.5409 2.8111 -0.8753 0.440 -0.882 0.166 135 89 105 0 0
-0.5361 2.8134 -0.8759 0.440 -0.882 0.166 137 89 109 0 0
-0.5312 2.8157 -0.8764 0.440 -0.882 0.166 128 81 99 0 0
-0.5067 2.8267 -0.8789 0.384 -0.921 0.066 132 84 99 0 0
-0.4768 2.8389 -0.8816 0.463 -0.881 -0.097 134 85 103 0 0
-0.4719 2.8409 -0.8820 0.455 -0.886 -0.091 133 86 103 0 0
-0.4670 2.8435 -0.8826 0.455 -0.886 -0.091 133 86 102 0 0
-0.4625 2.8472 -0.8836 0.530 -0.847 -0.031 133 86 106 0 0
-0.4520 2.8494 -0.8839 0.319 -0.940 0.125 136 89 107 0 0
-0.4419 2.8533 -0.8847 0.429 -0.887 0.169 134 88 106 0 0
-0.4369 2.8556 -0.8853 0.391 -0.912 0.123 126 83 99 0 0
-0.4319 2.8577 -0.8857 0.391 -0.912 0.123 135 87 102 0 0
-0.4177 2.8668 -0.8880 0.390 -0.907 0.160 128 80 95 0 0
-0.4079 2.8718 -0.8891 0.429 -0.899 0.084 128 82 97 0 0
-0.4029 2.8740 -0.8896 0.274 -0.956 0.108 129 83 99 0 0
-0.3976 2.8754 -0.8899 0.274 -0.956 0.108 127 79 96 0 0
-0.3926 2.8775 -0.8903 0.399 -0.917 0.013 131 84 100 0 0
-0.3876 2.8796 -0.8908 0.399 -0.917 0.013 129 82 97 0 0
-0.3832 2.8841 -0.8920 0.354 -0.922 0.154 133 86 102 0 0
-0.3781 2.8863 -0.8925 0.482 -0.864 0.143 132 86 101 0 0
-0.3731 2.8884 -0.8930 0.383 -0.909 0.164 125 80 94 0 0
-0.3680 2.8904 -0.8934 0.383 -0.909 0.164 117 73 89 0 0
-0.3482 2.9010 -0.8959 0.486 -0.870 0.090 139 91 108 0 0
-0.3433 2.9036 -0.8965 0.486 -0.870 0.090 141 91 111 0 0
-0.3380 2.9051 -0.8968 0.394 -0.916 0.079 139 91 109 0 0
-0.3330 2.9073 -0.8973 0.394 -0.916 0.079 134 89 106 0 0
-0.3279 2.9094 -0.8978 0.394 -0.916 0.079 130 83 101 0 0
-0.3229 2.9120 -0.8984 0.460 -0.886 0.063 134 86 103 0 0
-0.3179 2.9145 -0.8990 0.460 -0.886 0.063 135 86 102 0 0
-0.3129 2.9172 -0.8996 0.434 -0.899 0.063 134 84 99 0 0
-0.3076 2.9185 -0.8998 0.433 -0.899 0.062 133 82 98 0 0
-0.2974 2.9231 -0.9009 0.462 -0.876 0.136 132 82 95 0 0
-0.2924 2.9257 -0.9015 0.462 -0.876 0.136 121 76 89 0 0
-0.2873 2.9281 -0.9020 0.322 -0.944 0.069 110 69 83 0 0
-0.2821 2.9299 -0.9024 0.322 -0.944 0.069 111 70 83 0 0
-0.2770 2.9322 -0.9029 0.451 -0.892 0.035 126 83 98 0 0
-0.2673 2.9389 -0.9046 0.369 -0.926 0.083 120 79 93 0 0
-0.2621 2.9409 -0.9050 0.369 -0.926 0.083 116 76 92 0 0
-0.2522 2.9466 -0.9064 0.339 -0.939 0.049 123 83 100 0 0
-0.2469 2.9485 -0.9068 0.339 -0.939 0.049 127 87 101 0 0
-0.2417 2.9504 -0.9072 0.339 -0.939 0.049 124 82 94 0 0
-0.2365 2.9526 -0.9077 0.282 -0.959 0.027 118 76 87 0 0
-0.2312 2.9542 -0.9080 0.282 -0.959 0.027 124 81 92 0 0
-0.2260 2.9561 -0.9084 0.347 -0.936 0.054 127 85 97 0 0
-0.0347 3.2493 -0.9882 0.192 -0.152 0.970 80 81 93 0 0
-0.0118 3.2152 -0.9776 -0.040 -0.169 0.985 77 79 94 0 0
0.0186 3.2108 -0.9755 0.433 -0.097 0.896 79 81 94 0 0
0.0217 3.2320 -0.9815 -0.022 -0.122 0.992 78 81 95 0 0
0.0276 3.2328 -0.9816 -0.049 -0.126 0.991 78 81 95 0 0
0.0338 3.2309 -0.9809 -0.047 -0.132 0.990 78 79 93 0 0
0.0538 3.1653 -0.9612 0.318 -0.069 0.946 79 78 95 0 0
0.1127 3.2135 -0.9735 0.179 -0.081 0.981 81 88 97 0 0
0.1179 3.2198 -0.9752 0.358 -0.044 0.933 79 86 94 0 0
0.1231 3.2261 -0.9769 0.358 -0.044 0.933 81 84 95 0 0
0.1284 3.2324 -0.9786 0.353 -0.047 0.935 79 84 96 0 0
0.4811 3.2852 -0.9837 0.567 -0.070 0.821 77 82 100 0 0
0.4870 3.2964 -0.9868 0.567 -0.070 0.821 78 83 100 0 0
0.4928 3.3046 -0.9890 0.415 -0.166 0.894 76 82 98 0 0
0.4986 3.3091 -0.9901 0.465 -0.140 0.874 76 81 98 0 0
0.5494 3.2663 -0.9762 0.379 -0.100 0.920 77 85 102 0 0
0.5553 3.2726 -0.9779 0.358 -0.107 0.928 79 84 98 0 0
0.5612 3.2790 -0.9796 0.396 -0.091 0.914 78 81 94 0 0
0.5671 3.2857 -0.9813 0.360 -0.088 0.929 70 76 86 0 0
0.5731 3.2958 -0.9841 0.429 -0.083 0.900 68 77 82 0 0
0.6029 3.3283 -0.9927 0.384 -0.074 0.920 73 81 90 0 0
0.6087 3.3297 -0.9929 0.448 -0.047 0.893 74 81 90 0 0
0.6149 3.3397 -0.9957 0.461 -0.045 0.886 74 81 88 0 0
0.6211 3.3492 -0.9983 0.427 -0.056 0.903 75 80 88 0 0
0.6764 3.3133 -0.9862 0.391 -0.024 0.920 78 79 99 0 0
0.6881 3.3181 -0.9873 0.370 -0.027 0.929 79 80 95 0 0
0.6932 3.3106 -0.9849 0.302 -0.038 0.953 80 78 96 0 0
0.6992 3.3151 -0.9861 0.276 -0.043 0.960 81 79 98 0 0
0.7025 3.2821 -0.9764 0.324 -0.031 0.945 82 81 98 0 0
0.7086 3.2885 -0.9781 0.306 -0.033 0.952 83 83 100 0 0
0.7343 3.3307 -0.9896 0.430 -0.010 0.903 75 79 98 0 0
0.7409 3.3417 -0.9926 0.430 -0.010 0.903 77 80 98 0 0
0.7454 3.3272 -0.9883 0.362 -0.023 0.932 78 78 97 0 0
0.7502 3.3177 -0.9853 0.322 -0.047 0.946 78 79 97 0 0
0.7563 3.3226 -0.9866 0.338 -0.041 0.940 76 80 98 0 0
0.7625 3.3293 -0.9884 0.320 -0.044 0.946 78 81 100 0 0
0.7689 3.3376 -0.9906 0.302 -0.053 0.952 77 81 100 0 0
0.8837 3.3574 -0.9930 0.283 -0.031 0.958 75 76 92 0 0
0.8900 3.3628 -0.9944 0.282 -0.033 0.959 74 77 91 0 0
0.8961 3.3665 -0.9953 0.250 -0.040 0.967 74 77 88 0 0
0.9024 3.3720 -0.9968 0.268 -0.037 0.963 72 75 84 0 0
0.9078 3.3699 -0.9960 0.295 -0.034 0.955 72 74 81 0 0
0.9143 3.3771 -0.9979 0.206 -0.050 0.977 75 75 86 0 0
0.9202 3.3789 -0.9982 0.209 -0.050 0.977 75 77 90 0 0
0.9258 3.3789 -0.9981 0.214 -0.050 0.975 75 78 93 0 0
0.9319 3.3822 -0.9989 0.200 -0.054 0.978 73 76 91 0 0
0.9378 3.3843 -0.9993 0.177 -0.060 0.982 74 77 92 0 0
0.9441 3.3894 -1.0006 0.208 -0.052 0.977 78 79 96 0 0
0.9482 3.3778 -0.9971 0.222 -0.046 0.974 77 81 96 0 0
0.9571 3.4013 -1.0037 0.140 -0.225 0.964 75 80 95 0 0
0.9640 3.4106 -1.0062 0.085 -0.273 0.958 73 78 92 0 0
1.0927 3.4078 -1.0016 -0.007 -0.625 0.780 77 66 78 0 0
1.1097 3.4090 -1.0015 -0.095 -0.992 0.084 82 84 79 0 0
1.1151 3.4085 -1.0012 -0.095 -0.992 0.084 67 85 64 0 0
1.1419 3.4037 -0.9990 -0.207 -0.978 0.029 91 81 89 0 0
1.1474 3.4033 -0.9988 -0.329 -0.941 -0.084 95 83 93 0 0
1.1527 3.4019 -0.9982 -0.317 -0.943 -0.099 96 83 95 0 0
1.2408 3.3539 -0.9817 0.040 -0.921 0.386 16 23 38 0 0
1.2471 3.3577 -0.9826 0.160 -0.987 0.020 16 24 36 0 0
1.2523 3.3571 -0.9822 -0.051 -0.998 0.038 14 22 35 0 0
1.2575 3.3563 -0.9819 -0.216 -0.944 0.250 15 22 36 0 0
1.2960 3.3378 -0.9754 -0.196 -0.980 0.040 152 172 243 0 0
1.3010 3.3364 -0.9748 -0.319 -0.948 -0.007 153 173 244 0 0
1.3059 3.3347 -0.9742 -0.319 -0.948 -0.007 153 172 244 0 0
1.3155 3.3304 -0.9727 -0.215 -0.954 0.207 116 110 174 0 0
1.3205 3.3294 -0.9722 -0.215 -0.954 0.207 64 44 85 0 0
1.3256 3.3284 -0.9718 -0.215 -0.954 0.207 56 48 63 0 0
1.3306 3.3273 -0.9713 -0.215 -0.954 0.207 80 75 85 0 0
1.3689 3.3123 -0.9658 0.074 -0.995 -0.062 110 96 114 0 0
1.4750 3.4282 -0.9965 -0.071 -0.806 0.587 38 38 36 0 0
1.4796 3.4258 -0.9957 -0.223 -0.610 0.760 46 47 45 0 0
1.6193 3.5826 -1.0373 0.606 -0.130 0.785 53 61 62 0 0
1.6610 3.5919 -1.0388 0.393 -0.161 0.905 63 73 84 0 0
-2.0946 2.9302 -0.9611 -0.222 -0.142 0.965 56 62 84 0 0
-2.0660 2.9375 -0.9624 -0.129 -0.148 0.980 57 63 83 0 0
-2.0645 2.9441 -0.9643 -0.199 -0.165 0.966 58 65 84 0 0
-2.0537 2.9395 -0.9627 -0.226 -0.170 0.959 58 65 84 0 0
-2.0464 2.9390 -0.9623 -0.182 -0.152 0.971 59 66 85 0 0
-2.0390 2.9384 -0.9619 -0.155 -0.155 0.976 59 65 84 0 0
-1.9125 2.9526 -0.9624 -0.199 -0.119 0.973 63 71 85 0 0
-1.9095 2.9576 -0.9637 -0.172 -0.114 0.978 64 70 86 0 0
-1.6984 2.9949 -0.9685 -0.111 -0.106 0.988 76 84 97 0 0
-1.4310 3.0597 -0.9796 -0.108 -0.514 0.851 72 78 92 0 0
-0.5823 2.7842 -0.8740 0.520 -0.853 0.049 119 75 88 0 0
-0.5613 2.8043 -0.8793 0.137 -0.990 0.016 128 81 96 0 0
-0.5561 2.8057 -0.8796 0.274 -0.959 0.071 115 69 83 0 0
-0.5506 2.8060 -0.8795 0.421 -0.907 -0.001 121 76 87 0 0
-0.5457 2.8083 -0.8800 0.421 -0.907 -0.001 128 83 95 0 0
-0.5409 2.8105 -0.8805 0.421 -0.907 -0.001 135 88 103 0 0
-0.5360 2.8128 -0.8810 0.421 -0.907 -0.001 134 86 103 0 0
-0.5314 2.8157 -0.8818 0.278 -0.960 0.030 131 82 97 0 0
-0.5216 2.8202 -0.8828 0.384 -0.921 0.066 131 83 98 0 0
-0.5166 2.8222 -0.8832 0.384 -0.921 0.066 120 75 91 0 0
-0.5117 2.8242 -0.8837 0.384 -0.921 0.066 128 82 96 0 0
-0.5067 2.8263 -0.8841 0.384 -0.921 0.066 131 84 99 0 0
-0.4819 2.8366 -0.8864 0.500 -0.863 -0.076 133 83 100 0 0
-0.4771 2.8393 -0.8871 0.463 -0.881 -0.097 135 84 101 0 0
-0.4721 2.8414 -0.8875 0.455 -0.886 -0.091 137 89 105 0 0
-0.4673 2.8439 -0.8881 0.455 -0.886 -0.091 130 85 101 0 0
-0.4627 2.8473 -0.8890 0.530 -0.847 -0.031 134 88 106 0 0
-0.4569 2.8468 -0.8887 0.426 -0.903 0.056 137 90 108 0 0
-0.4466 2.8498 -0.8893 0.406 -0.911 0.074 137 90 108 0 0
-0.4417 2.8524 -0.8899 0.429 -0.887 0.169 134 88 107 0 0
-0.4368 2.8547 -0.8904 0.429 -0.887 0.169 126 83 99 0 0
-0.4318 2.8569 -0.8909 0.429 -0.887 0.169 133 87 101 0 0
-0.4270 2.8597 -0.8916 0.474 -0.873 0.110 131 82 99 0 0
-0.4221 2.8622 -0.8922 0.514 -0.830 0.216 131 83 100 0 0
-0.4177 2.8662 -0.8932 0.476 -0.839 0.263 129 82 97 0 0
-0.4129 2.8691 -0.8939 0.477 -0.877 0.062 133 86 101 0 0
-0.4079 2.8713 -0.8944 0.429 -0.899 0.084 133 85 101 0 0
-0.4035 2.8757 -0.8956 0.354 -0.922 0.154 130 83 99 0 0
-0.3984 2.8776 -0.8960 0.354 -0.922 0.154 124 77 93 0 0
-0.3933 2.8795 -0.8964 0.354 -0.922 0.154 128 81 97 0 0
-0.3882 2.8814 -0.8968 0.354 -0.922 0.154 131 82 98 0 0
-0.3780 2.8855 -0.8977 0.482 -0.864 0.143 133 87 104 0 0
-0.3730 2.8875 -0.8981 0.383 -0.909 0.164 126 83 99 0 0
-0.3631 2.8927 -0.8994 0.296 -0.954 0.041 122 78 90 0 0
-0.3579 2.8943 -0.8997 0.296 -0.954 0.041 132 84 98 0 0
-0.3526 2.8957 -0.8999 0.383 -0.909 0.164 138 88 105 0 0
-0.3479 2.8990 -0.9008 0.336 -0.939 0.073 138 88 107 0 0
-0.3438 2.9050 -0.9024 0.388 -0.916 0.103 140 91 108 0 0
-0.3387 2.9071 -0.9029 0.388 -0.916 0.103 139 91 109 0 0
-0.3325 2.9051 -0.9021 0.555 -0.832 0.011 136 91 106 0 0
-0.3279 2.9090 -0.9031 0.394 -0.916 0.079 124 79 94 0 0
-0.3229 2.9116 -0.9037 0.460 -0.886 0.063 127 82 94 0 0
-0.3179 2.9141 -0.9043 0.460 -0.886 0.063 130 82 92 0 0
-0.3129 2.9168 -0.9049 0.434 -0.899 0.063 129 80 93 0 0
-0.3076 2.9181 -0.9052 0.433 -0.899 0.062 131 80 96 0 0
-0.2974 2.9226 -0.9062 0.431 -0.898 0.091 129 80 91 0 0
-0.2924 2.9250 -0.9067 0.431 -0.898 0.091 121 75 88 0 0
-0.2874 2.9279 -0.9075 0.289 -0.948 0.131 112 69 83 0 0
-0.2822 2.9295 -0.9078 0.289 -0.948 0.131 117 75 89 0 0
-0.2771 2.9320 -0.9083 0.451 -0.892 0.035 127 84 99 0 0
-0.2674 2.9384 -0.9099 0.369 -0.926 0.083 120 80 94 0 0
-0.2622 2.9404 -0.9104 0.369 -0.926 0.083 119 80 96 0 0
-0.2571 2.9427 -0.9109 0.517 -0.856 0.000 130 88 104 0 0
-0.2522 2.9463 -0.9118 0.339 -0.939 0.049 133 90 106 0 0
-0.2470 2.9482 -0.9122 0.339 -0.939 0.049 131 87 101 0 0
-0.2418 2.9501 -0.9126 0.339 -0.939 0.049 127 81 93 0 0
-0.2313 2.9538 -0.9134 0.347 -0.936 0.054 129 87 100 0 0
-0.2261 2.9558 -0.9138 0.347 -0.936 0.054 130 85 98 0 0
-0.0872 3.1999 -0.9812 -0.054 -0.247 0.967 78 78 91 0 0
-0.0364 3.2194 -0.9855 0.250 -0.084 0.965 82 85 97 0 0
-0.0100 3.2019 -0.9796 -0.111 -0.195 0.975 81 84 99 0 0
0.0160 3.1846 -0.9737 0.222 -0.113 0.968 79 81 95 0 0
0.0215 3.1877 -0.9745 0.193 -0.122 0.973 78 80 95 0 0
0.0281 3.1819 -0.9726 0.106 -0.149 0.983 78 80 97 0 0
0.0375 3.1548 -0.9644 0.183 -0.100 0.978 78 80 98 0 0
0.0429 3.1584 -0.9653 0.206 -0.090 0.974 78 79 97 0 0
0.0499 3.1487 -0.9622 0.288 -0.071 0.955 79 78 98 0 0
0.0554 3.1511 -0.9628 0.318 -0.069 0.946 81 80 99 0 0
0.0600 3.1608 -0.9655 0.270 -0.086 0.959 81 81 100 0 0
0.0808 3.1824 -0.9712 0.301 -0.080 0.950 82 85 98 0 0
0.0973 3.1914 -0.9733 0.116 -0.107 0.988 84 91 100 0 0
0.1028 3.1944 -0.9741 0.059 -0.121 0.991 83 93 100 0 0
0.1143 3.1967 -0.9744 0.084 -0.114 0.990 81 85 96 0 0
0.1877 3.2230 -0.9799 0.236 -0.068 0.969 81 84 97 0 0
0.4924 3.2793 -0.9875 0.446 -0.114 0.888 76 83 97 0 0
0.4983 3.2951 -0.9919 0.475 -0.138 0.869 76 81 99 0 0
0.5489 3.2515 -0.9777 0.351 -0.109 0.930 79 87 99 0 0
0.5547 3.2573 -0.9792 0.351 -0.109 0.930 79 89 93 0 0
0.5605 3.2635 -0.9808 0.396 -0.091 0.914 68 76 81 0 0
0.5957 3.2944 -0.9889 0.235 -0.073 0.969 74 81 100 0 0
0.6016 3.3013 -0.9907 0.257 -0.075 0.964 78 82 101 0 0
0.6075 3.3047 -0.9915 0.312 -0.069 0.947 78 81 100 0 0
0.6181 3.2876 -0.9862 0.287 -0.055 0.956 74 81 95 0 0
0.6750 3.2932 -0.9862 0.379 -0.026 0.925 80 79 100 0 0
0.6798 3.2802 -0.9823 0.251 -0.050 0.967 79 79 99 0 0
0.6954 3.2629 -0.9767 0.262 -0.046 0.964 76 77 98 0 0
0.7132 3.2765 -0.9802 0.313 -0.034 0.949 77 79 99 0 0
0.7192 3.2820 -0.9816 0.304 -0.037 0.952 75 78 99 0 0
0.7246 3.2806 -0.9811 0.093 -0.075 0.993 75 80 101 0 0
0.7466 3.2760 -0.9791 0.137 -0.100 0.986 78 79 99 0 0
0.7529 3.2848 -0.9814 0.250 -0.078 0.965 77 80 99 0 0
0.7588 3.2888 -0.9825 0.244 -0.079 0.967 78 82 100 0 0
0.7714 3.3044 -0.9866 0.293 -0.033 0.956 78 77 96 0 0
0.7838 3.3174 -0.9901 0.223 -0.044 0.974 81 80 95 0 0
0.8303 3.3339 -0.9935 0.330 -0.030 0.943 75 81 93 0 0
0.8368 3.3415 -0.9956 0.347 -0.032 0.937 76 81 93 0 0
0.8428 3.3447 -0.9964 0.373 -0.023 0.927 73 79 91 0 0
0.8493 3.3533 -0.9987 0.360 -0.026 0.932 72 78 91 0 0
0.8556 3.3589 -1.0001 0.326 -0.034 0.945 75 78 95 0 0
0.8598 3.3461 -0.9963 0.248 -0.043 0.968 74 78 95 0 0
0.8660 3.3516 -0.9977 0.285 -0.039 0.958 73 79 94 0 0
0.9170 3.3561 -0.9975 0.208 -0.054 0.977 69 72 85 0 0
0.9222 3.3529 -0.9964 0.239 -0.053 0.970 76 79 96 0 0
0.9284 3.3573 -0.9975 0.154 -0.059 0.986 76 80 98 0 0
0.9345 3.3610 -0.9985 0.176 -0.060 0.983 75 79 98 0 0
0.9406 3.3649 -0.9994 0.184 -0.059 0.981 76 79 99 0 0
0.9578 3.3679 -0.9998 0.303 -0.069 0.950 76 78 96 0 0
0.9931 3.4174 -1.0132 -0.281 -0.485 0.828 76 79 94 0 0
1.0033 3.3737 -1.0001 0.352 -0.016 0.936 72 77 92 0 0
1.0075 3.3651 -0.9975 0.227 -0.044 0.973 74 76 92 0 0
1.0555 3.3870 -1.0025 0.242 -0.121 0.963 67 71 69 0 0
1.0688 3.3993 -1.0057 0.290 -0.141 0.947 61 68 69 0 0
1.0736 3.3949 -1.0043 -0.316 -0.349 0.882 67 74 79 0 0
1.0787 3.3922 -1.0033 -0.344 -0.374 0.861 77 83 92 0 0
1.0834 3.3877 -1.0019 -0.340 -0.368 0.865 76 79 91 0 0
1.1474 3.4039 -1.0048 -0.329 -0.941 -0.084 85 74 87 0 0
1.1522 3.4002 -1.0035 -0.064 -0.971 -0.231 87 73 88 0 0
1.2452 3.3504 -0.9862 0.379 -0.875 0.301 15 24 47 0 0
1.2521 3.3569 -0.9879 -0.051 -0.998 0.038 16 24 46 0 0
1.3008 3.3364 -0.9805 -0.321 -0.947 -0.006 151 171 241 0 0
1.3058 3.3348 -0.9799 -0.319 -0.948 -0.007 149 168 237 0 0
1.3153 3.3302 -0.9782 -0.266 -0.961 0.082 98 88 155 0 0
1.3302 3.3265 -0.9767 -0.174 -0.965 0.197 37 37 44 0 0
1.3688 3.3126 -0.9715 0.074 -0.995 -0.062 105 95 109 0 0
1.4541 3.4311 -1.0037 -0.379 -0.684 0.623 59 48 58 0 0
1.4589 3.4290 -1.0030 -0.386 -0.742 0.547 43 37 43 0 0
1.4639 3.4277 -1.0024 -0.326 -0.797 0.509 36 30 33 0 0
1.4688 3.4261 -1.0018 -0.326 -0.797 0.509 26 23 26 0 0
1.5553 3.5000 -1.0209 0.490 -0.217 0.844 40 46 57 0 0
1.6006 3.5408 -1.0315 0.402 -0.219 0.889 55 65 67 0 0
1.6089 3.5498 -1.0339 0.534 -0.182 0.826 61 68 71 0 0
1.6144 3.5499 -1.0338 0.398 -0.112 0.911 53 62 63 0 0
-2.0826 2.8912 -0.9554 -0.426 -0.416 0.804 56 64 83 0 0
-2.0705 2.8850 -0.9532 -0.400 -0.339 0.852 57 64 83 0 0
-2.0557 2.8755 -0.9499 -0.411 -0.364 0.836 57 64 83 0 0
-2.0406 2.8656 -0.9466 -0.465 -0.326 0.823 57 63 84 0 0
-2.0741 2.9138 -0.9618 -0.583 -0.370 0.723 59 65 85 0 0
-2.0391 2.8801 -0.9508 -0.583 -0.370 0.723 58 64 84 0 0
-2.0577 2.9274 -0.9653 -0.128 -0.149 0.980 57 64 83 0 0
-2.0485 2.9247 -0.9642 -0.239 -0.164 0.957 58 65 84 0 0
-2.0445 2.9281 -0.9651 -0.290 -0.182 0.939 57 66 83 0 0
-2.0315 2.9207 -0.9626 -0.290 -0.182 0.939 58 66 84 0 0
-2.0210 2.9163 -0.9609 -0.257 -0.184 0.949 60 67 86 0 0
-2.0040 2.9207 -0.9617 -0.201 -0.135 0.970 63 74 85 0 0
-1.8833 2.9235 -0.9590 -0.174 -0.115 0.978 65 71 89 0 0
-1.6923 2.9762 -0.9688 -0.096 -0.100 0.990 74 82 97 0 0
-1.6864 2.9773 -0.9690 -0.111 -0.106 0.988 73 80 98 0 0
-1.4667 3.0194 -0.9749 -0.161 -0.103 0.982 78 83 108 0 0
-1.3719 3.0379 -0.9775 -0.381 -0.592 0.710 72 77 93 0 0
-1.3575 3.0246 -0.9731 -0.066 -0.343 0.937 70 76 91 0 0
-1.3507 3.0241 -0.9728 -0.066 -0.343 0.937 69 73 90 0 0
-1.2998 3.0151 -0.9686 0.071 -0.445 0.893 73 73 87 0 0
-1.2755 3.0063 -0.9653 0.450 -0.659 0.603 74 76 93 0 0
-0.5827 2.7851 -0.8796 0.517 -0.839 0.170 122 78 90 0 0
-0.5777 2.7867 -0.8800 0.520 -0.853 0.049 118 77 90 0 0
-0.5614 2.8042 -0.8846 0.310 -0.949 0.058 128 81 97 0 0
-0.5563 2.8057 -0.8849 0.340 -0.938 0.070 113 68 83 0 0
-0.5508 2.8062 -0.8849 0.430 -0.900 0.067 121 75 91 0 0
-0.5459 2.8084 -0.8854 0.430 -0.900 0.067 133 85 102 0 0
-0.5411 2.8107 -0.8859 0.424 -0.903 0.071 133 86 103 0 0
-0.5361 2.8127 -0.8864 0.421 -0.907 -0.001 130 83 101 0 0
-0.5314 2.8155 -0.8871 0.278 -0.960 0.030 124 78 93 0 0
-0.5264 2.8173 -0.8874 0.421 -0.907 -0.001 119 73 87 0 0
-0.5206 2.8168 -0.8871 0.547 -0.834 0.071 122 76 88 0 0
-0.5160 2.8198 -0.8879 0.547 -0.834 0.071 123 76 89 0 0
-0.5112 2.8225 -0.8885 0.272 -0.953 0.137 131 81 97 0 0
-0.5061 2.8239 -0.8888 0.272 -0.953 0.137 134 84 100 0 0
-0.4870 2.8346 -0.8914 0.463 -0.881 -0.097 133 85 99 0 0
-0.4822 2.8372 -0.8920 0.463 -0.881 -0.097 128 82 96 0 0
-0.4774 2.8398 -0.8926 0.463 -0.881 -0.097 130 82 97 0 0
-0.4724 2.8418 -0.8931 0.455 -0.886 -0.091 134 88 103 0 0
-0.4676 2.8443 -0.8937 0.455 -0.886 -0.091 130 88 103 0 0
-0.4621 2.8449 -0.8937 0.481 -0.872 -0.090 135 90 107 0 0
-0.4466 2.8494 -0.8945 0.406 -0.911 0.074 137 89 108 0 0
-0.4416 2.8516 -0.8950 0.406 -0.911 0.074 134 89 108 0 0
-0.4366 2.8537 -0.8955 0.501 -0.864 0.050 124 80 99 0 0
-0.4319 2.8567 -0.8963 0.498 -0.864 0.067 130 85 102 0 0
-0.4271 2.8594 -0.8969 0.512 -0.856 0.067 130 86 104 0 0
-0.4220 2.8613 -0.8973 0.459 -0.882 0.108 129 85 101 0 0
-0.4171 2.8638 -0.8979 0.514 -0.830 0.216 129 82 98 0 0
-0.4124 2.8670 -0.8987 0.433 -0.901 0.020 135 87 103 0 0
-0.4073 2.8688 -0.8991 0.446 -0.893 -0.051 136 89 106 0 0
-0.4024 2.8713 -0.8997 0.446 -0.893 -0.051 132 85 101 0 0
-0.3881 2.8805 -0.9020 0.354 -0.922 0.154 134 87 103 0 0
-0.3780 2.8847 -0.9029 0.482 -0.864 0.143 137 89 107 0 0
-0.3729 2.8866 -0.9033 0.383 -0.909 0.164 131 86 103 0 0
-0.3632 2.8925 -0.9047 0.296 -0.954 0.041 123 78 92 0 0
-0.3580 2.8941 -0.9051 0.296 -0.954 0.041 133 84 100 0 0
-0.3527 2.8957 -0.9054 0.296 -0.954 0.041 137 87 104 0 0
-0.3479 2.8986 -0.9061 0.336 -0.939 0.073 135 85 102 0 0
-0.3387 2.9066 -0.9082 0.388 -0.916 0.103 139 87 104 0 0
-0.3278 2.9082 -0.9083 0.486 -0.873 0.035 125 80 91 0 0
-0.3230 2.9112 -0.9091 0.460 -0.886 0.063 119 77 88 0 0
-0.3180 2.9137 -0.9097 0.460 -0.886 0.063 113 70 82 0 0
-0.3130 2.9164 -0.9103 0.434 -0.899 0.063 122 77 88 0 0
-0.3077 2.9177 -0.9105 0.433 -0.899 0.062 127 80 91 0 0
-0.2974 2.9220 -0.9115 0.431 -0.898 0.091 127 77 93 0 0
-0.2924 2.9244 -0.9121 0.431 -0.898 0.091 117 74 88 0 0
-0.2873 2.9268 -0.9126 0.431 -0.898 0.091 112 71 84 0 0
-0.2822 2.9292 -0.9132 0.431 -0.898 0.091 122 79 93 0 0
-0.2771 2.9312 -0.9136 0.466 -0.885 0.018 127 82 97 0 0
-0.2726 2.9359 -0.9149 0.369 -0.926 0.083 129 84 98 0 0
-0.2674 2.9379 -0.9153 0.369 -0.926 0.083 125 84 97 0 0
-0.2622 2.9400 -0.9157 0.369 -0.926 0.083 128 87 102 0 0
-0.2523 2.9460 -0.9172 0.339 -0.939 0.049 125 80 94 0 0
-0.2471 2.9479 -0.9176 0.339 -0.939 0.049 121 76 91 0 0
-0.2418 2.9498 -0.9180 0.339 -0.939 0.049 126 81 97 0 0
-0.2369 2.9528 -0.9188 0.417 -0.897 0.149 127 82 96 0 0
-0.2312 2.9529 -0.9186 0.381 -0.919 -0.096 131 85 97 0 0
-0.2261 2.9554 -0.9192 0.347 -0.936 0.054 129 84 96 0 0
-0.1302 3.1714 -0.9800 0.701 -0.362 0.615 80 82 92 0 0
-0.1261 3.1819 -0.9830 0.828 -0.342 0.444 78 82 91 0 0
0.0224 3.1361 -0.9651 0.288 -0.150 0.946 79 82 97 0 0
0.0316 3.1107 -0.9573 0.257 -0.154 0.954 78 83 96 0 0
0.0331 3.1432 -0.9668 0.267 -0.096 0.959 79 84 98 0 0
0.0411 3.1256 -0.9614 0.272 -0.092 0.958 80 81 97 0 0
0.0464 3.1298 -0.9625 0.291 -0.090 0.953 79 81 95 0 0
0.0615 3.1473 -0.9672 0.230 -0.098 0.968 82 85 101 0 0
0.0678 3.1438 -0.9660 0.363 -0.063 0.930 81 85 101 0 0
0.0728 3.1497 -0.9676 0.483 -0.065 0.873 82 86 103 0 0
0.0986 3.1781 -0.9752 -0.042 -0.146 0.988 83 89 96 0 0
0.1043 3.1792 -0.9753 -0.040 -0.143 0.989 86 92 97 0 0
0.1667 3.1949 -0.9781 0.158 -0.088 0.984 81 83 97 0 0
0.2140 3.1822 -0.9730 0.186 -0.059 0.981 79 86 97 0 0
0.4921 3.2651 -0.9891 0.446 -0.114 0.888 80 87 101 0 0
0.5484 3.2370 -0.9792 0.351 -0.109 0.930 72 84 83 0 0
0.5541 3.2427 -0.9807 0.351 -0.109 0.930 73 90 81 0 0
0.5890 3.2733 -0.9887 0.180 -0.098 0.979 80 87 101 0 0
0.5948 3.2764 -0.9894 0.210 -0.092 0.973 80 87 104 0 0
0.6006 3.2800 -0.9903 0.210 -0.092 0.973 80 85 104 0 0
0.6058 3.2679 -0.9866 0.127 -0.114 0.985 76 82 102 0 0
0.6111 3.2598 -0.9841 0.236 -0.067 0.970 76 82 101 0 0
0.6169 3.2641 -0.9851 0.239 -0.069 0.969 77 83 102 0 0
0.6723 3.2528 -0.9802 0.251 -0.049 0.967 77 79 95 0 0
0.6891 3.2542 -0.9801 0.346 -0.026 0.938 80 80 98 0 0
0.6938 3.2422 -0.9764 0.251 -0.049 0.967 79 81 98 0 0
0.6997 3.2462 -0.9774 0.277 -0.044 0.960 78 80 97 0 0
0.7056 3.2519 -0.9789 0.283 -0.044 0.958 76 79 98 0 0
0.7116 3.2576 -0.9804 0.283 -0.044 0.958 76 81 103 0 0
0.7176 3.2634 -0.9819 0.283 -0.044 0.958 78 83 107 0 0
0.7232 3.2641 -0.9820 0.080 -0.073 0.994 78 82 103 0 0
0.7345 3.2662 -0.9823 0.114 -0.069 0.991 80 81 101 0 0
0.7402 3.2680 -0.9826 0.121 -0.068 0.990 85 84 102 0 0
0.7458 3.2685 -0.9826 0.177 -0.087 0.980 86 86 101 0 0
0.7517 3.2723 -0.9836 0.191 -0.085 0.978 81 81 96 0 0
0.7578 3.2789 -0.9853 0.235 -0.076 0.969 75 78 93 0 0
0.7642 3.2887 -0.9880 0.335 -0.062 0.940 74 77 93 0 0
0.7700 3.2904 -0.9883 0.270 -0.073 0.960 76 77 95 0 0
0.7763 3.2992 -0.9907 0.237 -0.057 0.970 78 81 96 0 0
0.8174 3.3185 -0.9952 0.039 -0.098 0.994 74 80 93 0 0
0.8229 3.3176 -0.9948 0.039 -0.097 0.994 71 78 91 0 0
0.8278 3.3115 -0.9928 0.059 -0.089 0.994 73 77 93 0 0
0.8326 3.3045 -0.9907 0.274 -0.035 0.961 72 75 89 0 0
0.8388 3.3105 -0.9922 0.274 -0.035 0.961 74 79 91 0 0
0.8444 3.3106 -0.9921 0.195 -0.065 0.979 74 79 92 0 0
0.8504 3.3145 -0.9930 0.195 -0.065 0.979 73 75 88 0 0
0.8558 3.3131 -0.9925 0.194 -0.062 0.979 74 74 86 0 0
0.8617 3.3159 -0.9931 0.217 -0.060 0.974 74 76 88 0 0
0.9022 3.3288 -0.9957 0.287 -0.035 0.957 66 73 72 0 0
0.9079 3.3300 -0.9959 0.233 -0.052 0.971 67 72 75 0 0
0.9137 3.3319 -0.9963 0.226 -0.048 0.973 70 72 82 0 0
0.9196 3.3342 -0.9968 0.239 -0.053 0.970 72 74 85 0 0
0.9259 3.3397 -0.9983 0.155 -0.059 0.986 74 77 89 0 0
0.9318 3.3427 -0.9989 0.199 -0.055 0.979 75 79 93 0 0
0.9379 3.3468 -1.0000 0.196 -0.057 0.979 77 80 96 0 0
0.9425 3.3393 -0.9976 0.222 -0.046 0.974 76 81 98 0 0
0.9488 3.3450 -0.9991 0.243 -0.042 0.969 76 79 98 0 0
0.9515 3.3249 -0.9931 0.198 -0.052 0.979 78 80 99 0 0
0.9577 3.3296 -0.9943 0.223 -0.047 0.974 77 80 94 0 0
0.9638 3.3335 -0.9953 0.247 -0.038 0.968 76 80 93 0 0
0.9693 3.3335 -0.9951 0.325 -0.025 0.945 78 80 96 0 0
0.9760 3.3411 -0.9972 0.327 -0.025 0.945 77 78 95 0 0
0.9823 3.3464 -0.9985 0.312 -0.028 0.950 75 76 95 0 0
0.9872 3.3418 -0.9971 0.338 -0.022 0.941 75 76 95 0 0
0.9930 3.3442 -0.9976 0.369 -0.016 0.929 73 76 94 0 0
1.0588 3.3746 -1.0046 0.187 -0.051 0.981 71 77 83 0 0
1.0650 3.3785 -1.0056 0.187 -0.051 0.981 78 84 90 0 0
1.0723 3.3888 -1.0084 0.238 -0.151 0.959 87 87 97 0 0
1.0772 3.3851 -1.0071 -0.364 -0.386 0.848 93 90 101 0 0
1.0823 3.3826 -1.0062 -0.318 -0.388 0.865 92 90 101 0 0
1.1468 3.4021 -1.0101 -0.064 -0.971 -0.231 72 74 87 0 0
1.1523 3.4017 -1.0098 -0.064 -0.971 -0.231 75 75 87 0 0
1.2400 3.3520 -0.9925 -0.060 -0.995 0.080 48 77 132 0 0
1.2614 3.3512 -0.9917 -0.049 -0.990 0.132 39 66 118 0 0
1.2667 3.3510 -0.9914 -0.049 -0.990 0.132 37 62 113 0 0
1.2910 3.3405 -0.9876 -0.359 -0.929 -0.090 102 127 194 0 0
1.3007 3.3365 -0.9862 -0.321 -0.947 -0.006 146 163 232 0 0
1.3150 3.3298 -0.9838 -0.266 -0.961 0.082 42 28 85 0 0
1.3621 3.3078 -0.9759 -0.067 -0.995 0.078 105 94 104 0 0
1.3686 3.3126 -0.9771 0.155 -0.979 0.131 104 92 108 0 0
1.4626 3.4239 -1.0071 -0.386 -0.742 0.547 31 26 32 0 0
1.4675 3.4220 -1.0064 -0.386 -0.742 0.547 20 18 24 0 0
1.4717 3.4182 -1.0052 -0.456 -0.832 0.316 20 20 22 0 0
1.6021 3.5287 -1.0339 0.516 -0.195 0.834 54 63 68 0 0
-2.0712 2.8775 -0.9570 -0.449 -0.472 0.759 58 65 84 0 0
-2.0515 2.8622 -0.9519 -0.108 -0.374 0.921 56 62 83 0 0
-2.0414 2.8584 -0.9504 -0.371 -0.339 0.865 55 62 81 0 0
-2.0008 2.8259 -0.9396 -0.026 -0.212 0.977 57 66 85 0 0
-1.9940 2.8259 -0.9394 -0.027 -0.205 0.978 55 64 82 0 0
-1.9871 2.8256 -0.9391 -0.029 -0.221 0.975 56 64 82 0 0
-1.9759 2.8202 -0.9371 0.015 -0.263 0.965 56 64 84 0 0
-1.9723 2.8239 -0.9381 -0.006 -0.246 0.969 56 65 86 0 0
-1.9658 2.8242 -0.9380 -0.006 -0.246 0.969 58 65 86 0 0
-1.9880 2.8592 -0.9491 -0.183 -0.156 0.971 58 66 85 0 0
