ply
format ascii 1.0
element vertex 832
property float x
property float y
property float z
property float nx
property float ny
property float nz
property uchar diffuse_red
property uchar diffuse_green
property uchar diffuse_blue
property uchar class
property uchar detection
end_header
-3.0457 4.9472 -0.3524 -0.303 -0.953 0.003 32 38 55 0 0
-3.0373 4.9483 -0.3524 -0.112 -0.993 0.023 31 38 55 0 0
-3.0349 4.9607 -0.3531 0.489 -0.872 -0.034 30 37 55 0 0
-3.0174 4.9616 -0.3529 0.150 -0.970 0.192 26 31 49 0 0
-3.0032 4.9688 -0.3532 -0.402 -0.915 -0.047 31 39 61 0 0
-2.9915 4.9637 -0.3527 -0.402 -0.915 -0.047 29 36 62 0 0
-2.9798 4.9584 -0.3522 -0.427 -0.885 -0.186 49 48 85 0 0
-2.9734 4.9636 -0.3524 0.441 -0.896 0.053 108 111 155 0 0
-2.9635 4.9793 -0.3533 0.279 -0.960 -0.008 136 153 198 0 0
-2.9459 4.9803 -0.3531 -0.221 -0.965 0.139 144 160 205 0 0
-2.9289 4.9645 -0.3519 -0.503 -0.855 0.128 145 162 208 0 0
-2.9153 4.9554 -0.3511 -0.056 -0.897 0.438 145 162 208 0 0
-2.9101 4.9629 -0.3515 -0.102 -0.899 0.426 146 162 208 0 0
-2.8974 4.9556 -0.3509 -0.278 -0.957 -0.087 146 163 209 0 0
-2.8850 4.9488 -0.3503 -0.107 -0.985 -0.134 145 162 207 0 0
-2.8755 4.9478 -0.3501 -0.107 -0.985 -0.134 147 164 210 0 0
-2.8664 4.9475 -0.3499 -0.393 -0.917 -0.073 149 166 212 0 0
-2.8548 4.9422 -0.3494 -0.516 -0.852 -0.089 149 165 212 0 0
-2.8435 4.9374 -0.3490 -0.529 -0.827 -0.190 147 164 210 0 0
-2.7424 4.8945 -0.3448 -0.168 -0.929 -0.330 149 166 211 0 0
-2.7357 4.8991 -0.3450 0.022 -0.999 0.038 149 166 211 0 0
-2.7189 4.9012 -0.3449 -0.457 -0.886 0.085 155 169 213 0 0
-2.7072 4.8952 -0.3444 -0.457 -0.886 0.085 151 170 212 0 0
-2.6955 4.8892 -0.3438 -0.457 -0.886 0.085 118 131 169 0 0
-2.6850 4.8857 -0.3434 -0.176 -0.980 0.096 104 96 121 0 0
-2.6675 4.8862 -0.3432 -0.017 -0.993 0.116 109 94 115 0 0
-2.6566 4.8818 -0.3428 -0.219 -0.969 0.117 110 96 118 0 0
-2.6035 4.8622 -0.3408 -0.381 -0.924 0.029 105 93 117 0 0
-1.5838 4.2509 -0.2874 0.152 -0.535 0.831 124 75 91 0 0
-1.5786 4.2600 -0.2879 0.716 -0.521 0.464 114 62 75 0 0
-1.5660 4.2985 -0.2902 -0.518 -0.724 -0.456 112 58 71 0 0
-1.5568 4.2933 -0.2898 -0.444 -0.778 -0.444 113 58 72 0 0
-1.3263 4.3095 -0.2876 0.148 -0.376 -0.915 131 76 89 0 0
-1.1153 4.0582 -0.2685 -0.198 -0.980 -0.001 122 70 83 0 0
-1.1097 4.0680 -0.2691 0.425 -0.662 0.618 122 70 82 0 0
-1.0918 4.0504 -0.2677 0.216 -0.870 -0.442 119 67 79 0 0
-1.0845 4.0508 -0.2676 0.064 -0.939 -0.337 115 65 76 0 0
-1.0772 4.0512 -0.2676 0.064 -0.939 -0.337 110 63 74 0 0
-1.0517 4.0751 -0.2687 -0.115 -0.909 0.401 134 81 94 0 0
-0.9419 4.0331 -0.2645 -0.424 -0.843 0.331 129 79 91 0 0
-0.9340 4.0292 -0.2642 -0.424 -0.843 0.331 128 75 89 0 0
-0.9265 4.0280 -0.2640 -0.001 -0.925 0.380 127 74 88 0 0
-0.9191 4.0281 -0.2639 -0.001 -0.925 0.380 126 74 88 0 0
-0.8005 3.9506 -0.2573 -0.476 -0.859 -0.190 113 66 78 0 0
-0.7791 3.9522 -0.2571 -0.227 -0.968 0.111 111 64 75 0 0
-0.7717 3.9510 -0.2569 -0.139 -0.990 0.027 109 62 75 0 0
-0.7644 3.9500 -0.2567 -0.139 -0.990 0.027 108 61 71 0 0
-0.6455 3.8987 -0.2518 -0.331 -0.855 0.399 116 66 76 0 0
-0.6211 3.8547 -0.2486 -0.295 -0.850 -0.437 120 69 83 0 0
-0.6150 3.8678 -0.2494 -0.302 -0.946 -0.122 121 70 84 0 0
-0.6085 3.8755 -0.2498 -0.383 -0.909 -0.167 121 72 85 0 0
-0.6015 3.8762 -0.2497 0.677 -0.734 -0.055 122 74 87 0 0
-0.5949 3.8845 -0.2502 0.649 -0.750 -0.128 125 74 87 0 0
-0.5814 3.8944 -0.2506 0.517 -0.790 0.329 127 75 90 0 0
-0.5741 3.8921 -0.2504 -0.564 -0.825 0.026 128 76 92 0 0
-0.5668 3.8870 -0.2499 -0.564 -0.825 0.026 131 79 94 0 0
-0.5590 3.8737 -0.2490 -0.706 -0.689 0.166 133 81 97 0 0
-0.3542 3.8200 -0.2427 0.507 -0.593 0.626 148 92 109 0 0
-0.2347 3.8704 -0.2443 0.071 -0.715 0.695 139 84 97 0 0
-0.2276 3.8710 -0.2442 0.121 -0.684 0.719 139 84 97 0 0
-0.1996 3.8654 -0.2434 -0.171 -0.654 0.737 142 87 100 0 0
-0.1929 3.8560 -0.2428 -0.385 -0.710 0.589 140 84 98 0 0
-0.0292 3.7973 -0.2367 0.072 -0.965 0.253 130 76 88 0 0
0.0289 3.8271 -0.2378 -0.548 -0.220 0.807 131 76 88 0 0
0.0581 3.7720 -0.2339 -0.066 -0.712 0.700 130 74 88 0 0
0.0651 3.7733 -0.2339 -0.539 -0.636 0.552 132 76 88 0 0
0.1030 3.7444 -0.2315 0.085 -0.988 -0.131 124 70 81 0 0
0.1100 3.7457 -0.2315 0.108 -0.993 -0.042 124 67 80 0 0
0.1161 3.7391 -0.2310 0.001 -0.999 0.047 123 67 80 0 0
0.1334 3.7141 -0.2291 -0.424 -0.784 -0.453 119 64 75 0 0
0.1840 3.6404 -0.2237 0.008 -0.873 0.487 145 97 116 0 0
0.1902 3.6371 -0.2234 -0.293 -0.849 0.440 148 101 121 0 0
0.2133 3.6137 -0.2216 -0.536 -0.679 0.501 143 90 108 0 0
0.2275 3.6207 -0.2218 0.432 -0.772 0.465 146 93 111 0 0
0.2362 3.6343 -0.2226 0.687 -0.674 0.271 146 92 110 0 0
0.2520 3.6085 -0.2207 -0.485 -0.742 0.464 148 95 113 0 0
0.3727 3.8032 -0.2315 -0.241 -0.952 0.189 116 91 115 0 0
0.4002 3.8021 -0.2310 0.030 -0.986 0.166 94 67 89 0 0
0.4196 3.7953 -0.2303 -0.117 -0.987 0.112 96 73 93 0 0
0.4960 3.7651 -0.2273 -0.102 -0.994 0.046 102 73 90 0 0
0.5287 3.7581 -0.2264 -0.187 -0.980 0.063 94 70 92 0 0
0.5531 3.7453 -0.2253 -0.060 -0.998 -0.009 97 76 94 0 0
0.5598 3.7449 -0.2252 -0.060 -0.998 -0.009 106 87 108 0 0
0.5665 3.7445 -0.2250 -0.060 -0.998 -0.009 113 95 114 0 0
0.5732 3.7439 -0.2249 0.044 -0.998 0.038 96 79 99 0 0
0.6029 3.7262 -0.2234 -0.250 -0.964 -0.091 107 85 105 0 0
0.6405 3.7141 -0.2221 -0.048 -0.999 -0.027 89 65 83 0 0
0.6594 3.7088 -0.2215 -0.324 -0.940 -0.108 75 54 66 0 0
0.6647 3.7035 -0.2210 -0.250 -0.957 0.148 92 70 83 0 0
0.6772 3.6998 -0.2206 -0.102 -0.984 0.147 106 83 97 0 0
0.7133 3.6843 -0.2191 -0.258 -0.947 0.189 106 88 107 0 0
0.7491 3.6687 -0.2176 -0.214 -0.971 0.110 128 110 129 0 0
0.7550 3.6661 -0.2174 -0.028 -1.000 -0.007 132 113 130 0 0
0.8460 3.6371 -0.2143 -0.203 -0.949 0.242 123 100 115 0 0
0.8524 3.6364 -0.2141 -0.162 -0.957 0.242 116 92 108 0 0
0.8589 3.6361 -0.2140 -0.049 -0.938 0.343 113 89 105 0 0
0.8651 3.6347 -0.2138 -0.107 -0.933 0.343 113 89 104 0 0
0.9279 3.6055 -0.2111 -0.295 -0.950 0.106 123 100 118 0 0
0.9338 3.6035 -0.2109 -0.268 -0.963 -0.012 124 99 118 0 0
0.9458 3.6002 -0.2105 -0.268 -0.963 -0.012 115 91 109 0 0
0.9761 3.5931 -0.2096 -0.224 -0.974 -0.018 110 86 102 0 0
0.9821 3.5917 -0.2095 -0.224 -0.974 -0.018 112 87 101 0 0
0.9881 3.5903 -0.2093 -0.224 -0.974 -0.018 110 82 95 0 0
0.9940 3.5884 -0.2091 -0.289 -0.956 0.053 100 71 80 0 0
0.9996 3.5858 -0.2088 -0.240 -0.956 -0.171 106 81 89 0 0
1.0327 3.5695 -0.2073 -0.283 -0.959 -0.032 114 88 101 0 0
1.0552 3.5602 -0.2064 -0.364 -0.930 -0.039 105 76 85 0 0
1.0608 3.5580 -0.2062 -0.364 -0.930 -0.039 114 90 101 0 0
1.0665 3.5558 -0.2060 -0.364 -0.930 -0.039 127 104 117 0 0
1.0724 3.5543 -0.2058 -0.228 -0.974 0.020 128 101 115 0 0
1.0783 3.5529 -0.2056 -0.228 -0.974 0.020 119 89 104 0 0
1.0842 3.5515 -0.2055 -0.228 -0.974 0.020 114 87 101 0 0
1.0902 3.5501 -0.2053 -0.228 -0.974 0.020 112 84 97 0 0
1.1340 3.5306 -0.2034 -0.349 -0.927 0.136 124 97 111 0 0
1.1396 3.5286 -0.2032 -0.235 -0.957 0.167 125 98 112 0 0
1.1681 3.5198 -0.2023 -0.334 -0.931 0.144 118 92 107 0 0
1.1737 3.5178 -0.2021 -0.334 -0.931 0.144 124 98 110 0 0
1.1793 3.5159 -0.2019 -0.334 -0.931 0.144 129 100 113 0 0
1.1849 3.5139 -0.2016 -0.334 -0.931 0.144 133 105 120 0 0
1.1904 3.5119 -0.2014 -0.334 -0.931 0.144 134 109 122 0 0
1.1960 3.5100 -0.2012 -0.334 -0.931 0.144 129 103 116 0 0
1.2070 3.5058 -0.2008 -0.205 -0.972 0.117 126 97 112 0 0
1.2345 3.4955 -0.1998 -0.257 -0.955 0.146 130 102 117 0 0
1.2403 3.4943 -0.1996 -0.356 -0.912 0.204 119 91 107 0 0
1.2460 3.4926 -0.1994 -0.367 -0.899 0.239 118 92 110 0 0
1.2777 3.4783 -0.1981 -0.368 -0.924 0.106 122 96 110 0 0
1.2879 3.4728 -0.1976 -0.296 -0.946 0.130 130 104 119 0 0
1.3509 3.5271 -0.2002 0.108 -0.827 0.552 109 91 111 0 0
1.5334 3.7737 -0.2135 -0.119 -0.988 0.101 94 106 141 0 0
1.5538 3.7733 -0.2132 -0.360 -0.926 0.117 67 70 107 0 0
1.5641 3.7524 -0.2117 -0.880 -0.466 0.090 118 137 179 0 0
2.1299 4.6992 -0.2645 -0.970 -0.237 0.057 110 116 163 0 0
-3.2606 5.0745 -0.3727 -0.223 -0.962 0.161 144 162 207 0 0
-3.2342 5.0768 -0.3725 -0.219 -0.973 -0.078 143 163 206 0 0
-3.2125 5.0542 -0.3707 -0.039 -0.888 0.457 143 162 207 0 0
-3.2040 5.0555 -0.3707 -0.073 -0.935 0.348 143 161 205 0 0
-3.1945 5.0548 -0.3705 -0.073 -0.935 0.348 142 159 204 0 0
-3.1853 5.0547 -0.3704 -0.563 -0.825 0.042 141 158 202 0 0
-3.1714 5.0460 -0.3696 -0.621 -0.783 0.041 139 157 203 0 0
-3.1387 5.0028 -0.3663 -0.718 -0.692 0.068 139 157 202 0 0
-3.1188 4.9830 -0.3647 -0.557 -0.829 -0.044 139 156 202 0 0
-3.0455 4.9471 -0.3613 -0.303 -0.953 0.003 34 42 60 0 0
-3.0370 4.9480 -0.3613 -0.112 -0.993 0.023 36 43 62 0 0
-3.0327 4.9569 -0.3618 0.451 -0.855 0.258 35 43 63 0 0
-3.0170 4.9612 -0.3619 0.338 -0.941 -0.021 40 47 72 0 0
-3.0034 4.9695 -0.3622 -0.303 -0.953 0.030 80 94 128 0 0
-2.9926 4.9661 -0.3619 -0.303 -0.953 0.030 73 92 128 0 0
-2.9831 4.9652 -0.3617 -0.332 -0.938 0.098 74 84 126 0 0
-2.9731 4.9632 -0.3614 0.441 -0.896 0.053 110 119 164 0 0
-2.9634 4.9794 -0.3623 0.279 -0.960 -0.008 137 154 200 0 0
-2.9450 4.9788 -0.3620 -0.221 -0.965 0.139 141 159 205 0 0
-2.8765 4.9500 -0.3592 -0.214 -0.870 -0.444 146 163 210 0 0
-2.8661 4.9473 -0.3589 -0.214 -0.870 -0.444 146 164 210 0 0
-2.8559 4.9449 -0.3586 -0.285 -0.821 -0.495 147 163 210 0 0
-2.8334 4.9356 -0.3576 -0.086 -0.982 -0.167 146 164 209 0 0
-2.7433 4.8968 -0.3538 0.000 -0.982 -0.187 149 166 209 0 0
-2.7354 4.8988 -0.3538 0.022 -0.999 0.038 150 167 211 0 0
-2.7064 4.8940 -0.3531 -0.457 -0.886 0.085 149 168 210 0 0
-2.6947 4.8880 -0.3526 -0.457 -0.886 0.085 115 125 162 0 0
-2.6844 4.8847 -0.3522 -0.176 -0.980 0.096 105 93 116 0 0
-2.6558 4.8806 -0.3515 -0.219 -0.969 0.117 106 92 114 0 0
-2.6357 4.8752 -0.3509 -0.270 -0.961 -0.053 113 100 124 0 0
-2.5918 4.8564 -0.3491 -0.227 -0.970 -0.083 99 90 115 0 0
-2.5802 4.8502 -0.3485 -0.393 -0.919 0.008 99 89 114 0 0
-1.7294 4.2719 -0.2985 0.507 -0.850 -0.145 105 76 93 0 0
-1.7226 4.2748 -0.2986 0.402 -0.908 -0.118 118 80 95 0 0
-1.7165 4.2802 -0.2989 0.386 -0.903 0.192 132 85 100 0 0
-1.7096 4.2829 -0.2990 0.341 -0.861 0.378 138 86 101 0 0
-1.7051 4.2937 -0.2996 0.498 -0.867 -0.012 139 87 101 0 0
-1.6984 4.2975 -0.2998 0.498 -0.867 -0.012 137 87 102 0 0
-1.6937 4.3077 -0.3004 0.380 -0.818 -0.433 136 86 101 0 0
-1.6789 4.3103 -0.3004 0.388 -0.602 -0.698 141 89 105 0 0
-1.6732 4.3176 -0.3008 0.623 -0.681 -0.385 139 89 105 0 0
-1.5950 4.2367 -0.2944 0.571 -0.614 0.544 135 89 107 0 0
-1.5889 4.2423 -0.2946 0.596 -0.623 0.507 137 89 109 0 0
-1.5824 4.2465 -0.2948 0.706 -0.513 0.489 130 80 98 0 0
-1.5767 4.2538 -0.2952 0.706 -0.513 0.489 127 76 90 0 0
-1.5630 4.2881 -0.2973 -0.150 -0.963 -0.223 122 68 84 0 0
-1.5091 4.3204 -0.2987 -0.089 -0.689 0.719 134 82 98 0 0
-1.2583 4.2472 -0.2904 -0.279 -0.830 0.482 134 80 95 0 0
-1.2444 4.2177 -0.2882 -0.682 -0.706 0.192 133 80 95 0 0
-1.2204 4.2127 -0.2876 -0.454 -0.539 0.709 130 76 93 0 0
-1.1537 4.1837 -0.2847 -0.138 -0.479 0.867 121 71 87 0 0
-1.1475 4.1912 -0.2851 -0.150 -0.520 0.841 122 68 86 0 0
-1.1150 4.0568 -0.2758 0.012 -0.984 0.179 121 68 85 0 0
-1.0924 4.0544 -0.2753 0.086 -0.966 -0.244 116 67 83 0 0
-1.0850 4.0541 -0.2752 -0.018 -0.957 -0.289 116 67 83 0 0
-1.0775 4.0540 -0.2751 -0.018 -0.957 -0.289 117 67 84 0 0
-0.9479 4.0251 -0.2714 -0.186 -0.742 0.644 134 80 97 0 0
-0.8653 3.9520 -0.2654 0.046 -0.912 0.407 126 72 90 0 0
-0.8610 3.9751 -0.2669 -0.157 -0.958 0.239 126 73 90 0 0
-0.8537 3.9743 -0.2668 -0.121 -0.959 0.256 124 72 88 0 0
-0.7574 3.9529 -0.2640 -0.156 -0.984 0.088 112 65 78 0 0
-0.7504 3.9547 -0.2640 -0.052 -0.985 -0.163 113 64 77 0 0
-0.7451 3.9738 -0.2652 -0.115 -0.643 -0.757 114 66 79 0 0
-0.7122 3.9299 -0.2619 -0.570 -0.784 0.243 114 66 83 0 0
-0.7045 3.9245 -0.2614 -0.570 -0.784 0.243 114 66 79 0 0
-0.6743 3.9043 -0.2596 -0.464 -0.875 0.141 116 68 80 0 0
-0.5739 3.8893 -0.2573 -0.416 -0.885 -0.207 132 78 97 0 0
-0.5665 3.8834 -0.2568 -0.579 -0.815 0.016 134 80 100 0 0
-0.5588 3.8719 -0.2559 -0.706 -0.689 0.166 134 80 99 0 0
-0.4943 3.8468 -0.2534 -0.356 -0.695 0.624 135 82 100 0 0
-0.4875 3.8525 -0.2536 -0.150 -0.854 0.497 137 83 101 0 0
-0.4805 3.8513 -0.2535 -0.150 -0.854 0.497 138 85 103 0 0
-0.4734 3.8502 -0.2533 -0.150 -0.854 0.497 138 84 101 0 0
-0.4663 3.8464 -0.2529 -0.404 -0.648 0.645 140 85 103 0 0
-0.4310 3.8335 -0.2516 0.037 -0.985 0.168 141 84 101 0 0
-0.4241 3.8367 -0.2517 -0.443 -0.727 0.525 140 84 101 0 0
-0.3541 3.8120 -0.2491 0.544 -0.497 0.676 149 89 107 0 0
-0.2418 3.8644 -0.2510 0.051 -0.703 0.710 137 83 100 0 0
-0.2347 3.8648 -0.2509 0.024 -0.694 0.719 140 85 99 0 0
-0.2277 3.8647 -0.2508 0.071 -0.715 0.695 140 84 99 0 0
-0.1930 3.8508 -0.2494 -0.416 -0.731 0.541 138 84 101 0 0
-0.1862 3.8472 -0.2491 -0.416 -0.731 0.541 137 82 98 0 0
-0.1793 3.8435 -0.2488 -0.416 -0.731 0.541 137 80 96 0 0
-0.1243 3.8267 -0.2469 -0.210 -0.598 0.773 132 77 92 0 0
-0.0363 3.7935 -0.2435 -0.155 -0.972 0.178 133 79 95 0 0
-0.0043 3.7642 -0.2411 -0.703 -0.467 -0.536 132 77 92 0 0
0.0017 3.7545 -0.2404 -0.599 -0.661 -0.451 131 77 91 0 0
0.0087 3.7560 -0.2404 -0.582 -0.656 0.480 132 77 91 0 0
0.0523 3.7817 -0.2415 -0.650 -0.738 0.183 130 76 91 0 0
0.0577 3.7668 -0.2404 -0.147 -0.756 0.638 130 76 90 0 0
0.0644 3.7656 -0.2402 -0.147 -0.756 0.638 132 76 91 0 0
0.1277 3.6135 -0.2293 0.465 -0.752 0.467 118 65 79 0 0
0.1899 3.6341 -0.2298 -0.293 -0.870 0.397 131 83 100 0 0
0.2135 3.6145 -0.2282 0.365 -0.610 0.704 135 85 103 0 0
0.2209 3.6202 -0.2285 0.508 -0.642 0.575 137 85 103 0 0
0.2283 3.6258 -0.2287 0.508 -0.642 0.575 140 86 104 0 0
0.3693 3.7840 -0.2372 0.467 -0.789 0.399 124 89 112 0 0
0.3778 3.7926 -0.2376 0.274 -0.885 0.375 122 95 120 0 0
0.4065 3.7987 -0.2376 -0.120 -0.960 0.254 103 81 103 0 0
0.4130 3.7966 -0.2374 -0.210 -0.965 0.159 107 88 111 0 0
0.4573 3.7767 -0.2355 -0.306 -0.914 -0.267 97 71 84 0 0
0.4768 3.7712 -0.2349 -0.132 -0.987 0.093 111 84 99 0 0
0.4835 3.7704 -0.2347 -0.132 -0.987 0.093 112 85 99 0 0
0.4899 3.7683 -0.2345 -0.166 -0.986 0.012 106 79 94 0 0
0.4960 3.7648 -0.2342 -0.102 -0.994 0.046 99 73 88 0 0
0.5093 3.7632 -0.2339 -0.271 -0.963 -0.005 92 69 89 0 0
0.5221 3.7589 -0.2334 -0.252 -0.964 0.083 96 73 94 0 0
0.5285 3.7573 -0.2332 -0.252 -0.964 0.083 105 83 106 0 0
0.5532 3.7454 -0.2321 -0.060 -0.998 -0.009 86 62 81 0 0
0.5599 3.7450 -0.2320 -0.060 -0.998 -0.009 90 67 88 0 0
0.5666 3.7446 -0.2319 -0.060 -0.998 -0.009 101 85 105 0 0
0.5733 3.7442 -0.2317 -0.060 -0.998 -0.009 106 93 111 0 0
0.5800 3.7438 -0.2316 -0.058 -0.996 -0.061 99 79 96 0 0
0.5971 3.7299 -0.2305 -0.208 -0.976 -0.059 96 72 91 0 0
0.6596 3.7095 -0.2283 -0.324 -0.940 -0.108 85 64 83 0 0
0.6776 3.7007 -0.2274 0.093 -0.973 -0.209 104 84 98 0 0
0.7547 3.6648 -0.2240 0.163 -0.977 -0.137 133 113 130 0 0
0.7614 3.6648 -0.2239 -0.108 -0.979 -0.172 126 103 124 0 0
0.7682 3.6653 -0.2238 -0.186 -0.981 -0.053 122 100 119 0 0
0.8025 3.6463 -0.2221 -0.269 -0.963 -0.029 117 88 101 0 0
0.8455 3.6355 -0.2208 -0.165 -0.949 0.268 124 100 116 0 0
0.8517 3.6340 -0.2206 -0.049 -0.938 0.343 130 107 123 0 0
0.8582 3.6337 -0.2205 -0.049 -0.938 0.343 128 105 122 0 0
0.8917 3.6149 -0.2188 -0.215 -0.959 0.186 114 89 109 0 0
0.8976 3.6128 -0.2186 -0.107 -0.991 -0.076 116 91 108 0 0
0.9032 3.6099 -0.2183 -0.161 -0.987 0.022 123 99 115 0 0
0.9096 3.6094 -0.2182 -0.360 -0.933 0.020 132 108 126 0 0
0.9460 3.6006 -0.2171 -0.038 -0.994 -0.101 120 95 115 0 0
0.9761 3.5932 -0.2162 -0.224 -0.974 -0.018 115 92 107 0 0
0.9822 3.5918 -0.2160 -0.224 -0.974 -0.018 118 93 106 0 0
0.9882 3.5904 -0.2158 -0.224 -0.974 -0.018 114 86 96 0 0
0.9940 3.5884 -0.2156 -0.240 -0.956 -0.171 102 72 80 0 0
1.0000 3.5868 -0.2154 -0.240 -0.956 -0.171 96 68 74 0 0
1.0060 3.5853 -0.2152 -0.240 -0.956 -0.171 95 69 76 0 0
1.0377 3.5653 -0.2135 -0.261 -0.965 0.041 121 95 109 0 0
1.0609 3.5580 -0.2127 -0.297 -0.923 0.245 107 82 92 0 0
1.0902 3.5500 -0.2118 -0.228 -0.974 0.020 113 87 101 0 0
1.1337 3.5298 -0.2098 -0.349 -0.927 0.136 136 110 124 0 0
1.1396 3.5284 -0.2096 -0.250 -0.964 0.092 136 108 123 0 0
1.1456 3.5272 -0.2095 -0.137 -0.985 0.109 133 103 118 0 0
1.2013 3.5071 -0.2074 -0.334 -0.931 0.144 136 106 118 0 0
1.2341 3.4946 -0.2061 -0.257 -0.955 0.146 131 102 117 0 0
1.2398 3.4931 -0.2059 -0.356 -0.912 0.204 133 106 121 0 0
1.2454 3.4912 -0.2057 -0.367 -0.899 0.239 141 113 127 0 0
1.5281 3.7767 -0.2206 0.253 -0.951 0.176 88 101 139 0 0
1.5338 3.7745 -0.2204 -0.025 -0.999 -0.042 97 112 146 0 0
1.5399 3.7728 -0.2202 -0.120 -0.987 0.111 96 110 143 0 0
2.1288 4.6971 -0.2729 -0.959 -0.280 0.033 110 117 164 0 0
1.4063 3.1926 -0.1838 -0.238 -0.971 0.025 51 68 98 0 0
-3.2601 5.0739 -0.3819 -0.495 -0.856 -0.150 145 163 208 0 0
-3.2484 5.0695 -0.3814 -0.292 -0.933 0.211 145 162 206 0 0
-3.2373 5.0661 -0.3810 -0.292 -0.933 0.211 145 162 207 0 0
-3.2345 5.0776 -0.3818 -0.219 -0.973 -0.078 145 162 208 0 0
-3.2016 5.0513 -0.3795 -0.369 -0.908 0.197 144 161 207 0 0
-3.1887 5.0446 -0.3789 -0.443 -0.870 0.216 143 160 204 0 0
-3.1847 5.0540 -0.3795 -0.582 -0.812 0.045 141 159 203 0 0
-3.1688 5.0416 -0.3784 -0.616 -0.770 0.165 141 159 203 0 0
-3.1284 4.9844 -0.3740 -0.670 -0.742 -0.030 139 157 202 0 0
-3.1196 4.9847 -0.3739 -0.668 -0.742 -0.054 138 155 200 0 0
-3.0367 4.9478 -0.3702 -0.112 -0.993 0.023 37 47 65 0 0
-3.0317 4.9553 -0.3707 0.558 -0.798 0.227 39 50 68 0 0
-3.0184 4.9642 -0.3711 0.163 -0.960 -0.229 46 55 83 0 0
-3.0118 4.9688 -0.3713 -0.387 -0.922 0.004 75 82 119 0 0
-3.0043 4.9717 -0.3714 -0.332 -0.938 0.098 82 95 134 0 0
-2.9933 4.9679 -0.3710 -0.332 -0.938 0.098 84 99 136 0 0
-2.9823 4.9640 -0.3706 -0.332 -0.938 0.098 80 90 133 0 0
-2.9388 4.9669 -0.3702 -0.358 -0.933 0.032 140 157 204 0 0
-2.9086 4.9429 -0.3681 -0.127 -0.980 0.152 144 162 207 0 0
-2.8991 4.9419 -0.3679 -0.154 -0.847 0.509 143 160 206 0 0
-2.8762 4.9499 -0.3681 0.423 -0.864 0.272 145 162 207 0 0
-2.8725 4.9605 -0.3688 0.116 -0.977 0.176 145 163 208 0 0
-2.7439 4.8984 -0.3628 0.031 -0.989 0.148 147 165 209 0 0
-2.7063 4.8941 -0.3620 -0.539 -0.842 0.042 150 168 210 0 0
-2.6940 4.8868 -0.3613 -0.457 -0.886 0.085 115 124 161 0 0
-2.6823 4.8807 -0.3607 -0.419 -0.905 0.072 100 90 113 0 0
-1.7295 4.2727 -0.3064 0.402 -0.908 -0.118 123 70 82 0 0
-1.7227 4.2757 -0.3065 0.402 -0.908 -0.118 127 71 82 0 0
-1.7159 4.2788 -0.3066 0.386 -0.903 0.192 125 72 82 0 0
-1.7091 4.2818 -0.3067 0.366 -0.915 0.171 123 69 81 0 0
-1.7021 4.2846 -0.3068 0.366 -0.915 0.171 122 68 81 0 0
-1.6952 4.2873 -0.3069 0.366 -0.915 0.171 120 68 80 0 0
-1.6934 4.3070 -0.3082 0.573 -0.537 -0.619 121 69 79 0 0
-1.6874 4.3130 -0.3085 0.513 -0.573 -0.639 125 70 80 0 0
-1.6805 4.3161 -0.3086 0.467 -0.702 -0.538 125 70 82 0 0
-1.1603 4.1791 -0.2921 -0.437 -0.813 0.384 131 76 88 0 0
-1.1534 4.1828 -0.2923 0.007 -0.808 0.589 130 75 88 0 0
-1.1429 4.1676 -0.2911 0.839 -0.487 0.243 130 75 89 0 0
-1.1143 4.0541 -0.2830 0.049 -0.938 0.343 130 74 88 0 0
-1.0845 4.0523 -0.2825 -0.382 -0.850 0.364 141 89 105 0 0
-1.0766 4.0495 -0.2822 -0.410 -0.903 0.128 145 91 109 0 0
-0.9701 4.0270 -0.2792 -0.141 -0.658 0.740 145 91 109 0 0
-0.9624 4.0248 -0.2789 0.010 -0.794 0.608 146 92 109 0 0
-0.9551 4.0247 -0.2788 -0.080 -0.992 0.096 144 89 106 0 0
-0.9503 4.0419 -0.2799 -0.040 -0.952 -0.302 142 88 102 0 0
-0.8648 3.9489 -0.2724 0.046 -0.912 0.407 138 81 97 0 0
-0.8607 3.9733 -0.2740 -0.121 -0.959 0.256 137 82 97 0 0
-0.8533 3.9724 -0.2738 -0.121 -0.959 0.256 135 82 96 0 0
-0.8304 3.9617 -0.2728 -0.523 -0.599 0.606 132 81 96 0 0
-0.7504 3.9559 -0.2713 -0.052 -0.985 -0.163 126 77 89 0 0
-0.7424 3.9471 -0.2706 -0.666 -0.744 -0.062 127 76 87 0 0
-0.7361 3.9561 -0.2711 -0.715 -0.642 -0.277 127 76 87 0 0
-0.7083 3.8884 -0.2661 0.245 -0.954 -0.173 130 77 91 0 0
-0.6672 3.9064 -0.2668 -0.092 -0.996 -0.012 135 82 94 0 0
-0.6074 3.8626 -0.2630 -0.318 -0.937 -0.142 145 96 111 0 0
-0.5800 3.8747 -0.2634 0.117 -0.837 0.534 148 94 112 0 0
-0.5730 3.8758 -0.2634 0.153 -0.898 0.412 147 94 111 0 0
-0.5653 3.8646 -0.2625 -0.090 -0.918 0.387 149 97 113 0 0
-0.5581 3.8615 -0.2622 -0.639 -0.642 0.423 150 97 114 0 0
-0.3540 3.8188 -0.2565 0.099 -0.816 0.570 157 101 117 0 0
-0.2070 3.8488 -0.2565 -0.316 -0.681 0.661 146 92 108 0 0
-0.2001 3.8459 -0.2562 -0.266 -0.641 0.720 145 91 106 0 0
-0.1932 3.8440 -0.2560 -0.317 -0.731 0.605 147 93 109 0 0
-0.1863 3.8423 -0.2558 -0.416 -0.731 0.541 147 93 111 0 0
-0.1794 3.8387 -0.2554 -0.416 -0.731 0.541 146 91 108 0 0
-0.0042 3.7642 -0.2479 -0.763 -0.550 -0.340 142 89 106 0 0
0.0022 3.7589 -0.2475 -0.599 -0.661 -0.451 140 87 105 0 0
0.0082 3.7496 -0.2468 -0.538 -0.672 0.509 141 87 103 0 0
0.0633 3.7536 -0.2463 -0.235 -0.888 0.395 137 83 101 0 0
0.0700 3.7523 -0.2461 -0.210 -0.913 0.349 138 83 102 0 0
0.0769 3.7531 -0.2461 -0.569 -0.746 0.346 137 84 100 0 0
0.0896 3.7449 -0.2453 0.141 -0.990 -0.028 135 82 98 0 0
0.1269 3.7150 -0.2428 0.052 -0.564 0.824 131 78 94 0 0
0.1352 3.7272 -0.2435 -0.102 -0.634 0.766 129 76 91 0 0
0.1548 3.6186 -0.2359 0.352 -0.875 0.332 135 85 102 0 0
0.1752 3.6233 -0.2359 0.228 -0.635 0.738 143 98 117 0 0
0.1949 3.6221 -0.2356 -0.648 -0.724 0.237 142 98 115 0 0
0.2072 3.6163 -0.2350 -0.623 -0.770 -0.135 145 98 117 0 0
0.2139 3.6169 -0.2349 -0.445 -0.820 -0.360 144 96 115 0 0
0.2200 3.6138 -0.2346 -0.116 -0.987 -0.109 147 99 118 0 0
0.2268 3.6152 -0.2346 0.499 -0.833 0.240 148 100 118 0 0
0.3846 3.7918 -0.2444 0.274 -0.885 0.375 123 93 116 0 0
0.4063 3.7969 -0.2444 -0.120 -0.960 0.254 105 80 103 0 0
0.4129 3.7955 -0.2443 -0.210 -0.965 0.159 111 88 111 0 0
0.4767 3.7706 -0.2417 -0.132 -0.987 0.093 88 61 73 0 0
0.4834 3.7697 -0.2415 -0.132 -0.987 0.093 88 62 75 0 0
0.4901 3.7689 -0.2414 -0.132 -0.987 0.093 96 73 88 0 0
0.4961 3.7648 -0.2410 -0.187 -0.973 -0.136 94 71 90 0 0
0.5026 3.7635 -0.2408 -0.187 -0.973 -0.136 92 69 89 0 0
0.5221 3.7587 -0.2402 -0.304 -0.953 -0.007 87 64 84 0 0
0.5285 3.7567 -0.2400 -0.252 -0.964 0.083 95 70 91 0 0
0.5533 3.7458 -0.2389 -0.058 -0.996 -0.061 105 78 95 0 0
0.5600 3.7454 -0.2388 -0.058 -0.996 -0.061 99 75 95 0 0
0.5667 3.7450 -0.2387 -0.058 -0.996 -0.061 101 86 107 0 0
0.5735 3.7446 -0.2386 -0.058 -0.996 -0.061 105 90 108 0 0
0.5802 3.7442 -0.2385 -0.058 -0.996 -0.061 94 71 88 0 0
0.5972 3.7303 -0.2373 -0.208 -0.976 -0.059 97 73 94 0 0
0.6037 3.7289 -0.2371 -0.208 -0.976 -0.059 93 70 89 0 0
0.6408 3.7149 -0.2356 -0.152 -0.949 -0.276 108 84 105 0 0
0.6473 3.7138 -0.2355 -0.152 -0.949 -0.276 106 86 105 0 0
0.6537 3.7124 -0.2353 -0.324 -0.940 -0.108 101 83 103 0 0
0.6599 3.7102 -0.2350 -0.324 -0.940 -0.108 92 72 93 0 0
0.6713 3.7025 -0.2344 -0.226 -0.877 -0.424 90 68 86 0 0
0.7259 3.6806 -0.2321 -0.166 -0.986 -0.015 117 97 115 0 0
0.7551 3.6658 -0.2307 0.163 -0.977 -0.137 122 100 117 0 0
0.7618 3.6659 -0.2306 -0.108 -0.979 -0.172 128 107 126 0 0
0.7973 3.6508 -0.2291 -0.372 -0.891 -0.260 134 108 122 0 0
0.8026 3.6465 -0.2287 -0.269 -0.963 -0.029 129 103 116 0 0
0.8513 3.6327 -0.2271 -0.165 -0.949 0.268 129 105 119 0 0
0.8575 3.6314 -0.2270 -0.049 -0.938 0.343 139 116 130 0 0
0.8915 3.6140 -0.2253 -0.107 -0.991 -0.076 130 105 120 0 0
0.8978 3.6133 -0.2252 -0.107 -0.991 -0.076 128 99 113 0 0
0.9032 3.6097 -0.2249 -0.161 -0.987 0.022 127 98 111 0 0
0.9096 3.6093 -0.2247 -0.360 -0.933 0.020 130 101 114 0 0
0.9335 3.6024 -0.2239 -0.077 -0.990 -0.122 118 93 108 0 0
0.9762 3.5933 -0.2227 -0.224 -0.974 -0.018 106 80 92 0 0
0.9823 3.5919 -0.2226 -0.224 -0.974 -0.018 107 81 91 0 0
0.9883 3.5905 -0.2224 -0.224 -0.974 -0.018 107 80 89 0 0
1.0385 3.5674 -0.2201 -0.133 -0.981 -0.139 126 101 115 0 0
1.0669 3.5566 -0.2190 -0.347 -0.938 -0.010 119 92 106 0 0
1.1061 3.5412 -0.2174 -0.438 -0.897 -0.049 136 110 124 0 0
1.1279 3.5310 -0.2164 -0.349 -0.927 0.136 148 119 132 0 0
1.1335 3.5290 -0.2162 -0.349 -0.927 0.136 149 118 132 0 0
1.1394 3.5279 -0.2160 -0.250 -0.964 0.092 146 115 128 0 0
1.1453 3.5264 -0.2159 -0.250 -0.964 0.092 139 107 120 0 0
1.1731 3.5161 -0.2148 -0.334 -0.931 0.144 135 103 114 0 0
1.1787 3.5141 -0.2146 -0.334 -0.931 0.144 131 100 113 0 0
1.1842 3.5121 -0.2143 -0.334 -0.931 0.144 118 87 99 0 0
1.1898 3.5102 -0.2141 -0.334 -0.931 0.144 110 82 92 0 0
1.2009 3.5063 -0.2137 -0.334 -0.931 0.144 129 100 111 0 0
1.2177 3.5006 -0.2131 -0.301 -0.954 -0.019 143 113 123 0 0
1.2225 3.4971 -0.2128 -0.220 -0.959 0.180 136 106 117 0 0
1.2338 3.4937 -0.2124 -0.257 -0.955 0.146 130 102 113 0 0
1.2448 3.4898 -0.2120 -0.367 -0.899 0.239 130 102 115 0 0
1.5196 3.7733 -0.2273 0.183 -0.978 -0.098 92 105 139 0 0
1.5274 3.7753 -0.2274 0.253 -0.951 0.176 86 98 133 0 0
1.5340 3.7747 -0.2272 -0.025 -0.999 -0.042 85 99 136 0 0
1.5396 3.7720 -0.2270 -0.120 -0.987 0.111 100 116 150 0 0
1.5589 3.7696 -0.2265 -0.360 -0.926 0.117 80 96 130 0 0
1.5697 3.7637 -0.2260 -0.569 -0.810 -0.140 114 130 171 0 0
2.1287 4.6966 -0.2813 -0.959 -0.280 0.033 113 119 166 0 0
-3.2630 5.0795 -0.3915 -0.468 -0.876 0.119 145 162 207 0 0
-3.2499 5.0726 -0.3908 -0.468 -0.876 0.119 145 163 207 0 0
-3.2369 5.0657 -0.3901 -0.468 -0.876 0.119 145 163 208 0 0
-3.2342 5.0775 -0.3909 -0.553 -0.833 -0.013 144 162 207 0 0
-3.2076 5.0461 -0.3884 0.552 -0.804 0.221 143 163 207 0 0
-3.1868 5.0414 -0.3878 -0.443 -0.870 0.216 142 160 204 0 0
-3.1840 5.0529 -0.3885 -0.582 -0.812 0.045 140 158 203 0 0
-3.1664 5.0376 -0.3872 -0.616 -0.761 0.203 140 158 204 0 0
-3.1231 4.9749 -0.3823 -0.612 -0.784 0.101 140 158 203 0 0
-3.0364 4.9476 -0.3792 -0.144 -0.988 0.046 39 48 67 0 0
-3.0117 4.9689 -0.3803 -0.212 -0.976 0.047 80 88 125 0 0
-3.0035 4.9705 -0.3803 -0.332 -0.938 0.098 90 103 141 0 0
-2.9925 4.9667 -0.3799 -0.332 -0.938 0.098 92 109 147 0 0
-2.9815 4.9628 -0.3794 -0.332 -0.938 0.098 88 98 144 0 0
-2.9280 4.9461 -0.3775 -0.412 -0.899 0.147 142 158 203 0 0
-2.9076 4.9414 -0.3769 -0.127 -0.980 0.152 142 160 206 0 0
-2.9027 4.9493 -0.3774 0.022 -0.908 0.418 143 161 207 0 0
-2.8661 4.9480 -0.3768 0.135 -0.973 0.185 145 162 208 0 0
-2.8578 4.9493 -0.3768 0.084 -0.985 0.150 145 163 208 0 0
-2.8477 4.9470 -0.3765 -0.150 -0.914 0.376 145 163 209 0 0
-2.7058 4.8933 -0.3708 -0.539 -0.842 0.042 150 168 208 0 0
-2.6933 4.8855 -0.3701 -0.457 -0.886 0.085 113 123 158 0 0
-2.6817 4.8797 -0.3695 -0.419 -0.905 0.072 102 91 113 0 0
-2.6727 4.8794 -0.3694 -0.179 -0.980 0.084 98 83 101 0 0
-2.6655 4.8831 -0.3695 -0.017 -0.993 0.116 102 87 105 0 0
-1.7714 4.3555 -0.3204 -0.504 -0.375 0.779 76 56 69 0 0
-1.7190 4.2642 -0.3134 -0.472 -0.835 0.284 108 56 70 0 0
-1.7113 4.2643 -0.3133 0.462 -0.771 0.438 109 60 73 0 0
-1.6971 4.2941 -0.3152 0.702 -0.711 0.046 103 60 74 0 0
-1.6911 4.3000 -0.3155 0.702 -0.711 0.046 101 59 72 0 0
-1.1672 4.1765 -0.2996 -0.292 -0.785 0.546 106 51 60 0 0
-1.1591 4.1737 -0.2993 -0.292 -0.785 0.546 107 52 61 0 0
-1.1522 4.1772 -0.2994 0.151 -0.648 0.746 108 54 62 0 0
-1.1423 4.1650 -0.2985 0.839 -0.487 0.243 109 54 62 0 0
-1.1138 4.0515 -0.2902 0.355 -0.883 0.308 108 53 61 0 0
-1.0993 4.0533 -0.2901 -0.344 -0.863 0.370 108 53 63 0 0
-1.0925 4.0564 -0.2902 -0.272 -0.893 0.359 120 62 73 0 0
-1.0843 4.0519 -0.2898 -0.425 -0.880 0.214 128 68 80 0 0
-0.9615 4.0195 -0.2858 0.010 -0.794 0.608 124 66 77 0 0
-0.9549 4.0240 -0.2861 -0.080 -0.992 0.096 123 66 76 0 0
-0.9361 3.9953 -0.2838 -0.523 -0.692 0.497 122 66 76 0 0
-0.8631 3.9370 -0.2787 -0.158 -0.835 0.528 119 60 70 0 0
-0.8049 3.9297 -0.2774 -0.365 -0.920 0.145 115 60 71 0 0
-0.7968 3.9212 -0.2767 -0.420 -0.907 -0.025 113 60 71 0 0
-0.6287 3.8669 -0.2706 0.021 -1.000 -0.016 127 69 79 0 0
-0.6218 3.8689 -0.2707 0.220 -0.937 -0.271 126 69 79 0 0
-0.6145 3.8658 -0.2703 -0.514 -0.769 -0.379 126 69 81 0 0
-0.6073 3.8632 -0.2701 -0.337 -0.935 -0.114 125 69 82 0 0
-0.5657 3.8739 -0.2702 -0.518 -0.829 0.209 130 71 82 0 0
-0.5435 3.8536 -0.2685 -0.566 -0.712 0.416 130 72 84 0 0
-0.5289 3.8422 -0.2675 -0.296 -0.739 0.605 133 74 86 0 0
-0.5148 3.8391 -0.2671 -0.320 -0.741 0.590 128 69 79 0 0
-0.3956 3.8107 -0.2635 -0.477 -0.634 0.608 129 68 77 0 0
-0.3608 3.8031 -0.2625 0.132 -0.654 0.745 135 75 85 0 0
-0.2559 3.8537 -0.2645 -0.290 -0.812 0.507 138 79 92 0 0
-0.2489 3.8515 -0.2643 -0.124 -0.813 0.569 140 81 94 0 0
-0.0712 3.7857 -0.2572 -0.324 -0.524 0.788 143 85 100 0 0
-0.0294 3.7907 -0.2570 0.103 -0.896 0.432 140 81 92 0 0
-0.0157 3.7893 -0.2567 -0.103 -0.973 0.208 140 78 89 0 0
-0.0098 3.7776 -0.2558 -0.531 -0.846 0.050 139 79 89 0 0
-0.0039 3.7667 -0.2550 -0.786 -0.605 -0.126 137 78 90 0 0
0.0028 3.7642 -0.2547 -0.537 -0.786 -0.305 136 77 89 0 0
0.0086 3.7534 -0.2539 -0.511 -0.800 -0.313 137 78 88 0 0
0.0631 3.7513 -0.2530 -0.210 -0.913 0.349 138 79 89 0 0
0.0698 3.7498 -0.2528 -0.210 -0.913 0.349 136 79 90 0 0
0.1278 3.7216 -0.2500 0.170 -0.725 0.668 130 73 86 0 0
0.1220 3.6199 -0.2430 0.009 -0.898 0.441 128 71 84 0 0
0.1476 3.6136 -0.2422 -0.201 -0.821 0.534 134 81 94 0 0
0.1546 3.6164 -0.2423 0.250 -0.837 0.487 147 91 104 0 0
0.1614 3.6184 -0.2424 0.250 -0.837 0.487 147 90 104 0 0
0.2013 3.6207 -0.2420 -0.509 -0.855 -0.103 145 89 101 0 0
0.2074 3.6171 -0.2416 -0.485 -0.857 -0.177 147 89 102 0 0
0.2194 3.6092 -0.2409 0.445 -0.716 0.537 150 95 109 0 0
0.2266 3.6136 -0.2411 0.445 -0.716 0.537 148 94 107 0 0
0.2567 3.5958 -0.2395 -0.523 -0.671 0.525 149 94 110 0 0
0.2627 3.5922 -0.2391 -0.289 -0.775 0.562 147 92 107 0 0
0.2928 3.5769 -0.2377 -0.555 -0.829 -0.063 148 90 105 0 0
0.2996 3.5782 -0.2377 0.246 -0.648 0.720 148 92 107 0 0
0.3065 3.5808 -0.2377 0.246 -0.648 0.720 152 101 118 0 0
0.4130 3.7957 -0.2512 -0.271 -0.963 0.012 114 89 111 0 0
0.4636 3.7733 -0.2489 -0.259 -0.948 -0.184 84 59 74 0 0
0.4766 3.7697 -0.2485 -0.259 -0.948 -0.184 74 52 66 0 0
0.4898 3.7670 -0.2481 -0.187 -0.973 -0.136 82 59 73 0 0
0.4963 3.7657 -0.2479 -0.187 -0.973 -0.136 94 71 90 0 0
0.5029 3.7645 -0.2477 -0.187 -0.973 -0.136 102 78 95 0 0
0.5535 3.7462 -0.2458 -0.058 -0.996 -0.061 120 94 111 0 0
0.5602 3.7458 -0.2457 -0.058 -0.996 -0.061 109 83 102 0 0
0.5667 3.7443 -0.2455 -0.063 -0.986 0.152 101 84 103 0 0
0.5734 3.7439 -0.2453 -0.063 -0.986 0.152 98 84 101 0 0
0.5803 3.7444 -0.2453 -0.063 -0.998 0.013 85 64 78 0 0
0.5974 3.7304 -0.2441 -0.240 -0.963 -0.125 102 78 90 0 0
0.6544 3.7146 -0.2422 -0.152 -0.949 -0.276 102 80 98 0 0
0.6722 3.7056 -0.2413 -0.226 -0.877 -0.424 92 72 91 0 0
0.6782 3.7027 -0.2410 -0.214 -0.920 -0.327 106 84 100 0 0
0.6846 3.7012 -0.2408 -0.214 -0.920 -0.327 108 84 99 0 0
0.7501 3.6714 -0.2378 -0.275 -0.949 -0.156 106 86 100 0 0
0.7557 3.6678 -0.2375 -0.108 -0.979 -0.172 109 87 102 0 0
0.7622 3.6671 -0.2374 -0.108 -0.979 -0.172 111 89 105 0 0
0.8033 3.6486 -0.2355 -0.268 -0.941 -0.208 129 101 115 0 0
0.8509 3.6310 -0.2336 -0.165 -0.949 0.268 104 77 91 0 0
0.8562 3.6269 -0.2333 -0.272 -0.859 0.433 105 79 92 0 0
0.8792 3.6164 -0.2322 -0.204 -0.964 0.171 112 86 98 0 0
0.8854 3.6155 -0.2321 -0.144 -0.985 -0.096 117 90 102 0 0
0.8917 3.6146 -0.2319 -0.144 -0.985 -0.096 119 92 103 0 0
0.8980 3.6137 -0.2318 -0.124 -0.984 -0.130 112 83 95 0 0
0.9039 3.6115 -0.2315 -0.181 -0.949 -0.260 102 76 86 0 0
0.9105 3.6117 -0.2315 -0.271 -0.951 -0.148 103 76 86 0 0
0.9339 3.6031 -0.2306 -0.077 -0.990 -0.122 105 80 91 0 0
0.9824 3.5920 -0.2291 -0.224 -0.974 -0.018 88 66 74 0 0
0.9884 3.5906 -0.2289 -0.224 -0.974 -0.018 96 72 81 0 0
1.0379 3.5655 -0.2265 -0.268 -0.962 -0.042 136 113 126 0 0
1.0612 3.5585 -0.2257 -0.433 -0.901 -0.007 124 95 109 0 0
1.0670 3.5566 -0.2255 -0.347 -0.938 -0.010 115 86 100 0 0
1.1051 3.5385 -0.2237 -0.185 -0.968 -0.167 118 88 100 0 0
1.1111 3.5372 -0.2235 -0.201 -0.959 -0.199 115 88 99 0 0
1.1276 3.5303 -0.2228 -0.250 -0.964 0.092 124 93 104 0 0
1.1334 3.5288 -0.2226 -0.250 -0.964 0.092 128 98 107 0 0
1.1393 3.5273 -0.2224 -0.250 -0.964 0.092 130 99 110 0 0
1.1775 3.5113 -0.2208 -0.237 -0.933 0.271 125 95 105 0 0
1.2007 3.5056 -0.2201 -0.237 -0.933 0.271 112 85 94 0 0
1.2061 3.5031 -0.2198 -0.412 -0.908 0.072 112 85 95 0 0
1.2121 3.5024 -0.2197 -0.281 -0.960 -0.002 118 90 98 0 0
1.2178 3.5007 -0.2195 -0.301 -0.954 -0.019 124 94 102 0 0
1.2221 3.4960 -0.2191 -0.220 -0.959 0.180 120 88 97 0 0
1.2279 3.4947 -0.2189 -0.220 -0.959 0.180 116 85 93 0 0
1.2335 3.4929 -0.2187 -0.257 -0.955 0.146 113 84 94 0 0
1.2392 3.4914 -0.2185 -0.257 -0.955 0.146 110 81 94 0 0
1.2496 3.4862 -0.2180 -0.367 -0.899 0.239 105 77 88 0 0
1.2765 3.4753 -0.2169 -0.230 -0.973 0.035 118 91 101 0 0
1.2823 3.4742 -0.2167 -0.127 -0.990 0.066 107 82 95 0 0
1.2883 3.4734 -0.2166 -0.127 -0.990 0.066 104 84 96 0 0
1.5199 3.7737 -0.2342 0.111 -0.989 -0.100 91 102 136 0 0
1.5268 3.7739 -0.2341 0.253 -0.951 0.176 91 101 134 0 0
1.5328 3.7721 -0.2339 -0.120 -0.987 0.111 85 94 128 0 0
1.5702 3.7646 -0.2329 -0.569 -0.810 -0.140 110 127 168 0 0
2.1289 4.6969 -0.2898 -0.952 -0.305 0.029 115 121 168 0 0
-3.2618 5.0777 -0.4005 0.112 -0.977 0.183 145 163 206 0 0
-3.2522 5.0769 -0.4003 -0.217 -0.974 0.062 144 162 206 0 0
-3.2372 5.0667 -0.3994 -0.256 -0.860 0.442 143 162 207 0 0
-3.2341 5.0775 -0.4001 -0.553 -0.833 -0.013 143 161 207 0 0
-3.2065 5.0444 -0.3974 0.552 -0.804 0.221 144 161 207 0 0
-3.1996 5.0485 -0.3976 0.554 -0.814 0.176 144 161 206 0 0
-3.1919 5.0512 -0.3976 0.126 -0.973 0.194 143 161 206 0 0
-3.1817 5.0491 -0.3974 -0.481 -0.847 0.225 142 159 204 0 0
-3.1654 5.0361 -0.3962 -0.635 -0.762 0.129 141 158 202 0 0
-3.1199 4.9693 -0.3908 -0.532 -0.805 0.262 139 157 201 0 0
-3.0360 4.9471 -0.3881 -0.144 -0.988 0.046 39 50 67 0 0
-3.0139 4.9734 -0.3896 -0.319 -0.920 0.227 86 94 133 0 0
-3.0029 4.9697 -0.3892 -0.319 -0.920 0.227 96 111 151 0 0
-2.9920 4.9660 -0.3888 -0.347 -0.905 0.247 96 115 154 0 0
-2.9802 4.9607 -0.3883 -0.037 -0.988 0.147 91 103 148 0 0
-2.9551 4.9820 -0.3894 0.317 -0.939 0.136 141 158 204 0 0
-2.9268 4.9441 -0.3863 -0.412 -0.899 0.147 140 160 205 0 0
-2.9255 4.9593 -0.3874 -0.559 -0.824 0.090 142 160 206 0 0
-2.9086 4.9436 -0.3860 -0.160 -0.982 0.105 142 160 206 0 0
-2.8988 4.9421 -0.3858 -0.160 -0.982 0.105 143 160 205 0 0
-2.8859 4.9342 -0.3851 -0.430 -0.901 -0.065 144 162 207 0 0
-2.8451 4.9422 -0.3851 -0.157 -0.888 0.433 147 163 210 0 0
-2.7814 4.9031 -0.3814 -0.381 -0.925 0.014 147 165 209 0 0
-2.7181 4.9010 -0.3804 -0.541 -0.837 0.084 152 169 213 0 0
-2.7052 4.8925 -0.3796 -0.539 -0.842 0.042 149 167 208 0 0
-2.6926 4.8844 -0.3788 -0.539 -0.842 0.042 111 123 159 0 0
-2.6810 4.8787 -0.3783 -0.419 -0.905 0.072 105 94 117 0 0
-2.6721 4.8786 -0.3781 -0.179 -0.980 0.084 104 89 105 0 0
-2.6649 4.8821 -0.3783 -0.017 -0.993 0.116 101 85 102 0 0
-1.2685 4.2611 -0.3146 0.790 -0.182 -0.586 129 80 92 0 0
-1.2679 4.2952 -0.3170 0.250 -0.216 -0.944 128 79 93 0 0
-1.1661 4.1711 -0.3068 -0.292 -0.785 0.546 115 67 84 0 0
-1.1580 4.1683 -0.3065 -0.292 -0.785 0.546 115 67 83 0 0
-1.1495 4.1637 -0.3060 0.607 -0.778 0.162 115 67 81 0 0
-1.1132 4.0492 -0.2974 0.355 -0.883 0.308 112 64 78 0 0
-1.0586 4.0318 -0.2954 -0.520 -0.729 0.445 112 58 72 0 0
-0.8119 3.9292 -0.2846 -0.483 -0.875 -0.016 110 63 77 0 0
-0.8042 3.9239 -0.2842 -0.518 -0.855 0.007 110 62 77 0 0
-0.7965 3.9193 -0.2837 -0.518 -0.855 0.007 108 62 77 0 0
-0.7894 3.9852 -0.2883 0.550 -0.197 0.811 110 61 74 0 0
-0.7842 4.0043 -0.2896 0.538 -0.197 0.820 108 60 75 0 0
-0.7431 3.9568 -0.2856 0.821 -0.198 -0.535 109 61 74 0 0
-0.6073 3.8641 -0.2772 -0.337 -0.935 -0.114 112 61 75 0 0
-0.5742 3.9008 -0.2793 0.886 -0.362 -0.289 111 58 73 0 0
-0.5657 3.8755 -0.2774 -0.632 -0.773 -0.058 111 59 72 0 0
-0.5286 3.8367 -0.2741 -0.296 -0.739 0.605 112 57 72 0 0
-0.4444 3.8247 -0.2721 -0.387 -0.903 0.187 106 53 66 0 0
-0.4374 3.8212 -0.2717 -0.184 -0.956 0.229 106 53 67 0 0
-0.4234 3.8186 -0.2714 -0.362 -0.932 -0.001 103 52 65 0 0
-0.1864 3.8326 -0.2691 -0.416 -0.731 0.541 122 63 74 0 0
-0.1525 3.8125 -0.2671 0.003 -0.750 0.661 120 62 73 0 0
-0.0916 3.7886 -0.2646 -0.374 -0.923 -0.086 124 65 78 0 0
-0.0298 3.7845 -0.2634 0.309 -0.794 0.523 119 63 75 0 0
-0.0102 3.7725 -0.2623 -0.435 -0.885 0.168 120 63 75 0 0
-0.0037 3.7679 -0.2619 -0.786 -0.605 -0.126 119 63 75 0 0
0.0025 3.7598 -0.2612 -0.786 -0.605 -0.126 118 64 77 0 0
0.0084 3.7499 -0.2605 -0.720 -0.683 -0.119 118 64 78 0 0
0.0629 3.7488 -0.2596 -0.167 -0.936 0.311 120 64 76 0 0
0.0696 3.7473 -0.2594 -0.210 -0.913 0.349 120 64 75 0 0
0.1295 3.7354 -0.2577 -0.107 -0.889 0.445 114 59 72 0 0
0.1282 3.6157 -0.2492 -0.171 -0.926 0.336 112 57 69 0 0
0.1347 3.6152 -0.2491 -0.251 -0.889 0.382 109 59 70 0 0
0.1662 3.6043 -0.2479 0.214 -0.848 0.485 109 58 66 0 0
0.1730 3.6057 -0.2479 0.238 -0.846 0.476 108 58 65 0 0
0.1799 3.6084 -0.2480 0.174 -0.824 0.539 107 57 68 0 0
0.1867 3.6098 -0.2480 -0.382 -0.903 0.195 110 59 66 0 0
0.2134 3.6128 -0.2478 -0.071 -0.787 -0.613 112 59 67 0 0
0.2199 3.6118 -0.2477 0.381 -0.875 -0.300 115 61 69 0 0
0.2269 3.6149 -0.2478 0.381 -0.875 -0.300 117 62 70 0 0
0.2738 3.5794 -0.2446 -0.063 -0.933 0.355 113 60 72 0 0
0.2800 3.5776 -0.2444 -0.199 -0.909 0.367 115 60 71 0 0
0.2866 3.5783 -0.2444 -0.415 -0.698 0.584 115 60 72 0 0
0.3739 3.7701 -0.2568 0.616 -0.588 0.525 128 80 98 0 0
0.3909 3.7879 -0.2578 0.310 -0.886 0.344 113 80 103 0 0
0.4051 3.7901 -0.2578 0.075 -0.994 -0.077 125 96 119 0 0
0.4129 3.7947 -0.2580 -0.208 -0.968 -0.137 125 99 120 0 0
0.4462 3.7884 -0.2571 -0.271 -0.957 -0.103 93 69 89 0 0
0.4640 3.7746 -0.2559 -0.259 -0.948 -0.184 105 79 93 0 0
0.4705 3.7728 -0.2556 -0.259 -0.948 -0.184 106 80 93 0 0
0.4834 3.7692 -0.2552 -0.259 -0.948 -0.184 97 71 85 0 0
0.5220 3.7574 -0.2538 -0.260 -0.955 0.146 113 81 93 0 0
0.5536 3.7466 -0.2526 -0.058 -0.996 -0.061 113 83 95 0 0
0.5604 3.7462 -0.2525 -0.058 -0.996 -0.061 92 67 84 0 0
0.5669 3.7451 -0.2523 -0.149 -0.987 -0.068 94 82 102 0 0
0.5732 3.7429 -0.2521 -0.063 -0.986 0.152 103 92 111 0 0
0.5804 3.7444 -0.2521 -0.010 -1.000 0.014 99 83 101 0 0
0.5976 3.7312 -0.2509 -0.240 -0.963 -0.125 96 79 96 0 0
0.6040 3.7296 -0.2507 -0.240 -0.963 -0.125 96 75 91 0 0
0.6219 3.7198 -0.2498 -0.138 -0.989 -0.050 94 69 81 0 0
0.6284 3.7188 -0.2496 -0.138 -0.989 -0.050 93 68 80 0 0
0.6350 3.7179 -0.2494 -0.138 -0.989 -0.050 88 64 74 0 0
0.6415 3.7170 -0.2493 -0.138 -0.989 -0.050 88 64 74 0 0
0.6544 3.7145 -0.2489 -0.254 -0.952 -0.174 88 67 76 0 0
0.6607 3.7128 -0.2487 -0.254 -0.952 -0.174 86 65 76 0 0
0.6731 3.7087 -0.2483 -0.226 -0.877 -0.424 94 72 82 0 0
0.6794 3.7070 -0.2480 -0.226 -0.877 -0.424 95 69 79 0 0
0.7037 3.6969 -0.2470 -0.328 -0.837 -0.438 70 50 59 0 0
0.7504 3.6724 -0.2446 -0.275 -0.949 -0.156 85 64 75 0 0
0.7567 3.6710 -0.2444 -0.258 -0.936 -0.239 91 72 83 0 0
0.7628 3.6691 -0.2442 -0.298 -0.945 -0.136 85 68 83 0 0
0.8038 3.6499 -0.2423 -0.268 -0.941 -0.208 120 94 107 0 0
0.8155 3.6447 -0.2417 -0.422 -0.907 -0.019 119 93 105 0 0
0.8213 3.6420 -0.2414 -0.422 -0.907 -0.019 117 94 104 0 0
0.8507 3.6304 -0.2402 0.041 -0.998 0.057 107 81 96 0 0
0.8567 3.6285 -0.2400 -0.102 -0.974 -0.204 99 76 89 0 0
0.8983 3.6144 -0.2384 -0.181 -0.949 -0.260 89 67 75 0 0
0.9045 3.6132 -0.2382 -0.181 -0.949 -0.260 94 75 82 0 0
0.9109 3.6127 -0.2381 -0.271 -0.951 -0.148 102 81 90 0 0
0.9530 3.6014 -0.2367 -0.098 -0.995 -0.033 98 76 87 0 0
0.9598 3.6021 -0.2367 -0.221 -0.961 -0.169 104 82 94 0 0
1.0439 3.5641 -0.2328 -0.268 -0.962 -0.042 130 106 118 0 0
1.0670 3.5567 -0.2319 -0.347 -0.938 -0.010 120 92 107 0 0
1.0724 3.5539 -0.2317 -0.391 -0.919 -0.045 108 79 95 0 0
1.0780 3.5515 -0.2314 -0.391 -0.919 -0.045 111 82 95 0 0
1.0834 3.5489 -0.2312 -0.393 -0.920 -0.008 113 85 97 0 0
1.0997 3.5410 -0.2304 -0.201 -0.959 -0.199 109 81 97 0 0
1.1116 3.5384 -0.2300 -0.201 -0.959 -0.199 107 83 95 0 0
1.1564 3.5221 -0.2282 -0.412 -0.910 0.032 113 85 99 0 0
1.1898 3.5098 -0.2269 -0.390 -0.920 -0.024 109 83 97 0 0
1.1954 3.5079 -0.2267 -0.301 -0.954 -0.019 109 83 96 0 0
1.2010 3.5061 -0.2265 -0.301 -0.954 -0.019 103 76 88 0 0
1.2066 3.5044 -0.2263 -0.301 -0.954 -0.019 103 78 91 0 0
1.2123 3.5026 -0.2261 -0.301 -0.954 -0.019 107 81 92 0 0
1.2179 3.5008 -0.2259 -0.301 -0.954 -0.019 110 82 91 0 0
1.2235 3.4990 -0.2257 -0.301 -0.954 -0.019 110 82 91 0 0
1.2291 3.4973 -0.2255 -0.301 -0.954 -0.019 108 81 90 0 0
1.2346 3.4952 -0.2252 -0.339 -0.938 0.075 111 84 95 0 0
1.2823 3.4740 -0.2231 -0.136 -0.985 0.103 106 85 99 0 0
1.2880 3.4725 -0.2229 -0.098 -0.985 0.141 106 84 100 0 0
1.5590 3.7696 -0.2402 -0.006 -0.996 0.088 74 90 123 0 0
1.5706 3.7653 -0.2398 -0.546 -0.827 -0.137 109 126 168 0 0
2.1288 4.6965 -0.2983 -0.945 -0.326 0.029 115 122 170 0 0
2.1338 4.6899 -0.2977 -0.866 -0.495 0.068 102 115 154 0 0
-3.2516 5.0762 -0.4094 -0.217 -0.974 0.062 144 161 204 0 0
-3.2346 5.0623 -0.4082 -0.414 -0.816 0.404 143 161 206 0 0
-3.2221 5.0562 -0.4076 -0.414 -0.816 0.404 143 160 206 0 0
-3.2095 5.0502 -0.4070 -0.414 -0.816 0.404 143 161 207 0 0
-3.1983 5.0465 -0.4065 -0.285 -0.860 0.424 143 161 207 0 0
-3.1914 5.0506 -0.4067 0.177 -0.982 0.063 141 160 205 0 0
-3.1789 5.0445 -0.4061 -0.556 -0.796 0.239 141 160 203 0 0
-3.1644 5.0347 -0.4052 -0.625 -0.778 0.061 141 158 203 0 0
-3.1172 4.9648 -0.3994 -0.532 -0.805 0.262 139 157 202 0 0
-3.0529 4.9623 -0.3984 0.405 -0.890 0.211 37 46 61 0 0
-3.0356 4.9467 -0.3970 -0.144 -0.988 0.046 41 49 66 0 0
-3.0123 4.9707 -0.3984 -0.319 -0.920 0.227 90 99 139 0 0
-3.0013 4.9670 -0.3980 -0.319 -0.920 0.227 100 115 156 0 0
-2.9902 4.9630 -0.3975 -0.347 -0.905 0.247 99 117 159 0 0
-2.9798 4.9603 -0.3972 -0.282 -0.959 0.041 98 109 156 0 0
-2.9252 4.9414 -0.3951 -0.410 -0.909 0.074 142 161 204 0 0
-2.9232 4.9551 -0.3960 -0.324 -0.943 -0.075 142 162 205 0 0
-2.9076 4.9419 -0.3948 -0.028 -0.998 -0.048 142 161 205 0 0
-2.8996 4.9439 -0.3949 -0.357 -0.924 -0.136 144 160 206 0 0
-2.8863 4.9352 -0.3941 -0.374 -0.923 -0.088 144 161 206 0 0
-2.8665 4.9316 -0.3935 0.397 -0.913 0.087 145 162 207 0 0
-2.8491 4.9325 -0.3933 0.212 -0.932 0.292 147 164 208 0 0
-2.8078 4.9031 -0.3906 0.149 -0.969 -0.196 147 165 209 0 0
-2.7900 4.9030 -0.3904 -0.151 -0.988 0.025 147 164 208 0 0
-2.7810 4.9028 -0.3902 0.032 -0.999 -0.008 147 164 208 0 0
-2.7162 4.8973 -0.3889 -0.472 -0.871 0.137 153 168 213 0 0
-2.7043 4.8909 -0.3883 -0.472 -0.871 0.137 147 166 208 0 0
-2.6918 4.8831 -0.3876 -0.457 -0.886 0.085 109 120 156 0 0
-2.6804 4.8777 -0.3870 -0.419 -0.905 0.072 106 94 115 0 0
-2.6642 4.8810 -0.3870 -0.017 -0.993 0.116 102 87 107 0 0
-1.7081 4.2552 -0.3281 0.180 -0.803 0.569 129 75 88 0 0
-1.5453 4.2821 -0.3277 -0.611 -0.717 0.335 123 69 83 0 0
-1.5160 4.2892 -0.3279 -0.132 -0.797 0.589 128 74 88 0 0
-1.1186 4.0391 -0.3041 0.435 -0.883 0.177 136 82 96 0 0
-1.1123 4.0451 -0.3044 0.400 -0.825 0.400 134 81 96 0 0
-1.0892 4.0391 -0.3037 -0.047 -0.808 0.588 145 91 106 0 0
-1.0811 4.0353 -0.3033 -0.339 -0.715 0.611 146 91 106 0 0
-0.8107 3.9193 -0.2910 -0.238 -0.837 -0.492 134 84 99 0 0
-0.8020 3.9062 -0.2900 -0.526 -0.818 -0.233 134 84 101 0 0
-0.7967 3.9221 -0.2911 -0.718 -0.684 -0.126 132 84 99 0 0
-0.6474 3.8376 -0.2828 0.588 -0.759 0.279 141 90 103 0 0
-0.6333 3.8360 -0.2825 0.480 -0.814 0.327 142 90 107 0 0
-0.5430 3.8463 -0.2820 -0.574 -0.785 0.234 151 97 113 0 0
-0.4789 3.8188 -0.2791 0.115 -0.688 0.717 146 93 107 0 0
-0.4649 3.8153 -0.2786 -0.386 -0.612 0.690 149 94 108 0 0
-0.4442 3.8214 -0.2788 0.318 -0.867 0.384 149 93 108 0 0
-0.4373 3.8239 -0.2789 0.221 -0.842 0.492 149 94 108 0 0
-0.4303 3.8193 -0.2785 0.472 -0.835 0.282 147 93 108 0 0
-0.4233 3.8187 -0.2783 -0.397 -0.912 -0.104 146 90 105 0 0
-0.4093 3.8119 -0.2776 -0.751 -0.612 0.248 147 94 107 0 0
-0.4022 3.8038 -0.2769 -0.689 -0.623 0.371 148 95 108 0 0
-0.3883 3.8005 -0.2765 -0.422 -0.896 0.140 146 91 104 0 0
-0.3813 3.7943 -0.2759 -0.406 -0.892 -0.197 146 92 104 0 0
-0.3744 3.7957 -0.2760 -0.468 -0.797 0.382 146 93 104 0 0
-0.1864 3.8301 -0.2758 -0.498 -0.804 0.325 145 91 107 0 0
-0.1457 3.8073 -0.2736 0.316 -0.833 0.455 149 94 110 0 0
-0.0914 3.7892 -0.2715 -0.374 -0.923 -0.086 147 95 109 0 0
0.0025 3.7594 -0.2681 -0.804 -0.594 -0.004 144 90 102 0 0
0.0277 3.7364 -0.2660 -0.575 -0.760 0.303 141 88 101 0 0
0.0627 3.7463 -0.2663 -0.210 -0.913 0.349 140 87 99 0 0
0.0694 3.7448 -0.2661 -0.210 -0.913 0.349 140 86 101 0 0
0.1134 3.7134 -0.2631 -0.160 -0.796 0.584 135 81 93 0 0
0.1199 3.7113 -0.2629 -0.270 -0.828 0.492 135 81 92 0 0
0.1293 3.7330 -0.2644 -0.104 -0.969 0.225 133 81 93 0 0
0.1207 3.6075 -0.2553 0.289 -0.957 0.034 130 78 91 0 0
0.1281 3.6142 -0.2557 -0.395 -0.894 0.211 128 76 89 0 0
0.1920 3.6004 -0.2538 -0.624 -0.597 0.504 113 76 90 0 0
0.2496 3.6331 -0.2554 -0.981 -0.192 -0.026 129 79 94 0 0
0.2796 3.5751 -0.2507 -0.199 -0.909 0.367 122 77 92 0 0
0.2915 3.5681 -0.2501 -0.044 -0.539 0.841 118 73 88 0 0
0.2959 3.5563 -0.2491 0.505 -0.470 0.724 119 72 88 0 0
0.3905 3.7851 -0.2645 0.524 -0.834 0.172 122 88 112 0 0
0.4053 3.7907 -0.2647 0.075 -0.994 -0.077 124 98 121 0 0
0.4131 3.7951 -0.2649 -0.033 -0.969 -0.247 120 95 117 0 0
0.4458 3.7865 -0.2638 -0.136 -0.988 0.070 97 71 91 0 0
0.5467 3.7457 -0.2595 -0.176 -0.930 0.324 113 83 95 0 0
0.5603 3.7454 -0.2593 -0.098 -0.984 0.146 107 87 105 0 0
0.5663 3.7423 -0.2589 -0.063 -0.986 0.152 110 98 118 0 0
0.6221 3.7204 -0.2566 -0.185 -0.977 0.103 115 98 119 0 0
0.6353 3.7189 -0.2563 -0.043 -0.996 0.078 114 95 114 0 0
0.6420 3.7186 -0.2562 -0.043 -0.996 0.078 103 84 102 0 0
0.6487 3.7183 -0.2560 -0.043 -0.996 0.078 89 75 90 0 0
0.6554 3.7181 -0.2559 -0.043 -0.996 0.078 77 63 76 0 0
0.6614 3.7152 -0.2556 -0.255 -0.959 -0.124 66 51 64 0 0
0.7570 3.6719 -0.2512 -0.220 -0.975 -0.021 63 47 61 0 0
0.7632 3.6700 -0.2509 -0.243 -0.964 0.104 71 58 74 0 0
0.8214 3.6421 -0.2481 -0.422 -0.907 -0.019 80 56 63 0 0
0.8451 3.6333 -0.2471 -0.330 -0.935 -0.129 95 71 82 0 0
0.8572 3.6298 -0.2467 -0.102 -0.974 -0.204 95 75 86 0 0
0.9107 3.6120 -0.2446 -0.332 -0.933 -0.141 73 56 61 0 0
0.9280 3.6048 -0.2439 -0.146 -0.972 -0.184 79 56 64 0 0
0.9531 3.6016 -0.2433 -0.098 -0.995 -0.033 98 78 88 0 0
0.9599 3.6021 -0.2432 -0.222 -0.975 -0.019 102 81 92 0 0
0.9658 3.6003 -0.2430 -0.315 -0.945 -0.084 110 90 103 0 0
1.0441 3.5643 -0.2393 -0.277 -0.925 -0.260 105 81 92 0 0
1.0499 3.5627 -0.2391 -0.268 -0.962 -0.042 106 82 95 0 0
1.0944 3.5438 -0.2371 -0.434 -0.899 -0.057 108 84 98 0 0
1.1114 3.5377 -0.2364 -0.342 -0.936 -0.082 108 83 97 0 0
1.1828 3.5084 -0.2333 -0.233 -0.971 -0.054 113 87 102 0 0
1.1898 3.5098 -0.2333 -0.301 -0.954 -0.019 112 87 102 0 0
1.1955 3.5080 -0.2331 -0.301 -0.954 -0.019 112 88 102 0 0
1.2011 3.5062 -0.2329 -0.301 -0.954 -0.019 112 86 101 0 0
1.2067 3.5045 -0.2327 -0.301 -0.954 -0.019 112 87 102 0 0
1.2123 3.5027 -0.2325 -0.301 -0.954 -0.019 114 89 103 0 0
1.2180 3.5009 -0.2323 -0.301 -0.954 -0.019 115 90 104 0 0
1.2236 3.4991 -0.2321 -0.301 -0.954 -0.019 117 92 103 0 0
1.2292 3.4974 -0.2318 -0.301 -0.954 -0.019 117 90 102 0 0
1.2348 3.4956 -0.2316 -0.301 -0.954 -0.019 115 89 103 0 0
1.2391 3.4909 -0.2312 -0.358 -0.934 0.001 115 91 103 0 0
1.3987 3.5325 -0.2320 0.015 -0.714 -0.700 89 96 128 0 0
1.5387 3.7699 -0.2474 -0.120 -0.987 0.111 95 107 141 0 0
1.5588 3.7690 -0.2471 -0.006 -0.996 0.088 70 86 118 0 0
2.1286 4.6962 -0.3067 -0.945 -0.326 0.029 118 123 171 0 0
2.1321 4.6865 -0.3060 -0.916 -0.400 -0.005 103 116 155 0 0
-3.2510 5.0755 -0.4186 -0.217 -0.974 0.062 143 160 203 0 0
-3.2405 5.0732 -0.4182 -0.217 -0.974 0.062 142 161 204 0 0
-3.2300 5.0709 -0.4179 -0.217 -0.974 0.062 143 161 205 0 0
-3.2049 5.0422 -0.4154 0.296 -0.888 0.351 143 161 207 0 0
-3.2037 5.0565 -0.4165 0.229 -0.861 0.453 142 161 207 0 0
-3.1987 5.0641 -0.4170 0.016 -0.979 -0.201 141 160 204 0 0
-3.1796 5.0461 -0.4154 -0.625 -0.778 0.061 140 158 202 0 0
-3.1634 5.0332 -0.4142 -0.625 -0.778 0.061 140 157 202 0 0
-3.1145 4.9602 -0.4080 -0.532 -0.805 0.262 137 157 200 0 0
-3.0518 4.9607 -0.4072 0.405 -0.890 0.211 39 47 64 0 0
-3.0351 4.9462 -0.4059 -0.144 -0.988 0.046 41 49 68 0 0
-3.0108 4.9682 -0.4072 -0.347 -0.905 0.247 94 103 144 0 0
-2.9996 4.9641 -0.4067 -0.347 -0.905 0.247 102 119 161 0 0
-2.9884 4.9599 -0.4063 -0.347 -0.905 0.247 98 118 159 0 0
-2.9778 4.9567 -0.4059 -0.313 -0.920 0.237 100 113 159 0 0
-2.9245 4.9403 -0.4039 -0.410 -0.909 0.074 142 159 205 0 0
-2.9234 4.9559 -0.4051 -0.324 -0.943 -0.075 142 160 206 0 0
-2.9125 4.9520 -0.4046 -0.446 -0.893 -0.063 142 160 206 0 0
-2.9052 4.9553 -0.4048 0.097 -0.995 0.011 144 162 205 0 0
-2.8874 4.9379 -0.4032 -0.142 -0.964 -0.224 145 162 206 0 0
-2.8711 4.9412 -0.4032 -0.186 -0.977 0.104 145 164 207 0 0
-2.8618 4.9404 -0.4030 -0.120 -0.987 0.107 146 163 206 0 0
-2.8470 4.9285 -0.4019 0.277 -0.880 0.387 146 164 208 0 0
-2.8400 4.9325 -0.4021 0.044 -0.924 0.380 146 164 210 0 0
-2.7590 4.8944 -0.3982 -0.071 -0.995 0.075 148 165 209 0 0
-2.7151 4.8953 -0.3976 -0.472 -0.871 0.137 152 169 212 0 0
-2.7032 4.8890 -0.3970 -0.472 -0.871 0.137 143 162 204 0 0
