ply
format ascii 1.0
element vertex 705
property float x
property float y
property float z
property uchar diffuse_red
property uchar diffuse_green
property uchar diffuse_blue
end_header
0.017755221777358172 5.9148877306716585 -0.7954703582374313 131 118 50
-0.3394579992339851 6.112549303967883 -0.7707400029893541 146 124 111
-11.605303596948492 40.300363772941836 9.800923888272793 34 36 31
-0.6652293402014335 4.009608611664205 -1.4406447362016694 96 38 18
1.298304899796343 4.185747639503929 -0.8205204043980484 13 18 21
-1.3624271741331309 4.545808912688189 -1.134154867601446 133 42 24
-9.51431183186745 43.284128586003156 11.44636966720008 15 19 18
-3.6907907985731017 5.031247507882101 -1.2047183005992432 16 16 18
0.05603676050283621 6.449204354591523 -0.806854562582072 115 61 49
-1.676251605714796 4.5099137637605615 -1.4570435713551881 49 15 5
-1.1706132148668802 4.957448892593842 -1.0840560267586 38 28 27
-3.0660774032717746 6.42193856573291 0.21500544441268885 68 26 12
-3.2218658792410424 5.187235236788714 -0.09941569404583192 109 105 106
-0.8151762537675028 5.9810489816665635 -0.17099817678020013 179 182 191
-0.8614121698959379 6.082553574129667 -0.5275629097833798 145 126 122
-2.8027931085381983 4.763467425701661 -0.7425036487776705 133 133 135
-0.43685995117382026 6.531927444503257 -0.8147714657159094 182 168 167
-0.9359091268113374 5.637558424270724 0.6799263667050788 34 22 26
-0.6243335451883651 4.081037687902959 -1.5683589011181476 35 4 0
-0.797990844384085 5.962045924521597 -0.030941508942994075 138 134 131
-0.235474077660637 5.067024177603422 -1.3236978212811337 17 7 6
-1.0667533682074588 7.114706351756039 1.78863817842214 18 19 23
-1.3061601178270255 5.177752076155818 0.975934303019569 125 109 109
-1.4431729062866172 5.520561887743506 0.1585924724155046 99 87 75
-1.184403914211701 5.349220087703884 0.882345112616603 254 254 254
1.6835824841769655 4.231369492495059 -0.06903247051580194 173 183 182
1.6217820792063633 4.064765455029147 -0.920281954854481 26 35 44
-1.4372116871701026 4.528578241989787 -1.3904753726396715 23 18 15
-1.5202052275823417 5.753800573017118 -0.26436777833281794 102 77 72
-2.08911227371474 5.199770376664176 -0.6780258082068013 164 155 150
-0.8416527335797381 4.587935592906016 -1.423562489802578 33 10 2
-0.6427569435094067 5.450360605769371 1.3162621188956218 133 130 137
-1.047570468133572 4.812109677107906 -1.1241145983551806 34 30 27
-1.4310583889242927 4.510832951748453 -1.2318183422273592 50 41 42
-3.045256708597219 4.841316436526139 0.29298890245385956 24 27 36
3.705392986993333 3.916857557637022 -1.1394382304215804 94 67 60
2.162586590550692 4.1093120855026815 -1.1864875139061615 235 248 241
-2.496406387905541 4.597142652102272 0.3970452041641321 139 134 131
-1.2485044374274281 4.820455697477002 -0.9886030370175624 47 19 8
-2.6448245720509327 4.408537444327953 0.6618404118425666 54 48 48
-1.074631421143152 4.634181225679995 -1.3476392699945117 57 32 28
-2.1001448592125693 5.338586747147644 -0.9391281536370742 133 122 92
-3.7078008244779035 5.875872674589268 -0.18330687056177528 23 24 29
-0.41952293640468796 5.935043919510129 0.768919994371794 167 150 143
-1.6033691377534092 5.311796204399472 0.29937450968381435 180 182 197
-0.7790945466437459 5.012271300491996 -1.064707937953647 44 33 31
1.653494734172211 4.208172262962784 -0.0851668405221226 169 178 177
-2.721336282365908 4.537036754563553 -0.2519224317146328 128 128 140
-0.5917321547875317 4.930586385550237 -1.1337935674984996 167 155 141
-0.4483858831756886 5.182454024879571 -0.9574437614547646 110 105 101
6.180589899666867 18.169050024241383 1.3120554076051816 55 122 165
-1.0121782997212896 7.347854926527757 1.8196195048053765 87 88 90
-0.9111771175763361 4.56710172718132 -1.548111533741642 88 31 11
-0.09562317584618743 6.412965486853193 0.4348380148067118 141 131 130
-1.4973912222048618 4.516044315097737 -1.3000160697436753 49 38 34
-1.3106665700251396 4.632942290908457 -1.5216290392358205 73 21 8
1.1962980251419182 4.287293575636514 -0.20982835044511988 255 239 247
4.4966286284926795 4.23389897124707 0.4333604373559663 86 112 139
-3.2110411944962896 5.042328413695516 0.18497629616754252 100 91 96
-1.0951746206268125 5.573650693840196 0.6493064594285946 110 88 90
2.840577893125255 3.060883766158404 -0.24235402760620534 39 44 48
-0.9881687566784492 5.668298211433677 0.8833106616700623 61 16 19
-3.133917527791218 5.108616994201653 0.13199594151648206 89 85 86
1.6094484888602651 3.672612405054635 0.1373395107810643 123 118 114
-3.3988882383511974 4.752036706376128 1.1060861962433581 109 68 72
-0.9628701311031356 5.636466246330989 1.0734850090013086 23 9 6
-0.24986662957499436 6.246535380897764 0.5834477184297955 220 211 214
3.4901683034928324 3.7653470835261045 -0.042183035757501534 142 124 114
2.2351510881407886 3.8115999378596754 2.1581945396015954 58 58 60
0.409448482920956 6.6217250827656295 1.224408229293634 152 176 210
1.7987861502803961 4.549978130796774 1.1136139611022502 184 189 192
-0.34568794380439866 4.625523095200781 -1.484486901444711 32 8 4
-0.43848103968815905 6.055340166059828 0.3807774842626773 149 149 157
0.3314679165083986 5.420594715056344 -0.9371365700909245 96 96 84
-1.2605833750340059 5.782689384032846 -0.41578186128669975 195 167 153
-0.2516381883063363 6.18817948466464 0.7795904245731629 192 177 174
2.4071534597382485 3.9915686846828433 -0.7876336940699564 171 208 226
-0.7123338032469695 6.261636162428906 -0.4605355606163442 12 12 12
-1.1706132148668802 4.957448892593842 -1.0840560267586 38 28 27
-2.2757113884711475 5.267096485168252 -0.040427359051180556 182 189 158
-0.12994730612273095 6.109893605269901 -0.7609559866424456 160 139 146
1.6552818178689326 4.525067933907644 1.5274942154599473 30 41 59
-1.200458341336756 5.366109571309519 0.618163690722383 211 176 157
1.2450554524920288 4.263668769088945 -0.2622601266720424 21 25 26
2.254300884392282 4.0349512698039645 -0.9104760938628356 201 219 221
1.2138958328761922 4.222072437821042 -0.7344549193208783 21 46 77
-0.9618216692113613 5.015815718887592 -1.0220210787479964 112 94 82
-0.47863673401988055 6.29412094423742 -0.4696841241836367 41 60 75
-0.8758091774349208 6.11404664681672 -0.633833033683621 180 180 180
3.073124401758516 4.3854481647444 0.0707945996367439 49 128 167
0.9945342060663933 4.137523938750669 -1.4686791388851803 113 110 103
-0.9109604655446916 5.171417672630554 -1.0037322496053267 69 59 60
2.2273901948434873 3.98566402499927 -1.085612606028618 236 247 243
0.722453315317363 5.3572224236348465 -0.6362419932102166 230 238 249
-1.5493737663942593 5.542500828190628 0.12519348585275275 201 207 223
-1.4996635110295928 4.442842491212534 -1.1627929776225043 51 41 40
-1.3674459502482117 4.366626978419818 -0.8207305575471097 14 8 12
2.203469065874041 4.035079927717976 -0.8224435691059946 27 45 57
-4.057116788967553 4.6910410235016196 -1.0248163855430616 15 17 16
-2.097600408313967 5.165129639498883 -1.1702311951474962 67 50 40
-1.3874662234892008 5.219621702477233 0.5919020289874855 115 95 88
3.4989768565611388 3.903572037493477 2.0317614347615325 67 67 77
-0.003605875657916595 6.344947113745592 0.9064130278314162 157 155 156
-1.1510971661524758 4.870344174167679 -1.135279452702805 80 61 54
-0.6237550571798359 6.162496852416461 -0.21487502774402442 150 140 141
-1.6177301631574783 5.205847128169279 0.542865291305944 177 178 199
-2.7464791539338664 4.734776355449057 -0.5317444334226885 141 140 145
1.7483632125243171 4.35626674150547 1.7571426100724192 183 193 195
-0.4681257834500707 6.1815082557097805 -0.1493663246862537 59 85 102
0.28614020750047947 6.468183153104621 1.0423836074731079 37 45 66
3.630580207312099 4.090925240963567 0.45859692544220887 202 216 219
-0.07630603879089295 6.492140884124729 0.33537218176432365 197 209 223
-2.2030637333286522 5.4311556969726915 0.07739847868676832 78 74 75
-1.541674626508716 4.420341378450557 -0.7843063744250743 35 25 26
-0.18489317852781403 6.4313853812778765 0.33462068205128537 189 162 153
-0.4504469645324455 6.632788968152169 1.5081866766154757 61 61 59
-2.4227943732076915 4.842320771839784 0.05584527256701118 161 161 159
2.1178980443354973 4.362548680172445 0.1565838903643536 26 101 156
1.6292007264904238 3.3350124777093235 -0.23445141438062236 34 54 89
0.7859228881824805 4.1642641754660765 -1.6317412605713464 81 37 26
2.7777018628091614 3.802609748959323 -0.9508880210468861 235 247 243
-0.6594454625562955 6.147160459514852 -0.0727496966792385 230 234 243
-1.5680519009614038 4.394014563672288 -0.5900787013343487 26 22 23
1.4096690504547165 3.5723646295431886 -0.5219966829857442 145 155 180
1.7877294068880232 4.32857452246622 0.031199503150943234 134 116 106
-0.866508954086912 6.035533802950334 -0.5539912833804833 148 135 127
-0.14206020843988004 6.350662666378835 -0.7335511374361479 143 118 113
1.4616125778712599 4.355557047245363 0.00798850149312185 31 37 49
-1.3057332323343491 5.402553140556113 1.0635326084097032 190 168 155
0.7363080657748127 5.334937598825364 -0.38023643518610684 50 174 234
-2.209599218364028 5.06669730131733 -0.8384314488422263 141 130 100
-0.7508158920248634 5.964825492834587 -0.12475209180787272 167 148 141
-0.6180544054615581 6.2706216382748154 -0.5732300799818113 165 163 168
1.0826808078564654 4.118284910351883 -1.4181946602490152 155 138 118
0.5996812720497018 5.414629905479614 -0.5364931135921147 13 12 20
-2.1579053692814747 5.037141709847843 -0.6800079319592162 44 34 24
1.461335276717479 4.014816518711769 -1.6538389670685938 119 104 85
1.5288015887270259 3.85217154299317 -1.5111134746200636 168 160 149
-0.17498422833874955 6.241343091231972 0.8445762081701962 215 195 194
-2.558307573355827 4.574923575593224 0.5119527406804173 160 162 161
0.9912207506889463 4.443782248312008 2.177238884447926 152 148 137
1.0310145423057833 4.062544206598526 -1.5850519000362822 84 79 73
-4.10777872866975 54.373460568939 16.19755232585637 59 51 48
-1.0464022136109365 6.1841665453107035 -0.7634494690890979 80 70 69
4.214420724106124 3.559258007646806 1.827158731245477 70 71 75
-4.1823527666993305 4.952851560816983 -0.9837614467789222 22 27 30
3.4662580983219615 3.761679528479744 1.8640658448573237 200 209 216
1.7319936629014017 4.063339535892501 -1.0854654964643073 232 243 237
-0.6204119143848603 4.270480585780594 -1.7019157866506587 45 20 13
-1.3131654016988934 4.3523470773538255 -0.6723504155865305 57 47 48
-0.021059580824013806 6.313561525898715 1.0294804887110223 153 148 155
-3.666649156157547 5.630923440587619 0.13137726128753252 133 131 132
-2.3253058294592255 4.965360036162079 -0.2957280128393437 40 35 29
-0.22301560155687197 5.384228707069691 -0.878191479502258 51 35 36
-1.2445420439628434 5.235597079842112 0.7216098710248668 207 196 200
0.0023683509433781833 3.7281130570079943 -1.6121396622668769 101 43 19
-0.10737259116517237 5.969299306631883 1.358413792511191 135 127 125
-0.9526295851331371 6.032292504699932 -0.7780716170288178 176 170 172
-1.3615395894252162 4.277390535110196 -0.5132250811789753 25 8 1
2.309982346197461 4.086452630214118 1.9977553759473952 197 201 202
-0.49432250666235045 6.219144909359143 -0.35515704246338253 47 65 75
1.5539277125253312 3.9963949634009674 -0.15871321309072703 17 19 18
3.1342338102639635 3.7721365122892165 1.940128780760914 59 63 66
1.0293486956731734 4.0713779795480765 -1.589004267578878 84 79 73
-0.18768034981074955 5.1664656964560605 -1.0224793270023365 102 82 58
-0.5709939876270219 5.840311915627221 0.5200842488773195 19 19 21
2.7417729291163124 3.995017542292025 1.953258907391376 201 100 82
-0.1992875172792988 6.365483452485775 0.3705000186146064 168 136 137
3.3777746582658206 2.647928135464925 1.7139690706917168 21 21 21
1.739872052268734 4.019546488742144 -1.3692682251258312 209 219 218
2.664312099716043 4.259299465672302 0.05068214654533468 155 141 132
-0.7311469276626986 5.9366102967793655 0.056864578122141865 178 163 160
-0.14796010037767124 5.096382801563466 -1.0582677860182066 33 61 36
-0.5912039798369833 4.248598554847413 -1.7436565907247081 52 16 4
1.1311322869047178 4.19146811134207 -1.2446398643409473 23 28 32
-1.609361732172855 4.497235632067983 -1.1832212155966622 60 44 31
-0.7481146632558328 5.927421445326839 0.13456644287129313 220 223 232
-2.4627260376535354 5.055860356028794 -0.06461227990109954 154 114 123
-0.9328799734926484 5.261482626446055 0.6637271968884403 222 224 237
-2.708093284415801 4.447701180794089 0.07129707287987457 152 102 113
-3.8150388742855 5.184685688793696 -0.7869476059965865 14 14 14
1.174100066639666 3.3973271062792674 -1.8144349679201695 101 92 83
1.4986087701503874 3.594963904979756 -0.5311635521666216 189 219 243
-2.573085832717726 5.379369942428304 -1.1265337459353986 86 55 60
-0.7368641546929279 4.844194923436984 -1.1385885902939412 62 41 22
-4.035226981762166 4.750067441733629 -0.9584840340489899 28 32 41
-0.4271611509672147 6.255276011060579 -0.27262226272192985 57 60 65
-1.3167309796620708 4.652417053939309 -0.9202612925165163 62 31 28
-1.1895846162037147 5.379599369711748 0.705984943530803 244 197 203
-0.3151107301523368 4.966030041655514 -1.3264285870749788 33 10 4
-1.081554364378182 5.948740493140064 -0.1707664447304571 37 26 24
0.32394313989402346 6.70569358905412 0.6969377641061218 216 214 219
0.10514106215273657 5.570045157916011 -0.8229238026865872 115 95 86
-0.3409589322954668 5.240331867148822 -0.9355638860222717 87 74 65
0.6250902976502452 5.599101508929174 -1.1101106842924608 96 42 30
-12.247650777415439 38.541366326418945 10.077591754462542 22 24 19
-0.9034528964052664 6.857265606167084 -1.194659178512908 116 84 85
0.549032679574677 6.650506876510414 1.4607915313269833 161 170 187
-1.266537342566792 5.58056508392256 -0.36189439215274666 206 176 174
-1.0488923093074256 5.603652216188322 1.1716814774919238 119 23 34
-2.8523416915640225 4.797709468053477 -1.2596527392741648 148 144 141
0.44344954073117515 7.052703412617215 -0.6917973890878515 188 175 169
0.05563503253447667 6.306111587839943 1.2812845673796665 26 43 61
-1.0324151379428943 5.494685924313295 1.217558714202029 183 154 150
-1.3200079278681247 5.603119801767773 -0.16142084458737208 162 153 148
4.8216166218772 3.5566129810096005 1.7022951134806357 210 227 237
0.767783611719291 5.117638425587465 -0.5030060468069775 72 46 91
1.07124979621748 4.099396175438265 -1.5297102000584448 119 115 106
-1.380798721204805 4.575863772409194 -1.683379962990017 80 29 12
0.2723349298202976 6.939162980925467 -0.15027184764205254 218 224 236
3.4146484536831214 3.6818718484405606 -1.5097100642388905 228 233 227
-1.3428127368064962 4.438974955650763 -0.8920114715509901 130 121 116
-0.7432464001837514 4.93240761657067 -1.0691810435735674 52 34 32
1.023467406493625 4.240939636814632 -0.4013379576598811 168 159 154
-0.9043995341857125 5.877166229923465 0.05654883765116822 149 145 146
1.9916322618790776 3.355957626843726 -0.648635604386172 24 136 174
-3.6333993058910883 4.9536891554001645 -0.9927462307601894 24 24 26
-11.828176908025805 38.562439457541515 10.838173642774294 52 25 4
-0.9175839339383102 5.311973476457979 0.9725417616305746 137 46 27
-1.2598228123647301 5.624766592264944 -0.15716449976547286 164 180 195
-0.7268753986436576 5.7763145368005375 0.9318576041371516 248 239 240
0.5067202095999584 3.7978042210469565 -1.8217332842264498 12 4 1
1.1455422672522357 4.132945281587593 -1.3854374451702476 146 136 126
2.925068668316893 4.135836680155996 -0.9912329790841719 207 232 237
-0.7986537679940061 6.0614611633247195 0.3438547255816381 151 149 152
-1.5696558080528051 4.61019196654154 -1.094105377580472 70 51 53
1.4159888025785596 3.849085628424377 -1.7105304434063846 110 102 91
-2.5788087152099237 4.584078621870794 0.7819616916880343 178 180 177
-0.4206949846171695 5.1481816317263025 -0.9780076489669676 81 69 57
-1.0478449850341849 4.74078613240363 -1.1015420535429483 74 73 71
-2.720787100861543 4.944670749677375 -0.9108399841113628 158 161 168
-1.6085435880000944 4.569019190872209 -1.6201826001950985 21 10 6
3.1539598396594406 4.302559508392747 0.4629454686365413 91 126 156
-3.0396197102263325 4.750915342897149 0.6361929834726536 117 113 114
-1.45642159702671 4.257260168754999 -0.4997312126066032 39 23 24
-0.05777714320387574 5.26041410871205 -0.9531688467391243 103 96 86
-0.843111899520966 6.284549045732979 -0.6733695563319628 159 153 155
2.6139001103520525 4.12398903831317 -0.20453142793188625 186 205 212
1.8280007222637313 4.0082401616115835 0.015601058330475653 133 115 101
1.7855215271308016 4.0714955300400195 -1.1033823873780222 234 243 240
1.2976375806365434 4.06870212054363 -1.5547899043922735 152 140 128
2.355710876000264 4.089039528662386 -0.02129232313090475 137 118 104
-2.035877777539465 5.010745467696507 -0.29559283740850295 174 182 203
-1.0453090338838673 5.731531586242191 0.5114580306409604 168 158 159
-0.20516916640693791 6.098557605457506 1.1621488008421637 84 18 19
-0.5482911709644028 6.1456876223612635 -0.36258504352843174 59 72 88
-0.7256255617791462 6.151631335538641 -0.5792070779427955 143 125 121
0.9328384808097165 3.5735408204756505 -1.7821393710421671 121 111 102
-1.3404453379414463 4.674350003678877 -1.2898807905364258 104 36 23
-1.4336644832370995 4.550213844308298 -0.39992570629953594 106 105 110
-1.3848563148084496 4.913940946625978 1.1431948541570591 149 138 144
1.2901760681224412 4.233531108083841 -0.2712472669992521 80 93 110
-1.3517251675952957 4.248011868732307 -0.46755945502437424 49 29 28
-0.6909034076350969 6.121345137387343 -0.3062855610064482 102 96 98
-2.874303994623578 5.042910512490749 -1.1872354002319707 80 79 84
1.5862753670579648 4.28037617735701 2.176367329305659 196 205 202
-2.847865272416453 4.878502901238759 -0.67923525417785 135 136 140
-11.410060812073155 39.90811860219044 11.06472906136802 83 65 55
0.22015138869933557 6.542657370214002 1.3748126212167793 106 128 149
2.7679864493498663 3.2160594219342813 -0.1642372461445891 190 217 226
3.6438248323185802 3.7557974743564917 2.1165780873802986 112 115 122
-0.9452284698873007 4.566425373700117 -1.6933425749452764 102 41 13
-1.1976862892427418 4.70575103069672 -1.2723825045115467 16 4 4
-0.46708394573134004 4.795312726065523 -1.2426892768407969 119 100 68
-1.3241576422185055 5.81776442424003 0.017086723338622677 174 174 182
-2.3299735429410258 5.373965991510561 -0.7764887246293094 22 19 12
-0.6241029993082401 4.091982553636468 -1.6181446650155482 43 10 1
-0.5316160748364529 5.847304688158484 0.6646579784218702 152 147 153
-2.6661010269637675 4.674187228680559 -1.0173560539276862 142 130 140
-2.18938527247621 5.14845524739411 -0.6648297867755317 156 142 115
1.9352412127142404 3.2553192897837384 -0.24587327827726096 23 24 28
1.2998631879097662 3.511974512670931 -1.7788890955102172 105 92 84
-0.7214379021818681 5.620511932998449 1.2163155986672036 236 163 174
-2.7564080136995552 4.656719942438938 -0.7344026872421759 129 123 125
-10.5757707768715 40.61193817849446 12.048736119391672 66 57 52
0.21541434587471497 5.576272954993165 -0.8694745229282104 84 80 81
-1.5523240992075653 5.8247479223762895 -0.8384257778043449 147 145 146
1.0539122005433506 4.437629661932707 2.1141097569781624 30 31 36
1.387289055552379 4.110784483394118 -1.0329406594889587 25 37 49
-0.2493108041660385 6.160494624921975 0.8254539420633648 210 192 190
-1.393207966934039 4.4953169124124175 -1.2752604651389665 41 39 40
-1.3220814740082683 5.638056939777602 -0.23560905324021827 169 151 139
-1.292552495797978 4.727326788415262 -1.1418448359873967 64 16 12
-1.4626460090997828 5.18891212228267 0.976086823503635 165 162 173
-1.156242698209655 5.542424325154791 -0.9263563263448678 200 196 197
-1.1022768332248325 5.253424124392518 0.7964157357996987 249 215 216
-1.3001354015149942 4.522751768877439 -0.649068028237143 63 37 36
5.2650084521381135 6.136127243423256 -1.3670518096292401 90 78 118
1.0258506643220233 4.113261908233729 -1.5208751319561162 110 100 88
-1.0514546523072104 4.701616496718457 -1.410395518137195 45 16 8
-2.6077059815771007 5.140645237699035 -1.1212982985703253 127 107 116
-0.862873995455724 4.273766130491434 -1.4850284905679334 84 31 13
1.8598875111092437 3.6760914596552805 -0.21905440507513468 176 188 186
2.469400385080763 4.069797421792382 -0.03677059397855371 124 120 121
-0.9732558494343535 5.861221299348388 0.019452640425446952 40 31 34
1.6111159368838195 4.148739699741459 1.9948896866796555 29 30 32
-2.7512162218967204 4.650682471726919 -0.3844251150690779 151 154 161
-1.1335343719129298 4.804225274572904 -1.3237984123147153 37 23 20
-2.9453794963564626 4.597064758609101 0.552285974892353 114 112 113
-0.6941628205498876 6.012261239020715 0.10366497347617665 231 238 246
-0.2722909251659435 4.957270909704251 -1.4617197465478349 63 23 13
-2.870223533515772 5.048772138428325 -0.5534504026790635 184 184 184
1.2424551479733201 4.2981537455128125 -0.043780266700312716 64 24 25
-3.3894314386812714 5.543597704208784 0.05896254268288968 119 24 28
0.7262990119259658 5.056551025804215 0.5058476244851139 56 74 98
-1.1351430329018157 5.202074114610421 1.0122620769007151 184 170 157
-1.432195489218454 4.2352641208939605 -0.46132425505525504 82 53 47
-0.5269407802489013 5.8685914697799335 1.3488099018269897 181 181 183
-0.97781016241029 5.72775054749266 0.6201357685237129 45 26 22
0.3884479288332891 6.519749499984409 0.8133130478683563 122 115 123
1.5075315118893795 4.1021276860142235 -1.0776348971958798 14 23 38
-3.5363937659740547 5.40629173888845 0.33689565746285444 95 93 94
3.094230884911266 3.8405331644666107 -0.26849580974584314 23 31 42
-0.22441832303125991 6.2474184049157895 0.7821069986127137 118 113 110
3.1086263429527152 4.365334338851369 0.2564719873628981 35 110 150
1.1472278853468694 4.226989053712144 -0.6855346870290011 76 27 33
1.3110749369932544 4.176019103987723 -1.004884192279032 29 37 48
2.4943182860795914 6.000589781294655 0.6665935873451626 30 86 133
0.31624500836524255 6.953535703241218 -0.048752788452570334 105 90 97
2.82012015246669 4.061577149364855 1.9904375661566744 224 190 181
-0.4221813998330308 6.004430198085801 0.48872384178234435 192 173 175
-2.1441806659560942 4.289130856777795 0.49248376850136494 120 114 116
-0.8797140126592963 5.986458056815751 -0.5166994987543179 197 97 123
-1.4572649864686815 5.552401093011542 0.30546427737611453 104 90 81
-0.9581116055182015 4.922859667855425 -1.0948769595064525 75 62 45
-0.15370965206473297 6.2967183445477986 0.9951753345342643 245 232 239
-0.9604525035547897 5.910035235384279 0.05011660726584969 24 12 12
-0.44402520470041207 6.073079601674196 0.2068955613199183 202 193 196
-2.214756872469959 5.154386182780928 -0.507979944337231 88 79 84
-1.2369777551159271 4.827670181588135 -1.2300043494555042 32 22 21
1.1745858952797934 4.214628234318481 -0.7655805877968412 16 16 24
2.7074047520944444 4.041431816361626 1.8426967246427781 207 205 210
-1.2568584524673514 4.488737824162841 -0.694041808117799 143 106 97
-1.1278957614897704 5.651085149408564 -0.34383148739785546 51 36 41
-4.098759589082043 5.513943825019755 -0.5922886273720611 17 17 17
-2.2012647190194574 5.288174119969349 -1.1609492128084797 128 78 81
3.4710259535718504 4.125697751848893 0.2427606508243342 26 104 153
-0.4681898658202726 5.1920052443415985 -0.9829361586238696 106 103 94
0.056601068175107995 6.256879987732943 1.3220265862466456 86 75 69
-2.5825266065046844 4.562807113925362 0.37053211796337543 98 102 105
-0.7588027147860315 5.672455227363615 1.081322717311098 194 76 98
-4.126865547185812 4.664224887609411 -0.9405763557027331 27 32 35
1.4290886839825008 3.878602560553049 -0.5631372055179013 118 116 117
1.1843401080706282 4.240770061458088 -0.5582211859707277 31 47 72
-2.9219913392493257 4.829463242857935 -1.2605325833446894 11 9 12
2.8741568724747624 4.054517999227117 -0.2289116498344177 190 209 215
-1.0438577329842056 4.907315026071099 -1.1036140392072002 57 38 24
0.6434148083039117 4.528852822070405 -0.4985035531349747 122 113 192
2.5758704804368624 3.9215471540036533 -1.2291664837473435 235 248 241
-2.671007147428116 4.395570598442328 0.7946487747693711 126 122 113
1.681367974235906 4.028787356582226 -0.23767567049109706 194 204 205
0.40136179746234046 6.635801842536385 1.1665340504570993 92 84 97
0.3159330369832037 6.9752701237184604 -0.7735072712434083 158 130 129
0.9288731837376607 4.184952714608986 -1.5238845013000613 148 132 109
0.4127898525961233 6.810693199921927 0.24380722893929968 131 123 136
-0.24297906560919652 6.442051257176948 -0.7525977213042938 132 112 101
1.2654941904617796 4.402596999461765 0.2321273920279175 33 86 130
-1.6839133495691112 5.324095747847836 0.17430787319136404 177 182 201
2.7435390797916006 3.861218509964295 -0.3025578095874419 181 211 222
-1.4070521524584232 5.654097987084961 0.21849945221440856 174 177 186
1.2984661101602735 4.264287817593872 -0.27309212711928993 80 93 110
0.043090667230736734 6.3874387791222755 0.8758974502144059 188 198 208
-1.7387204411325767 4.799205361720692 -1.2209214972967315 113 75 62
-0.7218875127491361 6.168384885375617 -0.6050941976361394 106 104 107
-3.6800750566018596 5.498568745494594 0.41969805010434297 127 123 124
-0.8579291482390643 5.53786202720281 1.2020488671964384 179 170 173
2.116816159967081 2.9564903808581224 -1.5885582199761983 109 100 91
-3.1443776417831555 5.014163473757554 0.09802950622463903 27 22 26
-3.5019285684761754 5.386589280189673 -0.6747274796369722 82 47 28
2.053851315273401 4.164831917343447 -0.19131503212736992 21 24 29
-1.4049746010750552 6.016310587101758 -0.5840799580125137 170 171 176
-0.09967334712200368 5.3091099608920045 -0.9403429330292664 89 80 75
-1.2091306094561596 5.525942365177885 0.2386207782709014 199 190 183
1.253552050071658 4.216054919549822 -0.6037133331126824 18 31 40
-3.685032935503717 4.957471259911403 -0.8703875292692644 14 14 16
-1.468424478974439 5.587251789179367 -0.022552484666412013 141 133 131
-1.1687864305398372 5.572020864716674 -0.9790131003412013 103 81 84
-2.4103700102423824 4.829132917833285 -0.3229239000958209 163 149 138
1.1481377306945144 4.345214723397553 2.2164136423095293 175 172 155
0.5571305845515333 6.280196190454133 0.811990362284583 45 40 46
-11.381343252964873 39.96297342946053 10.074410247357603 114 119 123
-2.343633588821127 4.412384057393538 0.3536884772035932 148 144 143
0.8724273454220444 6.770090032011593 1.8711383308031204 34 32 37
-1.2928918549234365 4.753798920371415 -1.1078851019077913 71 26 23
-0.18019400049852372 6.374810375927704 0.4181488878750848 202 178 178
-1.499480478425463 5.679428777064431 -0.24339705418724436 138 91 107
0.33455215348811956 6.505982373193323 1.3090503386299526 48 81 116
-0.6407800991241867 4.907313102376115 -1.0785387717437391 88 72 56
-2.545844140495319 4.582610532274824 0.591436413202171 163 165 164
2.452796143588436 3.6225449405091115 2.119479111149713 64 62 63
-0.5058469085931719 5.999523136639633 0.576227786324044 128 109 102
-0.7412545805159062 5.869322583986451 0.27302545593327 183 168 163
-3.0693470250491073 4.744964795432742 0.5012924430446172 137 129 127
-2.3949135574958493 4.8857446360723795 -0.49470291722711945 84 72 56
-3.149741666357281 5.055194540949501 -0.6922417873032652 20 20 22
1.0068663703009366 3.7182106451602484 -1.7381713492837914 98 80 66
0.01579645535937267 6.658123718539271 0.00011110257728972844 149 147 150
2.835461089978429 4.4799346514197955 0.10114510603205795 37 117 166
-2.156498942413402 4.959811147627376 -0.3222696872082685 89 87 90
-2.230088321863628 5.238925615249479 -1.2136685415453583 108 91 97
-1.7782060172984517 5.763038199367587 -1.1553195423030849 145 135 143
-1.242515778232746 4.994347269839177 -1.1012268253430009 80 61 54
-1.825518339225504 4.84135357285917 -0.8353332675437222 143 143 155
2.8553414718288286 4.444521570955474 0.25953511621050523 25 106 153
-0.5784727618816773 4.172971404875883 -1.5447542995375334 103 49 23
1.1164012343502236 4.209446855975242 -0.8901300590350603 84 93 90
-1.6639628940022841 5.900002659826175 -0.6890723953059983 201 205 216
-1.7916500740653687 5.6066842023655346 -0.9654409873129789 162 161 167
-1.6182688213406065 5.184101827635108 0.3586487833498462 150 148 151
1.1869164885868935 4.1847216544681505 2.2847648319241216 39 41 40
-0.9634242588385108 5.61365907487567 1.0208161138235914 36 6 6
-1.4060083414236317 4.4770719114877435 -1.2188044452618387 52 43 44
-0.5621498874814362 5.948994557472765 0.6765359136380616 160 146 137
-11.1005015922955 40.393877323236154 10.6566586890083 26 28 23
3.5888875013960093 3.585587682940766 -0.9173911557539955 171 154 144
1.5265521753643538 3.945153043837556 -0.2833251710044602 88 92 104
-0.5684256959586889 5.775504928520971 0.8319164510934856 39 38 43
-11.78836485937168 39.017729647102506 9.740122342760458 96 53 21
-1.0067236541309597 5.877205665969979 -0.5459867246439671 196 200 203
-11.852777040917143 38.5686081760791 10.60408382681911 116 63 32
-1.0895384578901928 5.444650305535123 1.0059490910593258 102 47 42
-0.04321744802693655 6.571132612694795 0.13910962523095793 181 168 175
1.6475292095402476 4.374689066340787 2.0919254166421384 132 138 138
-1.2166219421941549 5.678473228584953 -0.14243163878882903 188 173 170
-0.2130683565970872 4.884761800814874 -1.3648293505745208 27 12 9
1.7198000405562275 3.795189535238809 -1.9580244133158622 106 106 106
0.026413560823679374 6.497296192551999 0.54683126254247 151 149 150
-0.16413923205517605 6.176598195832817 1.0775455383370298 214 194 193
-0.19750773656505277 5.754376581707786 -0.828308322266261 138 127 71
-0.6427569435094067 5.450360605769371 1.3162621188956218 133 130 137
1.1491400721915095 4.344012939913189 2.0746773442686184 27 27 27
-2.15794481119077 5.435933172071754 -0.05538377947548915 107 103 118
-0.881838832545236 4.960794311722126 -1.0854586592786426 69 61 58
-3.351641057310102 5.424680578053123 0.03805048981498159 115 23 34
1.8967529148372304 4.547817238842882 0.9920357065128387 249 255 255
3.376195018634025 3.854162903617083 -0.3501177573906075 200 217 224
1.8415243850437133 3.462219549478109 -0.2952432863011074 97 127 137
-2.591122654491813 4.609267736717324 0.5867265044001367 138 147 146
-2.6818808414805457 4.976180435599123 -1.2305689174029584 106 110 137
3.041814853178373 3.427617704790682 -1.4345107376090815 75 77 72
-0.9054383648704035 5.025634064945035 -1.038437728626677 44 44 42
1.26893347250671 4.1864464856627075 -0.7490920193908902 18 32 33
-3.305080893764057 5.364800427044325 0.006345424159719108 128 120 118
3.4517037112011435 4.276204565234546 0.46607408583817506 205 216 222
2.5013384394398472 4.0369084354538485 2.0750459417440776 66 66 68
-0.7729514418633248 6.018819092248798 -0.4630033265361195 139 120 113
-0.8661182374483724 4.5912183811517275 -1.3620742225561138 53 45 32
3.214282753875821 4.363375664769023 0.38218122578575053 35 97 144
-1.0164440035492237 4.663390296548787 -1.4305288423747915 43 14 6
-10.81372267189146 40.19497258182742 10.686176595801347 48 75 60
0.4411895033100549 6.646203658326826 1.272324156152355 113 148 186
3.7634473016019556 3.6088742339618083 2.043629099438118 99 104 110
-1.4520990146808936 4.159458599221284 -0.5330684772683708 126 111 114
-1.4335686326818429 5.223021044084684 0.749526438511967 122 112 111
-0.30648481776924524 6.411749316296654 -0.6997472955288752 204 197 205
-2.4337617182231828 6.1850207615164114 1.7240030474860808 123 108 111
-2.4168071265667423 4.824487691545463 -0.20351220106316903 174 171 138
-0.72008030882204 5.953122794963032 0.6685393398911641 8 6 7
-2.635516251987201 5.118900927934292 -1.1576361197283747 91 65 66
-0.05037807285954005 5.28856266435844 -0.9507146433611197 79 69 57
-2.51812430271793 4.497370117084768 0.553868448426782 180 181 183
-0.11187613709172539 6.7231329579083345 -0.4640497064331952 123 109 108
-0.8869522231104584 4.576589845408056 -1.423977345502096 74 66 43
-0.606748167910797 4.232761271568381 -1.6869906420190524 73 31 19
2.894760580974518 4.476092158260956 0.2532330511515661 22 94 144
1.9161395718918395 3.9889140103751224 -1.1339898274698677 216 231 226
-1.4951264136494227 4.4864335569511695 -1.2083755292288283 47 43 42
-1.3952325097951885 5.172451309426547 1.2095320964088196 172 173 194
-1.8280155006997136 5.718413489644523 -0.9816442574312284 181 184 201
1.9498737588678237 4.341153753342391 1.6829321965960022 227 232 235
-0.9909901485166651 6.105555656067986 -0.6876633242541034 86 72 69
3.2106173163662777 4.339634181326315 0.46287150691683004 36 59 90
-1.1450351199971882 5.527495126756146 1.2611543906950422 178 180 193
-11.861786447151374 50.40053191274624 16.022368793979993 47 37 35
-1.5904563780054497 5.238038942778339 0.4722626581281181 159 152 159
-1.1814438619094347 5.976747691111757 -1.0017345835428149 125 81 68
-1.3893379638387746 4.5206561887988705 -1.0991302844325324 125 60 42
1.1580274276802607 5.428395787572947 0.20255225942126198 130 117 109
0.9517339628503036 4.2023217657623375 -1.1494242911920274 173 168 162
0.1521080760887563 6.424494831918223 0.8355409601745017 211 208 215
2.408317049261722 4.173925878398364 0.6131100761364999 180 193 199
-1.3162615560715385 5.05874170495362 -1.133263976462532 43 24 17
-2.340434188197473 4.587309334335676 0.2507740087631369 171 175 178
3.03330629214107 4.589160478303883 -0.026218116315750255 153 134 119
0.9055829838978425 4.845932609513361 -0.78954301081993 109 102 109
-4.057116788967553 4.6910410235016196 -1.0248163855430616 15 17 16
-0.8358479058738156 5.088218788684163 -1.0320284962367132 115 105 104
1.162345608954287 4.164053633013766 -1.0065802810249111 23 24 6
-0.7606465461621905 6.028757866530898 -0.2144923746406623 187 178 179
-0.7441749843190327 5.864307352630067 0.33526935064204905 192 177 172
3.520536760897829 3.786123965744953 -0.7103438813259547 213 224 220
-0.7614813541944556 5.810904699459591 0.3882599243195289 243 244 249
-1.4049746010750552 6.016310587101758 -0.5840799580125137 170 171 176
-1.5641235759605852 4.499816769894731 -1.105245206731938 96 84 84
1.6950301177415095 4.202706895942126 -0.1359382960523175 67 86 103
5.242687481518125 3.75856593026337 -1.2797439483639226 69 57 59
0.9317027275269898 4.145740235688935 -1.3625196422286048 171 166 160
2.5329032931119775 4.06043876806226 -0.13129438720549977 172 199 210
-1.2786005855469738 5.259122990513602 0.9444987688398427 183 166 158
-0.7840065096243387 5.990601605833452 -0.2214264920329148 210 212 224
-0.04376939086819461 6.6171119740623885 0.01390026584145294 179 170 173
1.202865224987267 4.2865687142955915 -0.16850671413180265 18 14 13
0.3023603428331595 6.626397205390001 0.5740504436995133 80 65 68
1.2185262245901438 4.03226127259332 -1.55513511236749 116 116 118
-2.3932609695631384 4.859332649567139 -0.29076154800588333 165 170 140
1.1317630489331274 4.252301505187094 -0.588411640364149 25 23 34
1.1951791710678956 4.235573902676368 -0.5903390818020953 16 16 16
0.21759584700154538 5.3541557363629675 -0.9332319657278128 143 138 134
-1.4177430014102261 4.321316910008617 -0.7851395843201496 18 9 10
-0.12734952445255582 6.5068520419083935 1.5759214501645251 118 112 112
-0.3301667615920144 6.378418681424657 -0.6917218162746425 95 81 78
-1.5054299869310195 5.718376608778536 -0.6962458332185169 66 51 46
-0.6408937925648743 6.009150814593283 0.07924378741718813 13 17 18
-1.624863366440877 4.713323815700941 -0.8978803216138028 32 20 20
3.482088759261009 3.7348811275983795 -0.3000003963693942 216 230 230
-0.7445366905679258 6.295628284418343 -0.8280182070365391 166 126 134
-1.1903642232885214 5.831180501575543 0.10124268189318857 236 226 227
1.7341390216992072 4.243301475762101 2.2286326314457336 59 57 60
-0.011984915217280186 6.274913417940648 1.1464652855436857 162 158 159
0.019412253726429827 6.1937489866818884 0.9519890468580231 142 167 198
-3.5218153831900447 5.347793006720912 -0.9753072487527676 9 9 9
0.15655204989062638 6.528806164538527 0.5748814251548175 143 126 119
-0.15571472224081193 6.377788282573939 0.2616506297446204 183 163 164
-1.3286847708636789 5.724202200802843 -0.5132299438876503 188 165 151
-0.9919328796014056 6.147537657764957 -0.4921747302505675 36 21 14
-1.6928313365009287 5.615740955346231 0.09370324418273236 59 45 44
1.980073137373002 4.455338464401471 0.9673446757949654 243 253 254
1.3417799671223296 4.178429307509879 -0.790747303320461 20 18 19
-0.7942724132836028 5.061647456194675 -1.0355498202947861 73 66 60
-0.30716848642959055 4.814053006517758 -1.1353900748635735 42 45 26
1.1883327290789516 4.2751851316908605 -0.29456795554639537 206 211 215
1.1841447414715869 4.110815155169215 -1.4788763481205192 45 41 40
-2.8209587247292904 3.8629994091901687 -0.08211139719766149 136 153 135
-2.675465537257934 5.81119659869888 -1.4271818421907805 123 124 128
1.7896377517951072 4.393783890847678 1.417289837626736 244 255 255
-0.04584169609052057 6.249646158891521 -0.697208287111894 210 199 203
-3.681318175777624 5.5997108363862536 0.4569785379401192 43 42 48
-0.4910337923348195 6.309837689429061 -0.45789177915534124 33 63 89
-3.629209183688359 5.407972167941896 0.9087706133126006 110 106 107
-3.2686313928070283 5.328935420214156 -1.3773242166516602 13 13 13
-0.30228478755984556 6.687577374008282 -0.7040495940830923 154 127 118
-2.751634757817634 4.463046235438312 0.755657745535549 150 139 121
-1.2445420439289228 5.235597079838942 0.7216098710198883 207 196 200
-1.5291538192891363 4.420869920042256 -0.8601748618223412 69 57 57
-0.17591176460868221 6.696742761405768 -0.7197866714284702 148 114 113
1.4402093649090495 4.056622787173176 -1.6363495889927635 63 53 43
1.1736927350124027 4.262338727092599 -0.3827091954849072 143 177 205
2.7685121363024185 4.557405661414544 0.28410848281848894 42 130 180
1.8726033710967236 3.595535335368014 -0.21784705164277765 176 188 186
1.7974870149418216 4.495401419782503 1.2150091192588837 252 255 255
-1.4296799636411919 4.4419451311760305 -0.8689392087959042 52 46 48
1.5921597944772496 3.597089345187334 -0.5975652268771057 19 17 18
5.326566644204342 3.681068461230587 -1.1527066898121272 146 168 181
3.357827508252228 4.319800652658654 0.4402033615309177 44 73 105
5.4340753267400705 4.544869994766753 -1.3298326859183769 144 152 155
-1.1451936773410945 5.385046649391091 0.8793907237215898 224 200 190
-0.4526056236172392 6.078506427320293 0.4241002510341461 157 142 137
-2.915386715670326 4.814690251434093 -0.9225813794516855 128 124 125
-1.3882643409691477 4.592481758830512 -1.4237844969645301 44 34 35
1.6960785117817743 4.268488105958563 2.103317173484129 184 192 194
1.078723242010539 4.162109757880017 -1.314816768316598 165 176 180
-1.1759868830499056 5.418874893464617 0.8254189438441888 251 216 220
-1.1832088997487111 5.288625796302508 1.023456691280052 196 171 151
-2.8292000900608327 4.647738027351133 -0.8109656815119517 134 133 139
-0.4732684718907609 4.593133813296186 -1.688390190357966 59 19 9
1.217122334496038 4.483114133711442 2.2259277662282253 150 160 162
0.22408380557885188 5.495371009680686 -0.8900985625825576 111 100 98
-0.5304838071684655 5.976781798987213 0.3161981808773987 140 130 128
-1.3785219497878227 4.30966612248069 -0.8085226822169526 13 4 5
0.17923976991644552 6.677792460920344 0.33846122784472765 178 166 166
-2.751634757817634 4.463046235438312 0.755657745535549 150 139 121
-1.1280295541903635 4.94251062887068 -1.0840783971114138 62 57 51
-1.7245771146546878 5.777346050400019 1.3316260272372367 109 103 107
-3.1858702280314524 5.0184099018070025 0.12305937161092476 118 116 117
-1.504111309186565 5.359885198548462 0.16940820448885108 113 100 94
-1.2981911090625229 4.595218210238976 -0.7080361171752365 110 64 51
1.5940292670319092 4.062967634407856 -1.2109361072321725 34 50 63
-3.183817170591069 5.088125562312329 0.06189012122510802 27 27 29
-0.8442119402995301 5.629329591798498 0.910389571264811 205 181 169
-1.5479984744934858 4.499236941323663 -0.8062309511966861 13 8 5
-3.575132453094709 4.95684788896405 -1.3440890606068563 20 20 22
-2.3839226032105705 4.870587116860536 -0.12040754097580035 165 162 153
-0.9601427041587967 5.078446780049319 -1.0338103124869849 129 116 110
0.41713295843427994 6.972638394189279 -0.007982424969850714 138 129 134
-1.5433765224517686 4.532712766698577 -1.5448861256619484 53 17 5
-0.8008747075990185 4.569311353317989 -1.4049422679753392 54 20 11
-1.0199605912180782 4.651830665808995 -1.3019743349700046 120 113 97
-0.7440873570730426 6.097991404259575 -0.1778063720188516 154 137 130
0.06396133688120564 4.166567196760382 -1.7933283674929705 57 24 15
-1.6186466654649447 4.376739333959752 -0.4591294582017515 86 80 84
2.746591900751574 3.8350096253380315 -1.4513308546495869 218 233 230
2.1464756824131666 4.277542418053803 0.10374866005452299 128 121 115
-1.1635077570813344 5.777544008122511 -1.3932191587730245 94 72 59
-2.7478663536554513 5.848519687474369 0.6773221049152381 106 89 79
-0.6103305792497274 6.152235925248428 -0.5895269476904482 156 147 150
-2.576045299023448 4.655996492121005 0.3967355288720995 138 159 142
-1.506105711539905 5.798024261543926 -1.010046270088366 137 121 121
-2.79558679539786 4.579738938982167 0.3145996286096911 118 117 122
2.094619167880644 4.55668805657607 0.636464153398071 192 203 207
1.6459599708314405 4.3815251454200865 2.0914188269814873 59 61 60
1.0629536647870446 4.2330962328619295 -0.7960724341348633 143 135 124
-1.2943685438831336 4.63315966522873 -0.8909964428230281 46 19 12
-1.0898885551592843 5.333968050733385 1.144383456921452 154 127 116
1.0581129471775743 4.427040630842299 2.1717374436101493 171 171 173
-1.5744804005760837 5.443413260707105 0.39957714890742374 60 49 43
3.8460713406974363 3.623082198923817 1.807950388759412 199 206 212
1.722949481307673 3.4857332155614604 -0.44604121697375293 12 32 67
3.3643561668335837 4.072703934440767 -0.021926797148622595 135 126 121
1.213895833327469 4.222072438948964 -0.7344549195734393 21 46 77
-2.28586337506726 4.702992248757182 0.1858204492928403 184 192 203
-0.07745544057458338 5.184369679596918 -1.0998714229639328 18 24 14
-2.4367234574404275 4.57285981468509 0.48784559357311025 187 188 190
-2.6247626193771216 4.5837240231276395 0.584673664375877 146 169 153
-3.4854213453172234 5.228077497571257 0.2887304517827895 93 84 89
-0.7809652784856606 5.6080684045680345 1.0171537465064342 207 97 108
-1.359523418155554 5.447738071412675 0.47386133252347407 157 151 153
-2.6010249600604527 4.582115845142822 0.5548348034750786 113 124 120
-0.5453931495504384 6.142279216122685 -0.49721666916769086 41 86 117
-3.7706599450733047 4.7707720083285015 -1.0971758470986608 17 18 22
-2.295209541752374 4.990740325601771 -1.3042079108277274 20 6 3
2.234326813423983 3.8837653526200415 -1.51550092929075 123 122 120
2.2543008841660894 4.034951269855504 -0.9104760936411282 201 219 221
-3.004433837764143 4.5818027791856615 -0.32743637901235506 25 29 41
-0.4325372263087366 4.642493939365915 -1.3989491619756427 57 29 26
0.03653118201236909 5.212734179189104 -1.0851654435606488 39 50 33
0.19821092050268688 6.5976350388957545 0.6170927969182334 181 176 180
-11.811615962171016 51.933847513153765 17.031421041831702 40 33 25
-1.3395601826582197 4.3822096977713105 -1.2433024615104848 68 63 67
-1.2677918711429799 5.58817942466584 -0.47128952771050514 157 153 152
-3.7140628218532146 56.01287151397843 16.83943680638376 17 13 12
-1.4405686168236085 5.174376857257074 -0.9880645242186916 124 78 63
1.774869926098163 3.7166548193180495 -0.024752447353225654 17 17 19
-1.6231238278634104 4.382316165910052 -0.7070330900025359 184 188 189
1.6815035545605106 3.6241299236868736 -0.1426111757654233 42 56 67
1.1346552550492404 4.113290973012122 -1.4843830330150825 21 19 20
2.2690522660871095 3.975941904879787 -0.8890376236684825 190 208 208
-1.5703919503370343 4.533882010805742 -1.3868174625080427 46 31 24
-1.226243263410963 5.979583307941611 -0.6902523288807306 16 9 3
-0.7788986786367319 5.6507520831278715 0.8517494844618028 187 165 154
-1.44415964553143 5.3138464466322235 -0.8694875851972187 81 68 59
-0.7232495621708356 6.13543305506182 -0.522163969068513 151 143 141
1.1682420958346293 4.150439107002776 -1.0053690554789387 23 24 6
-3.324822309462752 5.151936288834125 -0.9105456313149995 5 5 5
-0.5294522585740224 4.981359077995345 -1.0695994842332563 24 17 9
1.6487953583195376 3.5807626407069195 -1.7486408785992478 103 103 103
2.7982674680217494 3.141020302125262 -0.179917340648275 185 212 223
0.3206962863412516 6.464346963005867 1.198236320971183 44 67 98
-0.7320878322921733 5.804731197382874 0.5841981240745979 252 250 253
-0.13679449098450708 5.210071220966627 -0.9788086837833596 70 69 67
-0.9230020806905501 4.565804102200165 -1.3760980619633523 19 17 5
-3.5820739887312905 5.436775013835853 0.7859926813659309 141 141 143
-2.770868490068281 4.374720375598886 0.36278613863347076 105 99 101
3.3119166075935085 4.235347712361907 0.42974643897973897 15 50 90
-0.3108614331978419 5.105587466761633 -0.9921247799113748 81 67 56
-2.1811015260016107 5.249566871387668 -1.2258807986168905 38 13 8
2.0247303531141396 4.026477985297545 -0.18746671922987374 20 27 37
-0.45855998728794867 4.367299793892512 -1.7626383597896125 110 49 21
3.31528492288668 3.7118864799568887 2.081224768909704 88 93 99
1.106950755831134 4.224088113102786 -0.7575489353618403 5 21 18
-3.852750138625043 60.07997317330284 18.594504995530755 101 88 80
-0.7412003759027891 6.127249644796406 -0.5334553157151648 177 122 117
4.479840311586103 3.5228628308109795 1.8033984011319018 211 215 224
-2.700010460651756 4.484769108861694 -0.35276886173285443 136 129 136
2.8129607188050527 4.405126442452144 0.484771611238137 29 114 168
-1.1234283629222988 4.751820620340468 -1.4165434847722533 47 19 8
-0.20927563643228853 6.327119313188161 0.47027791465459773 180 178 179
0.8290869571239537 4.47906209927253 2.3515543267014682 36 34 35
-1.4928089671312608 5.259932982342771 0.9283152160707687 144 130 129
1.8956997200259997 4.056040279282028 -0.25020427901432063 171 179 181
-1.419420294635185 5.460226402973747 0.477669887601054 153 147 151
1.2850761314179713 4.282238888367851 -0.06628144118225962 142 156 159
-0.21252902259635725 6.192357715470007 0.8500860683906354 174 169 173
3.6765647536937336 3.478678751298551 1.9373686825266772 62 63 67
0.2991308694446643 6.692159956271618 0.36484694786827243 110 94 97
1.193867537225341 4.160191644117656 -0.6513990860684279 27 20 28
-0.046013525395274535 6.819949766716953 -0.5959902507255502 182 167 164
-0.8836044678348742 4.64814946183332 -1.296136323463017 27 40 20
4.071414274610268 3.811956603383998 -0.7190938083186216 44 150 202
-0.8523365759915057 5.859773474262495 0.24777623011169914 158 144 133
-0.2624974716593821 6.677899927501721 -0.7380544212651917 147 127 128
-1.1271367834611155 6.082688423642447 -0.8838563885563884 157 153 154
1.6466150442159568 4.459728656417183 -0.02026358216981435 22 22 22
-1.1386222606526952 5.785201212295309 0.10197594971802033 29 13 13
-0.26117412145885815 6.385702271126191 0.011077163377161409 230 229 237
1.982470041428058 3.4487975952036316 -0.6551167451052474 59 104 135
-0.5494485451411745 5.978237829837728 0.9610329151896816 158 148 146
-2.4198842224635775 6.197194478807507 1.7857759510292834 144 138 140
2.390544097300064 4.0815826167074665 1.9088906930555338 213 148 126
-1.0670534237697664 5.742441891065237 0.029344832481301163 46 28 24
-2.9443488135577205 3.3780870124843 -0.41768723169909966 95 98 79
0.46009389387371674 6.984696456708365 -0.5095223552204599 146 138 149
-0.04343840425440473 5.216275990488548 -0.9853735755187086 141 138 129
-2.5017300414803305 4.564491064879475 0.4498688562287801 147 139 137
-1.2716352925363938 5.875874940133717 -0.9318859703128162 149 139 140
-0.7403073300736841 5.932830708188902 0.21650174041376077 198 189 190
-2.3552624260491744 4.519908652833797 0.3940931061378975 166 165 179
-1.637600150004391 5.348541633890133 0.40594037343888023 161 157 172
-0.7632504464498524 6.319123124745 -0.9406578843072941 196 174 176
-2.2760319383009198 4.742730667344897 0.15139917135076056 188 192 204
2.3906245497793344 4.089961036345226 2.02533406900336 211 186 181
1.530705578982737 2.808550184575129 -1.4490643805664098 93 77 61
1.0313359516813014 3.9971643715242857 -1.6627123475055268 109 93 77
3.3190550129030507 4.359341172664932 0.27125354159927734 23 105 155
3.9977507692909273 3.811917768215498 -0.8986666768984936 87 79 116
1.522365047692893 4.260359709772821 -0.05871166309075321 202 225 231
