ply
format ascii 1.0
element vertex 267
property float x
property float y
property float z
property uchar red
property uchar green
property uchar blue
end_header
0.03171436898015121 -0.01710165610247758 -0.0007478556359518784 61 66 60
0.018911320891025957 -0.01863659093138084 -0.0021528006648596294 84 57 41
0.024569863989857128 -0.027773288888672157 -0.0033735390808892454 12 13 6
0.025535393355354274 -0.02147750094958988 -0.008941228753708482 51 24 10
0.01893256442428251 -0.026281133486082013 -0.012158637974267642 70 61 44
0.02316476491971912 -0.022852805004767832 0.0005328556596166903 39 32 20
0.024410537679617476 -0.024297346838083413 -0.003616653813866231 43 27 12
0.022362983675282694 -0.03502859932042667 -0.0027238708655193218 149 154 155
0.021824224633724104 -0.01953404306366857 0.0033519319350550614 28 29 22
0.028033396142300004 -0.017701990904324488 0.005074563642618113 12 20 12
0.023595874699984695 -0.02345036651503601 -0.0005068072736710807 26 20 13
0.03257596624446551 -0.01612277417653556 0.0010648531537399027 180 186 175
0.023433551968445345 -0.023885423262496833 -0.008136936767282334 58 38 20
0.027013139375056068 -0.018158204289362392 0.0012133450984375864 9 18 8
0.02877299666148571 -0.017680154515704916 0.005023482888964646 12 20 12
0.020642801840351152 -0.02869703303330994 -0.002797964646544898 57 39 27
0.026250802552620977 -0.018436537291908982 0.004218389018667965 22 23 16
0.03152168179978429 -0.01757681729165317 -0.0053756544508975854 52 59 61
0.0247494863619095 -0.022975087605423824 -0.00750752754092702 66 39 23
0.024701842916171456 -0.018610509922181207 -0.0002136119720273351 11 16 10
0.02783132440808047 -0.018211051944373106 0.005277375259397768 30 31 26
0.02958947683222999 -0.016799746521765174 0.00019605832509312488 49 56 42
0.02157236950956625 -0.023350914125901952 0.0054176250176095455 13 19 12
0.024051370548388868 -0.025489174615675125 -0.0033877120945720505 21 15 8
0.11350018466945663 -0.07375799107452612 -0.04765690072489863 58 35 23
0.02295103170974806 -0.023566486862140638 0.0024174032471353784 21 21 12
0.02001812726517109 -0.02920646316262443 -0.0021170066200807847 16 17 10
0.025908504986951745 -0.018115342896329968 0.0040286720152209856 17 21 20
0.02310793773166051 -0.036166345972300847 -0.0007077024431460552 152 156 157
0.024679122151953857 -0.024187491570324113 0.00622311080998239 7 13 6
0.0356997201984204 -0.01849982071277433 -0.002690957990068913 56 65 67
0.02543164458292027 -0.037361435455689665 -0.0041117514200082255 156 156 158
0.026836113406766504 -0.018117597698320175 -0.0058836389492740605 107 71 56
0.025010886634456726 -0.018026226980582517 0.003492856310153982 27 33 26
0.022196366912670917 -0.031998190259867235 -0.009251122936270785 176 181 179
0.024679122151953857 -0.024187491570324113 0.00622311080998239 7 13 6
0.02228856641124991 -0.02501860704905289 -0.0017768709364267177 29 24 14
0.025609722911385472 -0.021384326029009398 -0.00792837517439772 169 146 131
0.025639760965450047 -0.019519286983075052 -0.0006025953037525619 20 21 16
0.030345516535190572 -0.017573752079329555 -0.0008898136344224342 41 47 38
0.02335476915734673 -0.019631061042729908 0.0002542648630011713 26 27 18
0.023541016589222752 -0.024484623959039695 -0.00024056305649463634 26 25 16
0.023651634063530092 -0.02220180773688318 -0.0064980805228718914 71 41 29
0.024693307497191775 -0.021514285165116147 -0.00835707064917342 116 82 67
0.02078126805020239 -0.027331938227574945 0.007439602479494186 10 19 9
0.0272848865320971 -0.02021342745165632 0.0033744806649926348 8 14 8
0.027831324407596524 -0.018211051944977883 0.005277375259524881 30 31 26
0.025947611584079353 -0.01911466800106871 0.004006912774153261 10 15 9
0.02286044311544206 -0.03515797182788001 -0.0009783067680302158 20 25 25
0.02485837684479731 -0.021964824424894686 -0.004390673385329342 146 114 104
0.02709138784396952 -0.025402610907102212 0.009393605249647618 41 46 44
0.031090374945790544 -0.019739312758771273 -0.00340627447289256 50 31 26
0.021283845711234154 -0.034162276055245765 -0.001744445971910755 162 162 162
0.024156359016286898 -0.021516408884588445 0.0009413349071150765 15 16 9
0.022411727582764565 -0.019823868892840067 -0.0033748492662805238 111 88 73
0.03134387475361452 -0.0181789170042645 0.0032817925006845402 15 23 16
0.03169678476258052 -0.018979984449442565 7.528342217371126e-06 28 35 33
0.024980806983254767 -0.020328081725059132 -0.0029665585293405937 45 30 14
0.02316476491971912 -0.022852805004767832 0.0005328556596166903 39 32 20
0.02692861164919472 -0.019713316252385222 0.0010554521131751642 19 25 18
0.03827595326319367 -0.01993683752370036 -0.007726198833433268 183 191 179
0.02598919782560933 -0.0184618993113978 0.001870780167984169 7 12 10
0.025089654114768923 -0.022316986126024747 0.008204394032508165 10 15 9
0.0223017150484083 -0.03128120896522086 -0.009270124549527763 100 94 91
0.022811965918753525 -0.019447909012473844 -0.0002459793931174254 8 14 6
0.028276357079955912 -0.01895147064505088 0.0020034239203292462 15 22 20
0.022143463950601548 -0.031373772377760234 -0.009492965143802061 179 180 175
0.023944772043233926 -0.023745740330817174 0.002002030592174355 29 24 12
0.020498452085707886 -0.02183158193732672 0.003596429004996093 27 28 21
0.02639863745242724 -0.02095374043591764 -0.007255446578378004 76 39 27
0.021896887132717296 -0.02215826846612564 0.007229441265452394 11 16 10
0.024717156160440745 -0.024901363370370612 -0.00911567271225391 50 27 14
0.02252239019522264 -0.02450259746551068 -0.007941088047064197 41 25 10
0.02254704153261251 -0.02385987204139565 -0.0006617189552660056 12 13 6
0.030620234369244374 -0.01695110275994484 0.0021451124007743896 51 52 47
0.029953627276530486 -0.017610627877547535 -0.001967858248684484 51 42 27
0.02043141227587236 -0.02487163748434449 -0.006197389003584553 80 48 34
0.029103880233364566 -0.01813112406555688 -0.00497370057508967 166 147 135
0.02699490105192666 -0.01731492774672011 0.0004930117528777674 27 35 27
0.021697509637278317 -0.02221932467636249 0.004245979717188419 21 22 15
0.026479990797604738 -0.021399158762047375 0.008966608918154864 17 25 18
0.03251835450229371 -0.018184648131613215 0.0031748552526255905 26 31 29
0.022048006098730272 -0.024133614343303862 0.0002850143615174058 30 25 16
0.028043692983120115 -0.020896014912267103 -0.0018102919767865355 22 19 9
0.021454241962669866 -0.031032806512067024 -0.004914534299630311 79 65 51
0.20043102559586895 -0.35189830192609284 -0.10001941888205446 169 174 172
0.025384512571991532 -0.036832041501950234 -0.003915863969625354 23 23 25
0.022595411563460194 -0.019866244141918996 0.0013566153913685992 39 38 27
0.02146835004914273 -0.02430099004750799 0.007210909650215534 17 22 16
0.0346611595705161 -0.018009365824474564 -0.0022250782607919784 59 72 75
0.02172367945357579 -0.024493550836646293 -0.002151596790806149 47 34 16
0.025712464635990827 -0.023344485502605584 0.005847410397682014 5 11 2
0.02283867801379376 -0.03477111234883632 -0.0025621049652905215 18 23 21
0.031229199525993644 -0.01743759812779927 -0.00020489484452755797 48 50 38
0.021697509637278317 -0.02221932467636249 0.004245979717188419 21 22 15
0.02023429856193171 -0.029350119987155972 -0.0036884986638875627 66 48 31
0.02374153679623096 -0.03363244262676038 -0.00865490682283897 73 51 45
0.022485968125371007 -0.03535309796553714 -0.0027636041272863596 176 181 179
0.027758565162669377 -0.016381106737302385 0.0005958095808831555 39 45 36
0.025966211859109786 -0.02151936584727209 -0.006970888872681073 163 128 117
0.02367640117366074 -0.03526103425352121 -0.005996963714394541 175 175 171
0.024174115625433982 -0.019427823711829703 -0.00015568314322760701 17 19 11
0.027635566085695114 -0.022856294299036857 -0.005682751327517188 163 140 127
0.024815881149800493 -0.02618945292418899 0.009312372284271389 29 35 29
0.03507174938372102 -0.01912370360373765 -0.004548695847102537 38 24 11
0.020498452085707886 -0.02183158193732672 0.003596429004996093 27 28 21
0.024647986406552254 -0.024427697257291048 0.007071593755216041 11 17 8
0.0211165803906995 -0.029525831901654764 -0.001672374487840726 7 13 4
0.03251447342699639 -0.017216587882194653 -0.003725138328763259 128 140 136
0.02105932751847863 -0.02028215038515147 0.004751972583897841 11 17 8
0.031784787495274094 -0.019172254679262875 -0.0034729320790377973 154 136 119
0.02635830041802761 -0.01746182647304274 0.0045364741520989476 29 30 23
0.028502480064496342 -0.01758215266635176 0.0011917879583635813 43 42 36
0.030346325176194105 -0.018896264756631656 0.007486630421944684 24 26 18
0.025174899708939078 -0.023248917540475783 -0.009211526236075518 34 20 11
0.020667377753519685 -0.018451522742634674 -0.006646316181237583 177 154 141
0.02592290732732736 -0.019668891373736102 0.001644760217823719 17 23 14
0.026250627414348252 -0.01633289559172475 -0.005076075014553703 196 179 167
0.023381643063675666 -0.027199878305827294 0.008865268923290807 28 34 27
0.026232069971632254 -0.022562137431164326 0.005326926214812477 6 12 5
0.022481081931149016 -0.023292262169660957 -0.0006160493951877356 25 24 13
0.02240933024830299 -0.0325111026782265 -0.00754267912876653 84 66 54
0.02605210236675813 -0.018924054744194257 0.0020546176061390503 7 15 8
0.019563159273506037 -0.021629650464017866 0.0030053907578402174 24 26 18
0.02455690405558935 -0.03523411266941585 -0.008151613472953885 70 46 50
0.021262793534687206 -0.024449370664127938 0.0002525588362759339 8 14 6
0.028654177472584273 -0.016868078720665317 -0.00022199512987861806 35 41 34
0.02523120790203949 -0.02065401099403772 -0.008112753262950759 193 172 152
0.026147518816779843 -0.02170423160584816 -0.009166150316485714 49 26 13
0.026685261760368315 -0.017491394142043724 0.002860292117351872 38 39 34
0.018342287291611095 -0.025545126986667034 0.005836858874132119 15 22 20
0.02422726607989987 -0.025036064405776822 0.008830147949834714 12 19 16
0.02394477204374391 -0.02374574033021192 0.002002030592154049 29 24 12
0.02306553851197395 -0.03269162894350841 -0.008894902574774455 81 62 50
0.02528864285468107 -0.02321717658077659 0.0021775764364071696 18 17 10
0.018786065956274398 -0.017248565954686434 0.001923828893909052 7 15 8
0.02247852227587057 -0.01992955705833832 0.004557855436762446 13 19 12
0.024594286565591598 -0.01860916002798064 0.005347768169376567 26 26 22
0.022830288537388662 -0.03343673883979232 -0.005694711512686666 16 17 10
0.024948098155808996 -0.020173998575311852 -0.005580568380381121 108 68 50
0.02707899362670994 -0.0197773359027203 -0.005197882516720085 77 54 39
0.03010969572987475 -0.018447116911466117 -0.0025037795160898486 163 145 131
0.030479317611617564 -0.025075734029838717 -0.011965189596625793 116 89 73
0.0273714001223284 -0.01832952246369536 0.00019401511762554322 19 25 18
0.020772457418283007 -0.032262275748151444 -0.0040488553915300615 15 15 15
0.02500733883422127 -0.01960022943371222 0.0010502924668828297 10 15 9
0.028366258684059793 -0.016844111198945064 -0.0012965149592071448 29 35 27
0.02829446633623716 -0.017688939607190653 0.0007818578034155775 28 34 27
0.025022644800066766 -0.019327943464725564 0.00016995154413713363 10 15 9
0.023222097708612856 -0.02779161877955696 -0.002445094224083017 30 22 15
0.024700016875717195 -0.01974938098617882 0.0008678910889706691 10 14 13
0.025684154485398486 -0.02082451158296994 -0.008865507903081608 125 84 66
0.025453139356938794 -0.017744227791502146 0.003414047484368777 22 30 21
0.030640120214907095 -0.02035254126869886 -0.003125949250106125 32 26 21
0.03311706453905799 -0.018360743767993883 -0.0032921042848609136 29 30 25
0.03414276264585029 -0.01848437255454879 -0.004943572898774091 14 31 37
0.020524677853376413 -0.024343223765676925 0.00692430151076217 7 14 12
0.02124684442210419 -0.022938889609040513 0.002137354591195792 23 21 15
0.025636316156355605 -0.018878129727149442 0.005352017672200121 33 34 27
0.025022644800066666 -0.019327943464725512 0.00016995154413713468 10 15 9
0.022316681187503098 -0.022070481287743457 0.005499910887891266 13 19 12
0.021664917494487748 -0.024804315692382412 -0.0011836009207276325 8 9 2
0.020923357941031187 -0.03282243046620438 -0.00770340623590073 175 180 178
0.023423870531681195 -0.02678618692288319 -0.0020939295776129154 45 29 16
0.02644726004294024 -0.01843977308408563 0.006064085779552916 10 18 11
0.033206261120255556 -0.016854198543377066 0.0008677646653537662 134 144 141
0.028510578075637526 -0.01786577235722101 -0.0016288732706835765 32 36 37
0.0202686749411202 -0.028519383314255818 -0.013572434327591474 67 60 48
0.025966211857396622 -0.02151936584964697 -0.0069708888724473225 163 128 117
0.022096495005478833 -0.026026671404809184 -0.0013418839301221099 14 15 8
0.028937401307190608 -0.018236846320347857 0.006053912517128779 9 16 14
0.027757572288088995 -0.021515505498190562 -0.0035207195928698355 19 16 8
0.021664652042348288 -0.03229583227494668 -0.006644736025403414 43 33 25
0.02969446111079405 -0.018837276640522937 0.006559607291154855 15 20 19
0.02529934377722666 -0.02331043757221609 -0.004439717794886464 80 39 28
0.027761775036653325 -0.021167403465807807 0.006667189426862937 6 11 9
0.022773036314005343 -0.023312847599776792 0.00010755314059601831 26 25 18
-0.012733788164823744 -0.00042989175784950186 -0.0004219627229334838 255 0 0
-0.16588521974745926 -0.16128108359314247 -0.0077873641877409475 255 0 0
-0.3190366513300948 -0.3221322754284355 -0.015152765652548411 255 0 0
-0.47218808291273034 -0.4829834672637285 -0.022518167117355877 255 0 0
-0.6253395144953658 -0.6438346590990214 -0.02988356858216334 255 0 0
-0.7784909460780015 -0.8046858509343144 -0.0372489700469708 255 0 0
-0.931642377660637 -0.9655370427696074 -0.044614371511778265 255 0 0
-1.0847938092432723 -1.1263882346049003 -0.05197977297658572 255 0 0
-1.237945240825908 -1.2872394264401934 -0.05934517444139319 255 0 0
-1.3910966724085436 -1.4480906182754865 -0.06671057590620066 255 0 0
-0.012733788164823744 -0.00042989175784950186 -0.0004219627229334838 0 255 0
-0.0011143391476351565 -0.0013315439245041483 -0.22233836923063185 0 255 0
0.010505109869553431 -0.0022331960911587947 -0.4442547757383302 0 255 0
0.02212455888674202 -0.0031348482578134416 -0.6661711822460286 0 255 0
0.0337440079039306 -0.004036500424468088 -0.888087588753727 0 255 0
0.04536345692111919 -0.004938152591122735 -1.1100039952614253 0 255 0
0.05698290593830778 -0.005839804757777381 -1.3319204017691235 0 255 0
0.06860235495549635 -0.006741456924432027 -1.5538368082768217 0 255 0
0.08022180397268495 -0.007643109091086674 -1.7757532147845203 0 255 0
0.09184125298987354 -0.008544761257741321 -1.9976696212922187 0 255 0
-0.012733788164823744 -0.00042989175784950186 -0.0004219627229334838 0 0 255
0.1478661603348846 -0.1537556794059775 0.008609949220552759 0 0 255
0.3084661088345929 -0.30708146705410555 0.017641861164039 0 0 255
0.4690660573343013 -0.4604072547022336 0.026673773107525243 0 0 255
0.6296660058340096 -0.6137330423503615 0.03570568505101149 0 0 255
0.790265954333718 -0.7670588299984897 0.04473759699449774 0 0 255
0.9508659028334263 -0.9203846176466176 0.053769508937983976 0 0 255
1.1114658513331346 -1.0737104052947457 0.06280142088147021 0 0 255
1.2720657998328428 -1.2270361929428737 0.07183333282495645 0 0 255
1.4326657483325513 -1.380361980591002 0.0808652447684427 0 0 255
-0.014503100920185724 0.0007807021305650183 0.0019193297318410851 255 0 0
-0.1675530315230796 -0.15994618379526643 -0.009274549507138076 255 0 0
-0.3206029621259735 -0.3206730697210979 -0.020468428746117238 255 0 0
-0.47365289272886735 -0.48139995564692933 -0.0316623079850964 255 0 0
-0.6267028233317612 -0.6421268415727608 -0.04285618722407556 255 0 0
-0.779752753934655 -0.8028537274985923 -0.054050066463054734 255 0 0
-0.9328026845375489 -0.9635806134244237 -0.06524394570203389 255 0 0
-1.0858526151404426 -1.124307499350255 -0.07643782494101305 255 0 0
-1.2389025457433367 -1.2850343852760866 -0.0876317041799922 255 0 0
-1.3919524763462305 -1.445761271201918 -0.09882558341897138 255 0 0
-0.014503100920185724 0.0007807021305650183 0.0019193297318410851 0 255 0
-0.002829966533188495 0.005117547215475976 -0.21995370999510572 0 255 0
0.008843167853808735 0.009454392300386933 -0.4418267497220525 0 255 0
0.02051630224080596 0.01379123738529789 -0.6636997894489993 0 255 0
0.03218943662780319 0.018128082470208848 -0.8855728291759462 0 255 0
0.04386257101480042 0.022464927555119807 -1.107445868902893 0 255 0
0.05553570540179764 0.026801772640030763 -1.3293189086298396 0 255 0
0.06720883978879487 0.031138617724941718 -1.5511919483567862 0 255 0
0.07888197417579211 0.03547546280985268 -1.7730649880837333 0 255 0
0.09055510856278934 0.039812307894763636 -1.99493802781068 0 255 0
-0.014503100920185724 0.0007807021305650183 0.0019193297318410851 0 0 255
0.14618968897847523 -0.15261674232232328 0.007375276880647149 0 0 255
0.30688247887713616 -0.3060141867752116 0.012831224029453213 0 0 255
0.46757526877579714 -0.4594116312280999 0.018287171178259277 0 0 255
0.6282680586744581 -0.6128090756809882 0.02374311832706534 0 0 255
0.7889608485731191 -0.7662065201338767 0.029199065475871408 0 0 255
0.94965363847178 -0.9196039645867649 0.03465501262467747 0 0 255
1.110346428370441 -1.0730014090396531 0.04011095977348353 0 0 255
1.271039218269102 -1.2263988534925414 0.045566906922289596 0 0 255
1.431732008167763 -1.37979629794543 0.051022854071095664 0 0 255
0.11349703858437114 -0.07371519151638567 -0.04766586679922896 255 0 0
0.26933564644795516 -0.07624065759883204 -0.20606620256146532 255 0 0
0.42517425431153916 -0.07876612368127843 -0.3644665383237017 255 0 0
0.5810128621751232 -0.0812915897637248 -0.522866874085938 255 0 0
0.7368514700387071 -0.08381705584617118 -0.6812672098481745 255 0 0
0.8926900779022912 -0.08634252192861756 -0.8396675456104108 255 0 0
1.048528685765875 -0.08886798801106394 -0.9980678813726471 255 0 0
1.2043672936294592 -0.09139345409351031 -1.1564682171348832 255 0 0
1.3602059014930432 -0.09391892017595668 -1.3148685528971198 255 0 0
1.5160445093566273 -0.09644438625840307 -1.4732688886593561 255 0 0
0.11349703858437114 -0.07371519151638567 -0.04766586679922896 0 255 0
0.26965806456211333 -0.10865912512468598 0.10652677737986388 0 255 0
0.42581909053985556 -0.1436030587329863 0.2607194215589567 0 255 0
0.5819801165175977 -0.17854699234128657 0.41491206573804956 0 255 0
0.7381411424953399 -0.21349092594958688 0.5691047099171425 0 255 0
0.8943021684730823 -0.24843485955788722 0.7232973540962353 0 255 0
1.0504631944508245 -0.2833787931661875 0.8774899982753281 0 255 0
1.2066242204285667 -0.3183227267744878 1.0316826424544208 0 255 0
1.3627852464063088 -0.3532666603827881 1.1858752866335138 0 255 0
1.5189462723840512 -0.3882105939910884 1.3400679308126067 0 255 0
0.11349703858437114 -0.07371519151638567 -0.04766586679922896 0 0 255
0.08683661259186827 -0.2931582583342458 -0.0703964224645259 0 0 255
0.060176186599365404 -0.512601325152106 -0.09312697812982285 0 0 255
0.03351576060686254 -0.732044391969966 -0.11585753379511979 0 0 255
0.006855334614359665 -0.9514874587878261 -0.13858808946041673 0 0 255
-0.019805091378143222 -1.1709305256056863 -0.1613186451257137 0 0 255
-0.04646551737064607 -1.3903735924235463 -0.18404920079101061 0 0 255
-0.07312594336314891 -1.6098166592414065 -0.20677975645630756 0 0 255
-0.09978636935565181 -1.8292597260592667 -0.22951031212160453 0 0 255
-0.12644679534815467 -2.048702792877127 -0.25224086778690147 0 0 255
