ply
format ascii 1.0
element vertex 712
property float x
property float y
property float z
property uchar red
property uchar green
property uchar blue
end_header
1.664423328509823 8.599388484458599 -2.3262715305318697 129 103 78
0.8254492083501768 10.463069196261051 -0.02033403134443256 217 199 195
-1.7311014704555654 8.881712966966363 -2.4010496459550836 106 87 89
3.006718402151319 11.441047497175 2.249403752930561 192 177 174
4.530937241418721 10.09398562370359 -2.241827266512719 73 39 30
-0.4902482991131236 8.663066318885582 -1.449904403587905 143 143 155
-2.6910662847657845 6.906178598248154 2.1846590229852856 161 148 139
0.21420130307623658 10.162511432964212 0.70222350030777 149 149 159
-26.453493491372743 84.7084432953353 29.951084185527556 173 126 80
6.355491631198625 7.561550018243229 -0.9130102765213032 222 255 253
1.717415677142587 9.418814269870012 -1.7738257753078004 117 104 96
3.213474153157479 10.824907580575012 -1.3509306731306054 146 137 82
1.239611760776628 10.055687259954459 1.8590154715488838 103 101 104
-2.8058334134031355 6.253223622590774 0.5938004855447172 159 160 164
6.167551025380831 7.592578123161808 -0.982140622840905 89 65 79
-0.03286855421449796 8.169158985063778 -2.2939033667090123 62 22 20
-3.8926575913595522 9.32597921588042 -1.534537072685487 5 5 5
-3.4460678184162146 8.991870357876795 0.033597250191409946 22 23 27
0.05313570664571689 8.003900673314002 -2.093158990322092 152 152 152
36.70344207290385 65.86458822753781 29.68009702969186 26 26 28
4.728139467927752 12.266112401500168 2.8153682727067473 126 121 128
0.2513784199885927 7.655041421881789 -1.325033460947157 137 136 132
1.2791517623482025 10.368853173084327 1.1268164916506578 94 74 75
4.266894778403747 10.2012703106436 -1.6261364105682645 127 114 108
1.5993714788902376 8.155845000697264 -2.742320495060382 50 45 23
2.7212873509591797 10.71924669410402 2.939900898766847 203 191 195
-4.658536502253557 10.348649276536733 1.043913739874192 102 101 99
0.24331117540817782 7.869381115594546 -2.2425297820428995 51 41 40
0.47795186964058517 7.731809210258317 -1.6580463696617773 26 20 20
-2.7987232519136285 6.8441281378575765 2.3742881278130423 125 86 91
5.216774253076248 9.822742289559631 -0.46784309606377594 50 174 234
6.423357542148598 7.658940379415317 -0.3819119653468635 50 51 69
4.90043256842961 8.300018005879563 -2.953748299184439 88 39 24
-3.653894472663199 9.441991100623733 0.5034524407501454 124 118 120
4.947854914593864 8.3821490791377 -2.862657420399404 50 17 10
-4.2307169109527685 9.912398903380952 0.5217268846375461 123 115 112
-1.8275365144902433 6.950916830775043 2.395807147708235 233 230 237
0.06989522730616007 9.844405337269382 0.8772843060319494 180 183 198
1.9106086586830668 8.958912091617165 -2.0007992499917204 52 34 32
-2.4615470302268343 8.090273898171112 -1.3718556089544358 138 136 139
0.8968975297571055 9.324904264953167 2.340201981868859 235 220 213
-2.9385344585789315 7.479415985265505 2.0725184151158653 118 72 74
0.40490645245867424 8.929263447291671 1.8231693930660002 159 151 162
-0.047455702520710685 8.338296177589825 -1.5970519987798122 32 20 20
6.310887526503802 7.609678053925309 -0.419974477790144 191 195 196
1.5355427396846295 11.696784930146972 -0.9471102518748072 159 153 155
-1.931982202518775 91.52247168588751 34.67947708665794 34 30 27
1.7175401645786816 10.588318214566318 1.4056548733306466 228 222 224
3.0889388589519604 12.218961297189782 0.4901086969944069 225 216 221
-0.26494110708788304 7.908671975099289 -2.0891957865409814 44 16 15
1.9235533927202397 11.231082049547872 -0.13758922698401196 203 200 207
6.733255105104669 7.483061424404221 -0.23508456998874383 234 254 255
0.6286498885718849 8.029332634078436 -1.8207608543622726 68 33 27
3.785879633292533 12.646110829636731 -0.09882824092905423 186 174 176
1.535991571952748 8.226673133502086 -3.111969553356598 88 31 11
7.961484457382478 7.964829597662382 2.3680030017706133 221 238 248
-15.422960658172698 68.83768521940081 27.308607454290616 36 32 29
1.92804000961354 11.054507451089084 0.7279224875968134 231 238 246
1.9639378546235322 10.752283881463494 0.7925189602811822 48 73 93
1.8400094582968176 10.509373072399914 1.7686905488689681 202 187 180
7.370131058733948 5.604839893040308 -0.41460268878792567 34 54 89
4.467660755917484 9.673633531689564 -1.9301246831502146 107 70 51
6.113637682307914 7.588029049708129 -0.6000971185666044 182 177 174
3.591609760925123 12.003888235589594 1.5670976523171807 150 148 149
0.6408271512345572 8.463888894096744 -1.909236981507653 138 94 83
-1.1574886759318423 9.635358165997717 -1.5967135262370198 133 122 92
0.004798428269904818 9.255825302775351 1.2440016730817345 150 148 151
-3.8466530407236004 8.905875963578099 1.8508911880555443 134 134 134
-3.1045824815179914 8.095656318297825 1.4029353592486702 43 43 51
2.523983485986496 10.952853008237842 1.8540914687652164 224 227 232
2.8874749125872654 12.318666220320162 -0.3706735500306078 201 185 186
0.20685443686459867 10.710260507359937 -1.7548990016289143 131 117 114
3.940787241042624 12.099261169845411 2.439548207821354 212 211 216
2.529777646214566 10.54653080343036 2.578766674760891 195 174 169
3.4850376956221747 11.24695546232091 3.5225582931884714 211 213 225
1.7379193749334139 10.13367647279589 2.6281182243252426 226 211 204
5.1408585839155725 8.561983671651701 -3.1778074289890528 41 11 3
-0.16117454580820362 10.813729217722194 -0.9492735996633151 170 169 177
0.5921825058225684 7.6295869003892705 -0.5903134695863864 153 143 144
-1.2865315863915927 8.93289444941824 -0.4959337561983994 111 102 107
-4.038824841164922 9.878959255552735 0.6786135704018403 131 71 17
1.257283555973474 11.24724658391127 -1.6997075804889277 118 69 54
-0.10798172169913302 7.812878613776398 -2.2018162430717574 102 93 88
-2.527527482713224 7.2553527657546875 1.4739661008540448 139 113 122
1.2178708466694823 10.807010155243857 -0.7079789809714222 196 200 203
-0.025417949190747878 7.979870400513331 -2.2536837419568223 88 77 75
4.126905300991854 12.981616587139897 0.4237808440163112 130 125 131
1.9298951998488265 10.560409714774055 1.856668744913802 251 249 252
-5.219640706952646 8.127032421304916 -1.4801526225307005 20 21 23
-0.008743586591728072 9.61166014485166 1.0615479235092893 173 171 185
4.329526446851784 13.596307907461384 -0.9275487853804443 192 181 185
-1.6210398233867926 7.511314366176806 2.2814524581691846 217 224 232
1.1398640200358714 11.0247750577144 -1.1352604663254497 162 159 170
3.843323121136732 12.82815298252353 0.4787639475856652 208 207 221
1.7442549267438525 10.092344956435689 2.723587982271158 255 247 251
1.3178193563522296 9.546139560402871 2.9373895252107007 169 91 107
-2.812284257727413 8.927325440326209 -0.7550023757212699 184 184 184
3.5647634998088753 10.341230572326847 -1.4407295539729035 75 57 45
2.30174867693477 9.75369271078158 -1.6929838120805611 66 51 56
1.7041736892187378 8.687024447400328 -2.1953616233819764 57 56 54
-28.230428670329285 123.60400452842853 50.66677262994753 22 16 16
1.701927117115957 10.854150497060466 0.8969696304831787 205 203 208
2.551628498646689 7.857267143539285 -3.635592534238435 110 49 21
-29.069496471275443 123.38060146812813 50.53498667081314 109 99 98
1.103102489538841 8.38320284360382 -3.093115232327064 89 28 7
-2.012629995791 8.11222099706113 1.4645923155243803 138 144 142
4.896757201913725 9.85346052440987 -1.0640116962683708 16 20 29
0.6572357342808649 7.722593126843642 -1.0340135135900292 98 96 99
4.785227043730375 10.936622731889036 -3.000831947365681 81 28 20
0.6023293270818868 7.797618770254072 -1.4489089318415536 152 138 135
3.1241211260525352 12.36603744634575 0.20595680847592968 195 181 180
0.6670693883079145 7.964054009482303 -1.2005120920386294 87 53 51
4.195440656867291 13.221731324537373 0.47778733216613245 105 90 97
0.17580565893099998 7.388977402030686 -0.7953744410431841 32 28 29
-2.707869581757757 8.149957017687669 -0.33772841526232117 89 83 85
6.115329163174537 7.559124220756043 -1.4634630584874642 24 38 51
0.06954668475705084 9.356584070609873 1.5011665264799954 159 152 159
0.3235724964815656 10.454824323570238 -0.033303417119323914 166 151 158
1.4869345538858811 11.041058844524425 -0.6352447377344496 197 97 123
0.013332680777563841 7.882495270251328 -1.2065781474409676 91 79 83
6.993942786066323 6.882699673610667 -0.29109824563312425 232 247 250
0.2541987076001737 7.538115354481032 -1.232652454449626 100 92 90
2.1853478506886215 7.111574972431001 -2.942809038941136 58 22 10
-1.6002898007064867 10.090766984873609 -2.1753130224931647 117 86 94
1.4050807170508672 9.765640457273397 3.1046606649899795 191 154 161
0.8073568520041159 8.719615324914077 -2.354080674195066 32 22 21
3.9083685417136738 13.132174665989023 -0.2184960940867775 161 148 140
0.36131971111061284 8.118597726871155 -2.7548756340361296 23 18 15
1.9393121499841988 10.863314296114947 1.194695152753046 233 236 245
0.6741047913475745 8.549684364856361 -1.6098398417880089 33 17 17
6.509154871602252 7.505783690423159 -1.885716564237342 33 65 90
2.147390348264856 10.71073683935457 1.709721703958691 61 79 101
3.221882271310128 12.921937086743364 -0.6517376756948908 169 167 178
0.6108575919370709 7.384261781034792 -0.7180241461482776 49 29 28
-4.458398313299991 9.546146555952582 2.5481938873406382 110 106 107
-2.7085010343720755 8.303298314288037 -2.2127343989216537 41 36 42
-2.5155262452027003 8.661705831043085 -2.1322352373811686 122 124 136
3.0371487710600986 11.52992793090354 -1.2581116356291873 137 107 107
-0.14526715638525786 8.23177819420413 -2.233375589217213 83 65 61
2.718541090901271 10.46581125005949 2.4378126334136665 201 190 194
1.6029630462310398 8.67377304247078 -2.1530062483123626 140 131 122
0.6681127004839637 7.961056105316417 -1.1985555779221955 87 53 51
0.7047418786120943 10.571462902944251 -4.510225030479745 114 57 28
0.48892155800075365 7.437226326588138 -0.7053774019786639 165 145 134
1.5972113137782786 11.215736100397613 -0.7115369427584258 148 135 127
4.303690979343313 13.451870428536507 0.5184521716278673 212 218 230
0.7644547849889614 7.940307137225052 -0.6465294009073654 142 131 127
2.7079543265595234 8.268585274764279 -3.5293554345875306 92 37 17
0.4291340559247545 7.336456349236507 -0.9259309252798692 24 15 16
1.6081452607325166 8.345306183601634 -2.5320840687156423 27 40 20
0.5143016370097325 7.936857262366392 -2.7166740160583474 44 34 35
3.898478184243932 12.25998574255654 2.082924740641591 187 175 177
0.05084682265764603 10.782925034997213 -1.3493190672871629 147 145 146
1.9524126219410622 10.386411360522583 2.2091958976053516 235 217 215
3.3133881035398023 9.733093298863526 -1.6831148824770172 100 86 83
-1.6945267623409477 9.065444260142584 -2.5473471250843804 20 4 5
2.3691221612298796 11.240599945620858 0.6526980930240244 166 154 154
3.5381878433142564 13.018086427043887 -0.7879807497056854 164 156 154
-0.052601287050005927 8.159608611921964 -2.5797717728787837 39 18 15
2.301696834446565 7.396426610653592 -3.166755534583792 103 49 23
4.022262150016924 10.381824884512698 -1.5114801707936836 84 80 81
1.4396567286410187 8.590415006630822 -2.2324729225962954 111 92 77
-4.7374049879579205 9.23870277860597 -1.6289931560626445 6 8 7
-2.0337978611483645 8.079339977280029 0.8685371800153474 148 168 156
0.6767093476978713 10.117138810152523 0.2807291901738631 235 223 223
6.511584728624608 7.610924780807197 0.36951709843941877 173 172 168
3.269199280490023 11.922312377570641 1.5405977667588158 126 121 118
6.089354918636499 7.583540887116139 -1.0779842850006889 177 166 162
-2.0571531340553157 9.267413468751698 -2.22060576045996 141 130 138
-2.2408146833673985 7.705454654655657 1.7259531177618386 146 169 153
2.685287328576498 9.767643573439395 -1.640032014175215 82 73 74
-4.086034265935365 9.955955315504223 0.7352774745559538 128 76 29
2.9995389941100647 11.581711643103892 1.8160267716452994 220 211 214
-1.2056972456336748 9.294125028233953 -0.3792648824107884 168 169 174
1.0494960158653186 9.907274674119734 3.260920966184252 178 180 193
0.17660415043597577 9.288240008352313 2.097527506053645 179 177 198
0.062432752752625574 7.835607267605983 -1.7034118877825093 52 37 34
0.9075541137434572 10.704503395124394 -1.1680445305251579 173 164 167
-1.6571033309595555 9.932757370523031 -2.9504560835863045 68 22 9
1.0032143103395077 9.588197152570924 2.661560295044555 209 55 89
0.8897697988204594 7.9082580589551785 -0.5235048834908584 157 125 110
-2.4900198973373837 7.514854593194018 2.0324603080332864 168 155 147
-4.3282039722359595 9.849711839462353 1.2448500087434513 50 45 49
0.25250424703675217 7.905288654593801 -2.3150692740984837 47 43 42
2.5276510523051345 9.069296656949977 -2.194200898140995 45 52 36
-1.7053296872731203 9.106356260484441 -2.695320059941805 21 17 18
-1.9083288374373912 8.223590063262447 1.4779702077526746 157 157 157
3.7359388265158566 12.156906424749003 1.9241903034748056 184 172 172
8.08510962751749 7.872062017788521 2.5511652891071392 254 254 254
-1.3442663576880576 9.697761208035978 1.2195681623090868 113 110 117
-1.2197948366234597 9.116208885445953 -2.579543626299311 79 30 15
-3.756003039097663 9.396602258343584 0.3801269009259975 122 117 114
1.8749567351561418 11.379559765033315 -0.6857085401866454 177 151 152
-2.311280047934205 9.21666011168684 -2.0950057631877304 123 104 110
0.6974493352420242 9.51171104872432 2.590503217815721 204 207 224
5.952197928854936 7.449088299950744 -3.105636810445447 70 54 39
1.375492087031761 10.684263800454616 1.3317457246489615 56 46 54
7.814359608535626 7.384386731031716 0.11892531427067173 51 51 59
-1.788553202794041 8.442021377177943 0.5470622814800272 161 161 159
2.234444306864331 9.485461491689968 -1.835558492370131 91 80 76
2.644804013308669 8.138316430888807 -3.5510358629730177 109 48 20
-2.1309401793940514 8.063903710685738 0.6077423290480846 137 135 123
5.5235279984970775 11.753983998741022 4.14070557571195 160 157 164
2.2300413771155925 7.553143510356675 -3.479412357894027 73 31 19
4.446275578250382 8.696794830185363 -2.603894971388 60 20 8
1.3144668363366863 10.82035970056703 0.7161246581592539 56 39 45
0.4221438974304475 9.643117077703822 1.6030555805748843 125 112 106
1.870011956854308 10.151791535519962 2.733423220334702 207 97 108
-4.092543620898999 9.074749148715108 2.4375557968818296 84 78 80
5.8645721622430615 7.622121725609048 -0.564499956650809 105 126 153
0.11747901109955822 10.773607731032008 -1.7894034846171885 105 85 84
1.8823586649642883 10.125379377473163 2.979365513525791 220 101 123
-2.691925156342799 8.53074940466753 -0.4878680366912999 142 143 148
0.6700739389684451 10.164182778495796 -0.5675105093061682 157 153 152
0.09517317953536159 9.970446620152014 0.8321340864597497 212 215 230
1.981335289286398 10.141107987996003 3.1588544192858405 236 163 174
4.911882769797437 10.238769206588758 -2.010500739308948 96 42 30
3.3524637066976477 11.497212851771858 3.0196793506546196 150 154 163
2.1224024659256346 11.330694014592167 -0.15935211325227772 144 134 135
-5.166680885617355 8.312448095106177 -0.9386554792545496 21 22 24
3.094217072183237 12.533749266728188 -0.18241182244313334 206 167 172
-10.46804058300941 102.10619889544006 39.35872495663442 40 40 40
1.3077574504794276 10.819068405945208 -0.7375019860670907 196 139 146
4.463982152272202 12.407324608629832 2.937398804324482 101 116 145
1.2389697294811541 11.32432251423794 0.8194488283040336 176 177 182
2.992160377326994 12.41878689431714 -0.3438280071594456 163 112 109
7.712265871463488 7.844868598108527 3.1895847222036524 248 255 255
4.110028448657736 10.224484331527327 -1.5327250784437805 74 55 51
-4.686375109194838 8.850507832780492 -1.9032090565149011 28 29 31
0.5759287337856727 7.886192128035302 -2.1429433852417237 16 15 13
1.9308672682149914 10.48767948139282 2.5390172478628137 248 239 240
0.3932362390760864 7.348353763058135 -0.7799466281436698 39 23 24
1.207715908121587 9.966960614418603 2.2940803596749184 140 77 88
3.315481658428979 11.75808617584579 2.1279941717258093 144 145 150
-5.401053298302131 8.442741933614494 -1.74626806815513 19 26 32
-1.6357299145441637 9.748398092020564 -1.2344621757888956 22 19 12
-4.51990175424574 10.251656883101454 0.7274346321526837 134 130 131
-0.0564668878832936 8.242797973474904 -1.6770927589755256 28 19 20
-1.955228560298287 8.667448302523189 -2.223393380319959 135 123 127
1.5294670037570013 10.524408010175149 2.1443788565525996 124 115 116
0.8234826279287685 9.536651750567014 2.068924816468957 252 247 251
1.8934540891936753 11.32907675289788 0.07861950835186869 214 214 224
0.791484366738114 10.349258024626424 0.28475738449974364 228 233 239
6.653319014838098 7.514445080056661 -1.91307734929661 38 71 102
1.0681225133645718 10.517576071964461 0.5003613572778979 86 66 75
0.5775064733611479 7.9319612641777875 -1.6511364238545676 130 121 116
3.4464842411706775 12.905632655795335 -0.258693076236368 192 192 202
-4.132457552354133 8.356675404884928 2.9477824435870246 112 84 83
2.2149483475703113 11.304517343019413 0.5984932219354379 48 72 98
1.9582098941884778 10.050272659490938 3.1554533052329976 222 138 154
0.6550264289444162 8.910466792295573 2.342377912927663 165 158 166
-1.383272210019572 8.449878171899131 0.6845171776438601 189 191 203
2.2523446860274925 8.966431239574593 -2.147318423366128 158 145 129
1.4711371508397544 9.054003131103856 -1.9285564522586556 99 85 72
4.139975280221589 12.653717244668737 1.330695657602055 125 115 123
36.63128832699252 98.9073198603389 42.34963432131504 22 22 22
1.2914794594957124 10.998403076382479 0.3129520250006945 43 32 36
7.7006284759864885 7.765696318757917 3.064057854637681 254 254 252
5.028557693420465 9.847624015424534 0.5123178589401514 17 21 46
0.13512040442913567 8.264964003183655 -0.5857416461459068 67 61 63
6.172260433407264 7.655990562833238 -0.02078729345587725 168 157 153
3.6773820599242706 11.91205589421152 2.587738760939471 39 55 81
1.921425221224661 11.297046438412321 -0.268695625553251 180 174 176
6.135200202831118 7.528651664889461 -1.847798570413962 30 26 25
4.301851243377963 12.040476999519603 3.4413846133091437 48 81 116
4.471229063080035 12.279101899938054 3.6015849888376255 113 150 194
1.8699820046715347 10.162612593979423 2.7250124794504864 207 97 108
-2.4471026863631193 7.443390960873413 1.104294882502147 105 103 108
0.5523409337175192 9.455386721610862 2.080269131257963 138 126 130
-1.1397336811143168 9.727772021893301 -2.224532658268988 93 93 65
-4.240580612014242 9.189418207077898 1.1111024433712458 107 105 108
2.5033365019968583 8.663793156315904 -2.57988256605077 57 22 18
5.753594089093859 7.707479455631679 -0.9990535602410854 216 233 241
2.7757801799283888 10.412471115717468 3.27453540460224 111 101 100
1.9812857195176667 11.357445939196491 0.3527006199968346 230 234 243
2.2186420360213543 9.8689661158714 -1.5751530989248335 100 78 67
-3.911826754912974 9.500751095487137 -2.3208856842701406 7 7 7
-2.5734608633849674 14.333079311850305 -6.01228454455979 15 15 15
4.717019486914878 10.180282150414943 -3.770938050599623 97 43 19
3.955169230453931 11.63028697602858 3.5940211961328488 116 99 91
-4.373111512824737 10.183569598779963 0.8989588654368605 31 31 33
-3.1227150781396706 8.830518884205958 -2.3719339548480303 17 20 29
1.9156106286753345 10.812205733364674 1.1064054285965943 183 168 163
-4.414289684182327 9.0191095113535 2.887886899469603 121 80 76
-0.009067433935416726 10.92678516563879 -1.1539263505622224 132 131 136
0.9191222469890742 10.25367026775782 0.6563390451651729 228 231 238
0.9238051173587515 9.026406670270374 -0.6659191346060009 217 208 211
3.2768770434532604 9.893808915666396 -1.5521702731116267 38 28 29
0.7700936626698264 10.214083112319218 0.291352729425026 200 204 213
-1.3850261057137667 9.140134865093842 -1.1042348000998614 33 24 19
-5.650107949979444 10.056185985278116 -0.9138778531152401 3 3 3
1.748865871765507 9.966320383236868 3.0658983385158436 229 210 204
0.5497418888329991 10.604937206479189 0.5358051401637581 174 174 182
4.4317211981036655 13.400109505687325 -1.0464232688599606 131 95 97
1.7304024470517247 11.339093616382225 -1.2830695385761683 187 186 192
-0.702766337016609 10.012841913941067 -1.0518445010818593 173 179 195
-2.4100701644157705 8.890340841775847 -2.267676655217114 106 110 137
4.329526446851784 13.596307907461384 -0.9275487853804443 192 181 185
0.36052114091407894 10.754397429565275 -1.7240407591116724 141 136 132
6.532458808154338 7.3765629641325745 -2.844752526026911 44 67 85
3.5506107112901018 11.614386901344368 3.0644625751648604 162 158 159
4.548776842385617 9.963680326243344 -1.9480272044280815 41 30 26
2.4059892396645877 8.99007662191002 -2.100277161211049 59 42 26
0.049298935041638264 7.914352714439461 -1.9715633957830059 67 57 58
1.5166232782924087 8.36184814533484 -2.4230438958453413 86 64 50
1.03145517892022 10.450220088138362 0.4056726407558098 36 19 25
-1.451473378361479 8.23209841822852 0.7420169226759156 188 192 204
-3.0750377884603135 8.00806312395025 -1.4965297679669012 149 149 149
0.1417695440476084 7.45811427514039 -0.8101372410810622 35 21 18
0.1443846415092248 8.501116234356516 -1.8805368426269544 73 26 20
1.4166123511431596 10.539725933681781 2.2502854897500413 49 27 39
0.0376878937696633 8.842288139635384 -2.470409003715283 50 21 17
3.5591464847022927 10.50500346276927 -1.4029188458407598 96 82 71
5.6581325759303 7.441951572820353 -3.3232774070872195 60 47 38
1.6940684571647522 8.659112480426437 -2.269497335118991 146 131 112
2.7252354050632746 9.682807487282583 -1.5609850287677995 62 64 63
0.7131024982641769 9.95329508240675 0.7523305336931356 207 189 179
0.42841495117182804 7.888108446452479 -1.5922295387281427 83 77 79
3.3625996081096 9.518859420257595 -1.9560956270197403 36 55 35
0.23441209745159527 10.36400207051762 -2.0357235503727664 123 76 58
3.1169412448502762 9.601999150959466 -1.6508062892411812 135 115 116
3.288970492203294 12.029019708985949 1.3610318909838108 138 132 134
3.1639026952200915 11.698696838148068 1.5572673643480694 220 214 216
-1.7745399540846196 9.424861294235075 -1.5312120621469325 80 49 57
-1.364475696283305 8.757006695865195 -0.12103971104308069 142 141 146
1.1218851700787322 9.753372835641766 2.26902296421497 252 246 248
-1.5579341350014495 7.74512430842454 1.3367977451162092 153 154 156
2.10172995622043 8.258172438875853 -3.633833520628747 90 43 25
4.31988177933088 12.216977691238167 3.319216459904464 65 89 123
-3.9092358688363835 9.763980518516647 0.5788615160665662 100 7 18
-3.412417188426595 8.865380295983988 0.8284588083517306 112 110 111
0.4120411157950426 7.886684606917085 -2.0750131056338974 12 12 12
2.12572777462172 9.36789738870003 -1.8460523549675534 126 113 107
-4.994525777389404 8.252019933200499 -1.824685905406985 18 22 25
-0.10960452831935057 9.265264597857147 1.7066036691746245 155 152 161
5.361433878197823 7.499242128572471 -3.418664672652661 81 37 26
6.174932522554111 7.597450860406834 -1.0812884359784862 30 30 42
1.7788177487879009 8.939635303684938 -2.024301642485675 125 108 101
0.6655730172062204 7.477694940789058 -0.6919058243748282 36 24 26
1.5863824011773342 10.995646009514529 0.10598751606054943 203 203 213
3.1701570961347656 7.604439413797756 -3.708292198896126 104 50 24
5.342474487777866 11.75139582921677 4.047989060167401 144 138 142
6.266999778451122 7.537075938241076 -1.4821426712373253 28 36 57
-2.598263019209334 9.92377273094871 -2.1299767926200386 96 69 78
1.9172310904972902 10.840866451034042 -0.575088115036241 195 189 199
2.2145361263942007 7.121106648679082 -3.1359025981961035 29 13 14
-0.011275718567067657 9.792458030087866 1.1701108189862983 168 167 183
1.1913038753237146 8.452050033192071 -2.6949842806327666 63 35 24
1.1692020462035493 10.868365388476116 -0.17536475755303416 120 101 105
-1.3559525028600576 9.252378672507197 -0.6666299922005723 88 79 84
-1.5766893641245525 7.8838931207888665 0.9454816017937878 171 175 178
4.733399649238726 12.60704052382092 3.3201010561084447 135 147 171
-4.348146395327541 10.08044523771977 0.7093033011661564 96 91 87
0.07987155634932631 8.149871700339306 -2.0453222703415714 70 51 53
3.9694469198885627 12.420604147814622 3.142609838731872 253 254 255
1.4197969685485528 9.222739255780796 -1.8892087420231924 129 116 110
-4.063240876578468 9.38699613739522 2.11820902060624 136 127 128
1.888690524387728 10.051803644441865 3.088439274037247 236 72 107
5.0038750055217 9.94746000108364 -0.6947447977759298 7 7 17
-1.26040094851601 9.873409169338505 -2.541907773509743 80 33 17
6.330372075540589 7.627444111883009 -0.22796722929136135 255 239 247
-2.4900198971772958 7.514854593159755 2.032460307703615 168 155 147
2.335868354089205 7.52936477154481 -3.4083974204324994 62 19 0
6.449937989557851 7.572274296018862 -0.6285637433830924 245 253 255
6.389036970418649 7.600284905010544 -0.3160821201041979 24 21 42
6.2730327247705935 7.494358029113722 -1.9640823696750593 32 71 104
7.232815383860303 5.744565294994695 -1.3767003841293022 139 161 182
1.2211864974077884 8.484410801560804 -2.7804391570716254 45 16 8
2.419200313976715 8.592327086897173 -2.4505549761974628 78 64 37
4.005768399563433 13.43980285403759 -0.829315352726448 130 115 108
0.6561689625429098 8.6134651717326 -2.1899318258241998 64 16 12
-2.512519969112314 8.05843542435578 -0.43222213152002137 151 154 161
1.8588494128757167 10.255586045714288 2.498634174626911 234 117 135
6.4095321607457025 7.5981749997408645 -0.7323095169396623 221 250 255
6.058736276686675 7.569824926273319 -1.2729894483868829 166 157 150
2.614677045419429 9.24237682136992 -1.9288728390907288 40 35 31
-4.024509862349095 9.248970870927401 0.3717034312356205 129 123 125
1.1733901433139842 9.36663504224413 2.2063684238673162 249 215 216
0.7435174800179485 10.34270919592848 -0.2067698172452547 211 165 167
1.482255064410733 8.600482067801599 -2.305644905247729 50 43 35
5.9586984164965555 7.784243626159145 -0.3087059433289803 130 136 152
1.2944968691696068 9.823768197409589 -0.21998307161402766 205 212 228
0.10625646735362268 7.693833585395314 -1.4156185931477678 101 89 91
0.9254282300922009 10.994616246885052 -1.0414980499825772 145 129 130
6.733255105104669 7.483061424404221 -0.23508456998874383 234 254 255
6.298734284291312 7.6189286148710895 -0.517007154180389 54 57 64
3.365259670680679 9.475919846644455 -1.9731253705543486 36 60 38
1.1304280773067932 11.722092799921219 -1.2362418902681598 197 191 193
4.210684099539279 12.937346758705743 0.6815476925303037 136 130 140
3.85995956366378 11.71348402397125 3.6767748204928923 112 85 74
4.409474194270981 12.371709841206505 3.2541123394204208 152 176 210
-5.3172939445223655 7.969285353593225 -1.7511657396691518 27 30 35
4.0219871880592395 11.865568037881799 3.124692456782053 82 106 134
1.261439969270648 10.330140211048183 1.693138120463761 223 219 218
3.2808382826462985 12.173133519972382 1.1777115031472911 199 211 225
-2.355180754561342 9.080374687815146 -2.039295315119044 119 107 117
0.25564882011184115 7.772414874846818 -1.6483460321607715 46 37 40
2.460832853858191 8.539840745148386 -3.4673088406498858 89 33 16
-1.6591238039697986 8.624813563340815 -0.4575863855715381 161 156 124
6.734487140387591 7.33056327253516 -1.7184870432055228 237 245 247
2.3693477369096136 10.841712853151744 0.6242118852955861 215 217 229
3.6304272269102094 6.509819826023986 -3.404885703011903 101 43 19
-2.6958307842519003 8.00968933192319 0.5836204191367277 110 110 118
-3.79315762460663 8.895548555618266 1.7899738637144171 46 50 61
5.479269181229083 7.325323643389625 -3.3638754208002575 24 19 16
-4.180573262149082 9.280764654954508 2.232089490571097 15 57 99
1.6276459712465587 10.19185135959385 2.833046750714015 152 123 119
-1.6076943053570982 9.322162839029632 -2.492548923024204 29 11 11
3.802010209610112 12.717962526055025 0.7523120777276449 176 166 167
-2.482329602954118 7.326739893354946 0.3523056058461858 148 102 115
-4.9054694855173056 9.174511867600836 -1.21793821779758 14 14 14
-4.591937916979907 9.341226872105928 -1.6961796902164612 17 17 19
0.07748272315340424 8.22844821539688 -0.7616253268669206 146 144 145
1.240175771649405 8.66687412194194 -2.2044053783965087 128 111 103
0.07088403455478806 8.058826323705919 -0.7530363586703835 52 47 53
0.14995511365914097 8.193560640096925 -0.6572001500669629 96 97 101
0.7364661642083901 9.613242036498894 2.1424217282280846 188 188 198
0.08231189085306007 9.992806154625375 0.7506886719048004 201 207 223
-6.99032671559884 22.040489729383136 6.993640656264146 6 8 7
2.307687872261425 9.493293952967054 -2.4063619524327695 59 78 56
-2.558675476867484 14.717008952741464 -6.242582746336934 6 6 6
0.6843275563078309 7.861231140695874 -1.8193961204144493 122 52 42
0.6046427859910496 8.292550490662888 -2.831248832931377 92 50 38
-4.321448330370511 9.51785718934673 1.2714428336061332 24 19 23
-1.5766893641914879 7.88389312079843 0.945481601795379 171 175 178
0.9755077171985855 8.816437201680188 -2.330343178045422 36 27 22
3.0838945194031497 11.144251241342435 2.9758044717295897 89 52 59
0.7380591962011558 7.6379321052815285 -0.6280592477641372 49 31 31
0.5058439615489512 9.042759107637485 -3.586872726184501 93 32 13
6.695085196822219 7.604868758210678 0.10153368948588795 244 255 255
-4.531830864167693 9.805701934541874 2.3656833450326005 119 119 121
-2.588464695610475 8.511775147122462 -1.3636545006523744 115 113 116
2.2579400688557745 7.635700942395463 -3.6034870995788992 84 32 11
-1.0863550398357777 9.175962310863433 -1.9562966289556243 126 92 67
1.0515873016305568 10.694714457532138 -1.0625440808241466 174 174 176
-0.20003654695220274 10.769469768356425 -1.0097370777933212 121 120 128
4.458497403339354 13.17006009774839 1.0071085998990021 135 132 141
-5.396076932555759 8.106493118363682 -1.7787996197201756 15 17 16
-31.642603254326804 87.28250573227704 34.30052733825117 35 32 27
5.139172539555377 9.79012212930192 -0.874042671658191 113 104 159
0.6473326089813 7.453311556664572 -0.9244346941475847 175 161 160
0.4120411155062168 7.886684606869945 -2.0750131054323013 12 12 12
6.699951349040979 7.542900353857173 -0.27782256736840644 85 108 126
1.1463559617581491 10.152924827564554 1.5653767658477566 106 72 73
1.5489151351224761 8.336608544035904 -2.5118505651155325 32 34 20
1.584340424952959 10.169124773097467 3.1620201761029207 164 146 146
2.2133538674976716 11.118022990964072 0.8354641099474265 40 60 84
-24.34494230802757 92.90897754126001 31.23312016315851 49 69 70
4.146403583266024 12.079863393376142 3.1152398716382907 121 137 162
2.3778577717513745 9.38062053263576 -1.8455806122600726 95 82 73
2.6266019788604407 11.065618573371852 1.5830784942288167 192 173 175
3.4464842411706775 12.905632655795335 -0.258693076236368 192 192 202
3.5508742260784607 12.955104895854353 -0.8920371912360378 162 153 156
2.955755010570792 8.897245377050158 -3.0054512830153097 76 24 10
0.5979892833366758 9.471725734892624 -0.9116828829093391 45 55 67
-0.27511396430764706 8.352712224739703 -2.170323184666929 51 17 15
-1.390883911074697 8.205909601093921 0.23750988882958501 145 143 154
0.9403774297395906 9.496199793035919 2.2265338436680273 220 173 163
0.6613289534213942 8.087809291734755 -1.5824421004179945 35 23 25
-1.5143512875756904 8.061658288692614 0.7493291169409346 186 192 204
1.5668781028744734 8.395484394123384 -2.6903663136191587 32 51 31
0.2894361116219283 7.726250438378558 -2.036778902849397 15 9 9
-4.507308039259216 9.591104064539211 2.665756451380206 88 82 84
-1.776553347031099 7.825944999876212 1.4709044011374015 187 188 190
-4.585103514781766 10.05066553677764 0.8442574093179873 133 131 132
7.238151832098159 7.326830387119084 -1.8117294278303684 102 111 120
3.522897447997608 9.819506108665843 -2.387559838125036 49 23 22
-2.2665235156822425 7.4231745626660315 2.1484412209649677 126 122 113
-1.368399673778509 9.044867194210601 -1.4039407697913733 141 130 100
4.005768399563433 13.43980285403759 -0.829315352726448 130 115 108
7.135776488645785 7.0018901200442585 -0.41060502183646375 138 146 157
2.3275793693204023 10.55445970266858 2.3365244442981754 39 38 43
-2.8307356310550005 9.017160481684835 -2.2342013247237213 25 29 32
3.429319488182308 9.3159747698408 -1.8184263518142265 55 87 63
-1.3248040459014503 9.319084942211797 -2.821165534742803 72 22 13
2.434997197467774 11.833425686747702 -1.254341564935571 186 171 166
-2.3636264027209397 7.975872638529419 -1.5752485375818799 136 130 142
-2.159643409267661 9.087646844388884 -2.30779685841886 150 144 148
0.935212613473121 10.254662651910154 -1.701637832403996 103 81 84
-0.2860730057922971 10.479337333595549 0.7305544588346716 117 111 113
6.308423961785038 7.607946168499553 -0.42062177460425015 206 211 215
0.5191598000445063 8.150324875908884 -3.0165977500307206 143 122 105
3.9870781801717206 12.237834449540816 2.1343703927846103 163 145 141
1.3567021187889463 11.55806652230371 -1.527506504367323 173 162 166
-3.482424466872398 8.920795305152698 0.6134053685096345 27 27 29
2.93656733147306 11.027374762826744 3.228618615120782 119 117 120
3.392525568630191 9.340643187532686 -1.99205542491592 35 58 38
1.58947142704273 8.644693980893654 -2.2295121406914187 87 79 76
4.434917177550103 13.345039011855256 -0.7646774616509096 115 98 104
3.595172902675381 6.644903642328838 -3.3025254027153257 101 47 19
4.814123816268532 11.73424787416839 2.3048867280335577 45 40 46
0.6371990297778559 8.375562858576082 -2.7109136740950524 61 52 53
3.8200780558894647 12.542240798279224 1.5814530704616407 220 226 238
1.7396798536482987 8.75545108847764 -2.753285578895771 85 52 43
-1.6903724280873604 7.3025984786115075 1.4320845920987841 166 167 172
2.1710339051865244 8.734395515363197 -2.2395888890621025 86 83 66
2.3066111405846965 10.403587113825367 3.110624748005682 127 118 119
1.1423502196228885 10.290027511704208 1.3988546780604065 100 74 75
-1.6219336571724747 8.497485143421581 0.034180820579927336 50 41 34
2.1310974285232067 9.099428644217637 -1.991668937363435 94 77 69
0.5329036825143619 11.07125140259812 -5.044328324682351 21 15 15
0.5257890878162941 8.569829839402344 -2.551502761121651 104 36 23
-1.5865419670161427 7.761191501498383 1.2545675573300652 166 165 179
-2.7424315818695773 7.44641591918001 1.9165923846448676 90 88 73
5.28845010400292 9.677261080619083 -1.094946654752807 216 229 238
1.9396651604548132 10.608580174724342 1.7053591240367292 227 213 212
4.392482369670617 12.245764311960892 3.647266621999079 104 109 128
-0.5782661889818694 10.502806444275254 -1.6622846745677908 181 184 201
-26.92698500077585 103.5008144475525 42.99140619359784 91 89 90
2.1254212109623767 11.776820602058558 -1.3848920251588657 159 147 149
0.11482549120598667 7.61923680117993 -0.9559901575239168 26 22 23
3.576246077097039 9.565748368441522 -2.2029993555198035 59 70 56
2.963735139827463 9.393782218635396 -1.8072470763236106 64 61 56
-1.2116520340255061 9.146775706209652 -1.880308962343496 149 129 96
0.4010690966734935 10.046120525772704 0.15766029280955543 142 132 131
6.693618760002469 7.690625645195311 -0.2779272627760664 70 99 113
2.496070670329807 9.17839011458965 -1.9584873304116681 67 51 38
0.11770122331478722 7.515863573313934 -0.7460800071804811 61 30 27
2.024368512573552 11.195017771718017 0.09177823543009037 132 126 126
-3.8064417142404614 8.734386422145006 0.4615827959712632 144 132 132
-3.6473881374700103 9.187819433512011 0.1980969358973988 136 132 133
-1.0828456124396724 9.462780600370868 -2.123422206164296 39 15 13
3.5912979194863683 13.011896139475933 -0.16112520696096108 144 131 125
-0.15258551746748034 9.781137003960996 0.9783803935300163 188 181 197
0.333415912991545 9.584048244519273 1.6432946364044771 139 137 142
2.6493101777545114 10.803835432115834 1.9316663375013048 211 200 206
1.1844780311061192 13.247037064522107 4.616359737550192 18 19 23
0.15864097347018905 7.4263341553141835 -0.8048853597918246 28 12 13
1.2516292084936056 8.467141818130662 -2.3250297608355557 53 46 40
-2.5299282560167944 8.204879210631457 -1.913853182100459 70 70 70
1.373976113813033 10.182324791067598 2.507447673704684 149 52 69
0.1351109502836784 9.609696488563218 1.4536475159408853 166 165 181
3.414331196636769 12.492401626966931 0.588119271984759 179 170 173
5.178238715520457 9.926465403380861 -1.037878888874855 246 255 255
2.086654964609065 8.754440482777559 -2.2545613346530895 124 113 95
3.9717641581282312 12.177127570383298 2.419604550315266 212 210 215
-1.5020840536924298 8.46380546303777 0.06273164419961692 138 133 139
2.620449430968751 9.404541727682666 -1.7778742143730042 81 69 57
2.5040719180444144 11.784617662494584 -0.18743409645907405 65 96 124
7.089508959385888 6.908947919901653 -0.4468358084211674 88 92 104
1.9644626656300723 10.68559959186051 1.7947623440712726 249 247 250
3.420786279038236 12.369693412634977 0.8623552389106369 181 168 175
3.092644576691433 9.491725026782053 -1.7865289627602752 62 47 42
4.42527709967021 9.753038458759857 -1.7635650539659724 59 87 72
0.0905250559559817 7.706511656646141 -1.4340029098528173 50 38 42
0.3241149505509068 7.364039339348501 -0.8649241504163723 128 122 122
0.8595158531637722 9.777445747080305 1.4072441155891466 201 139 144
-4.622031748843445 9.055106992045912 -1.6077001705247902 14 14 14
-3.533695509246454 8.810024857295668 0.8802394914122741 100 91 96
-1.763513897702118 8.514031375650807 -0.28543921173539755 163 149 138
0.34737379406684077 10.434462166007368 -1.024720075652731 168 168 170
-4.1247834769889495 9.968718254448797 0.7521342927130613 135 90 35
0.7314208364811575 10.997476466355662 -1.7195679524845762 124 76 62
-2.3483016629243108 7.8982775332195825 -0.7487757247202008 41 26 31
1.3916229007936292 10.77956332026396 0.5448514585859439 40 31 34
1.255721133790963 8.040917699198058 -2.812403216009986 61 21 9
2.4589441640209344 10.472743062600818 1.8977475421968926 201 186 191
1.6970249214526045 8.236971048170583 -2.8245067026336836 33 10 2
2.6898693361155073 10.32191851156881 3.2332309138442348 163 157 161
3.726061503602759 12.29012204693033 1.7868103725266744 179 169 170
-4.603209616650719 9.953724040651386 1.5589602955798953 43 42 48
1.1585301124674103 8.784906404737066 -2.05776756169054 65 55 43
4.191158244152398 12.646674282276889 1.3671813866576301 123 110 117
-0.05541512251904737 8.130218897312597 -1.97716886686747 74 43 41
-5.219640706952646 8.127032421304916 -1.4801526225307005 20 21 23
4.08645004870519 12.55055429764137 1.324407000444816 137 127 128
3.5489762441359822 9.75455249382024 -2.208922573357952 47 38 29
6.259788248700503 7.429723322654241 -0.998772753033084 31 47 72
-0.006795703692245274 8.231647352009432 -2.3712947705058585 44 14 12
0.7755626667018568 8.928141392265246 -2.148280652622569 30 20 18
0.19906927431938998 8.114095990908222 -2.688525653608107 33 23 24
-5.690017593526069 8.657064662071338 -1.6565503874718095 22 27 30
0.6655730172062204 7.477694940789058 -0.6919058243748282 36 24 26
1.9812857195176667 11.357445939196491 0.3527006199968346 230 234 243
-0.171139291605534 8.047173365088103 -2.895083441689387 64 30 18
0.7161651819458649 8.123534218745316 -1.206185722952775 144 101 94
1.7612018886777698 10.29820761569604 2.1877127449527127 229 211 209
2.718541090901271 10.46581125005949 2.4378126334136665 201 190 194
6.202832056420198 7.546632180376612 -1.3880757255338552 134 212 232
1.8752795692336135 11.045044488503397 0.2140457079900935 198 196 201
2.839574214227989 10.690040530218939 2.9870215166844973 170 161 166
0.5173006829067044 9.177252895762003 2.6035928992264137 179 176 193
3.6484022829620546 11.904245375703452 2.4802557627380226 188 198 208
3.186733570402085 12.909124662314788 -0.9812801013970248 165 155 156
0.40693695549273295 7.914980156697553 -2.364992805968886 50 41 42
-0.19022135999031675 8.343788950366438 -1.916707284170315 60 46 45
0.8965674490142486 10.002896394472424 0.9996430365012187 199 190 183
-3.1128126080814256 8.168834344166559 1.8428881770818197 117 113 114
2.246463341536771 10.924618558916405 1.6494711767919066 74 76 99
3.6621807684164227 12.568670110802751 0.9418642025024331 159 144 139
7.106794736370936 7.414633915883935 0.19444450371604774 34 44 56
4.4281235869146025 12.1079103114495 2.9214363023079524 111 107 121
-1.776306295523484 8.004789624532147 1.1873007293194768 173 173 173
-4.079618392731886 10.439091169406389 -2.0642927097049992 20 18 19
0.42640711418287935 9.781979135666049 1.2944208882844561 177 178 183
-5.348924103141955 8.400774631308831 -1.3826645520928296 30 33 40
0.5629545916048184 9.24447812914833 2.5804729053577447 203 208 227
-1.2111584615304407 8.829720623689353 -0.2794949951472169 89 87 90
4.7536139335578405 12.210327393373763 1.5575573811656631 176 174 188
2.2448172139032496 10.121318396560243 3.3617703648096056 155 151 152
6.017609157764671 7.509955235752886 -2.179413534930482 131 108 126
2.5018633808171247 11.44895420253829 -0.5205835679977401 89 119 147
0.3722167037543871 8.082534532991843 -0.40683355689661665 45 35 43
3.925620870013278 11.975895682461754 -1.2309335080967259 125 68 49
0.4959184550477875 10.120390261754602 -0.4415287482485994 144 130 129
6.667127064270658 7.905334896169821 0.5573422908463379 168 158 156
0.545304827187392 7.914966391416252 -1.9003093162330595 126 95 92
-1.0483881080644448 9.219527600860616 -2.536036586380688 55 19 7
6.272081827215225 7.5597941782554585 -2.05760673048865 36 71 99
-1.577181715890743 7.582519787416116 1.700198863418593 166 165 170
-4.615267367309041 9.85675685220581 1.5663455928693717 40 38 49
1.8127721406892543 10.807163946692436 0.5470349520045156 130 144 144
1.845358537402243 10.31703106306055 2.3118044877610546 194 177 170
-1.3714298871362294 9.184430833146097 -2.755135477517266 79 27 13
-2.0653614990484215 7.927693655637551 1.8448381571035346 148 149 151
2.4682573173586664 11.147773590012125 1.2143377469833163 133 121 121
-21.416662565935145 96.16949803850996 36.66407848204839 52 65 73
-0.0007937185268431109 8.39781237670611 -2.193949157288768 27 13 10
-6.229772450406431 11.27068341500952 -0.3492331774556832 109 71 50
2.4761043106769987 8.404698771386576 -2.7765176040012207 59 21 8
-3.0617168176470053 7.886866504969041 -0.30607589834123744 25 29 41
1.0585101295842254 10.66350025782019 0.3144296351268797 50 30 29
3.3172602441407504 12.570086045029242 -0.05893828430728959 191 188 195
3.0407878920920863 12.27818643342489 0.35514869475399413 233 230 239
3.2914729900882165 12.519556641716072 0.1954505403177131 179 178 186
-1.9425563641422214 7.738416046052453 1.5430740472050253 146 142 139
3.053879005063282 9.93666745266217 -1.5376667578302723 51 35 36
0.23349081291742052 9.7045885866123 0.8087718185089078 126 121 127
0.3808535916988963 8.431731378223821 -0.3549857236990601 201 198 209
-1.7645610056848753 8.468151316198105 -0.09472952034876313 177 175 137
3.352463706604694 11.49721285179182 3.0196793511103692 150 154 163
-2.324543518349704 8.005279840735389 0.11710334643889192 78 35 44
7.579427567119752 5.818424213466299 -0.7735505093829692 221 255 255
3.344710420288999 11.5807617960831 2.906647447402215 143 148 154
1.72134819993403 9.342440716821642 -1.8376413071765274 51 40 38
2.401437386476852 11.541589724913349 -0.2312403406162606 80 110 144
2.411444613855921 10.835376316021623 2.2890652083692467 63 85 108
1.1441890170942688 8.415879148986798 -2.392525548522333 38 35 30
-5.006550644241637 9.057527456504614 -1.1990796539542061 6 7 9
1.9929587040248242 10.662609212001511 1.8810234076383392 255 253 255
1.1894815559993972 8.370893858497801 -2.5886253114267816 60 47 38
0.9571033934495886 9.44971951964227 -0.13625026796742687 108 139 168
-2.4118615678211413 9.815716438068142 0.0069742587719015085 116 117 121
1.4112475355246816 10.609565817131637 0.9677941340174658 29 20 23
0.8909864257549697 8.863828157299158 -2.0789771996335547 88 74 65
0.9971600301593029 9.71345557752919 2.285892041393961 251 216 220
-0.9674727542216673 9.636363824662656 -1.8032688303012117 75 74 70
0.750073242761859 8.455273905034137 -2.178674594655881 106 50 35
-0.2860730057922971 10.479337333595549 0.7305544588346716 117 111 113
5.934562185266589 7.518777970126491 -0.6570036329711291 168 159 154
0.29791770256925687 8.264774670640739 -0.4371047855867745 97 91 103
5.066378842763908 9.822403442493751 -1.1492709419617486 42 49 57
1.5300054535448848 10.127357074444891 0.8641305688421336 54 70 95
2.338387311526186 10.35609152847121 3.09014885567936 111 109 112
0.6995789827431248 10.009409490127716 0.49715203870557717 225 208 200
0.8854965262480022 10.345882443479173 0.15443174004506505 224 223 228
1.9292833638012972 11.041485486525417 0.6327668884849912 178 163 160
-0.1662676031733296 10.936290616637717 -0.929331511462988 204 206 219
1.6068618562730212 11.351464506691979 -0.6209273398493453 161 149 153
7.227929237986205 5.622300943922072 -0.9822774866741327 132 141 158
3.6312999653540827 9.779551408218396 -1.6796518397108673 65 36 32
3.3207735915863554 11.519915433368553 2.8071925888874696 140 136 135
-2.536157353853509 8.168943146573474 -1.2077273856033737 125 121 122
3.4422473377654192 9.755095265687917 -1.718127333286107 79 69 57
-3.261110332957658 8.26316442467373 1.5318152893891623 130 126 127
0.8892448285021092 9.716333014341846 1.628820181855788 231 122 145
4.167966272890784 11.698663701632514 3.1954758582527774 111 126 145
-0.3112845136491209 8.565176288773198 -2.299547031638644 113 75 62
7.207932690732692 7.36978744315105 -2.9662347198559282 101 117 116
0.5739294089055635 9.8077283338628 1.5169897653350446 157 151 153
7.683749790721588 7.8532171238024295 2.945646599387179 252 255 255
-2.87249853503472 7.979453130537911 -0.44007504573532297 31 22 23
6.507161793878034 7.631724568468497 -0.11020584125412247 13 29 44
1.7882415173006905 8.217728795900722 -2.794735035659715 54 20 11
0.030529315198065746 7.611178101883187 -1.2602880377557184 128 124 125
-2.6401284199950155 6.877908693587119 2.168358439225065 129 147 123
2.329410907241576 10.707424225979958 3.5109478048477487 98 103 107
0.747679801742089 10.321991902134036 -0.07529612065178598 215 200 195
-0.46964858141841037 10.307747026685508 -1.6478192903177846 162 161 167
6.224104467971119 7.547477697526833 -1.7700911182750585 43 56 72
1.6323163558340492 11.238426017936613 -0.6030806259404851 176 164 168
6.155490006900426 7.411979525958436 -3.1153590647332114 31 31 29
-2.296269188797499 8.278787815739898 -2.0950283545552213 80 79 85
-3.960245458710566 9.207962485336067 2.1049545240039294 138 132 134
-2.4004721775198714 8.681068986144426 -2.1443944691899666 160 159 175
-4.12132945105414 9.99597180764599 1.0583972572586875 130 106 46
1.4258423313963302 9.932759704923166 3.011912271753939 139 49 61
0.011078470057683585 7.565972843363406 -0.6675888227528799 86 80 84
2.080765511763706 7.6484505395075075 -2.235736989799674 55 89 62
1.5046629027612852 9.393529265434285 1.8926154200437832 222 224 237
4.01813199077013 12.414292261204494 1.3517619356993804 121 114 122
0.6613289534213942 8.087809291734755 -1.5824421004179945 35 23 25
1.6210262335163488 8.76372224320899 -2.1422736131763944 114 96 86
-2.585061482165396 9.625366055326959 -0.9450378358140342 112 112 120
-2.002568579575135 7.7106257893810115 2.1216217527959698 184 186 185
4.3991592875233385 12.709910009774699 2.4803686353371717 220 223 232
-1.9471000766678435 7.652135656653026 1.6107400481923575 180 181 183
4.194486879139701 12.257863496437455 3.2144587783119474 120 150 186
1.7452898599201663 11.328260841740356 -0.640289252058263 144 11 28
1.5367946676501534 8.581908451024598 -2.2658475410326027 50 33 23
3.7501320600361594 11.982940373566283 2.4714402378012763 171 154 147
6.758868669809274 7.5114589433450725 -0.1340524078298842 21 29 40
5.927531339058681 7.501536151839551 -0.7479313011955634 168 157 151
-5.886757549440622 10.83886799054315 -0.6748114064277646 20 20 20
2.2502440656375886 8.952334973517408 -2.1466642767156134 167 155 141
-1.9055997981110702 8.177413519258806 1.3982894916718167 159 159 161
-1.3569047585829153 9.799809111976325 0.383356244804791 156 155 161
6.12053126807387 7.56084200737804 -1.3751523804776649 87 106 102
0.5937171330478309 10.49883308586089 -0.6366036437000511 207 192 187
2.946261520929486 9.085130853890202 -2.891226310993098 63 23 13
-3.8064417142404614 8.734386422145006 0.4615827959712632 144 132 132
-1.7235606116140025 8.388716218124296 -0.3034530173604187 172 163 134
