ply
format ascii 1.0
element vertex 708
property float x
property float y
property float z
property uchar red
property uchar green
property uchar blue
end_header
-0.14204119470913001 2.0689335966108247 -0.704341768454624 169 126 156
0.6044712808424667 3.5188019221962374 1.0609584294941772 79 60 70
0.15888355462176074 3.45048372495835 1.5901161071355678 140 115 134
-0.4237528342779223 3.043459218285632 0.13151399385747178 79 45 55
0.09884737334035419 2.3942558257665154 -0.5367772915479138 83 54 74
-0.678286856359032 1.9866434375497928 -0.6845825441646272 169 120 144
-2.0266497667929846 2.9283228405624744 -0.40800900464673134 34 28 35
-1.5383021152735306 2.729366790682631 -0.19763845510621877 87 59 60
-2.202016698643438 2.923768075080451 0.6222789722850598 134 113 138
0.0964046226452031 3.19481291667425 0.19303716575863256 100 52 60
-2.104082310009467 2.8227929630218904 -0.837971944981445 87 76 89
-2.31116780147811 2.859449319342249 -0.45416356884917436 76 63 83
-0.7043366655368067 2.875691866572869 1.3978711163056783 38 22 25
-1.0179590864107688 1.9727419723381303 -0.41233433666604735 88 48 51
-1.9430636429629398 2.9998589843826355 1.0619323329490757 86 70 82
0.6111217248772608 3.5109267023401 1.3058788741179996 128 103 123
-1.4231255233331381 2.659013637040841 -0.716859876518095 76 46 55
-0.1004028697536288 2.090741901016996 -0.3703559653696331 114 63 72
-0.8358407849338446 2.837977544118609 1.2235355976101927 104 70 81
0.7413471650838189 3.5422006371683676 1.3627815418216356 112 91 110
0.07667291185389646 2.911514649286153 -0.7449521163944094 48 32 40
-1.9791954433812826 2.9416901305570526 -0.24189806658180696 51 41 44
-2.1989956259507806 2.919480643292531 0.5422617519471388 136 115 140
0.5543449426497258 3.4490176765865783 -0.15706354333272507 143 120 136
1.0256703466873072 3.6100093428379347 1.4832024335543081 106 87 109
0.3034990456832821 3.140111881469677 0.3428113885212257 157 110 125
8.782531041798487 7.515670634375697 2.0697466052399416 107 70 74
-1.0378353910974707 2.9338957979893907 0.3951331263518214 66 31 34
0.6165108799409337 3.4529883558186882 -0.30785666567976466 116 92 105
-0.6405457765786398 2.851860668585664 -0.2641328487187439 113 81 104
-0.7114163180759174 2.7708912259815497 -0.4414740929104774 160 121 145
0.8885907300649112 3.5000247534623847 -0.6535808948183527 30 26 36
0.422525222667978 3.447147803786118 0.4466509234457811 117 93 112
-2.38705110401345 2.8574284688956184 -0.08669092672680045 114 100 124
-0.6052972095761903 2.862178242822923 -0.21716059671312662 134 88 109
-0.3505059523846532 2.030807256992258 -0.7458579433669279 109 61 73
-2.1721253813636174 2.9491665039197485 1.1771040188794748 112 87 106
-0.7131690024671541 2.008015453081407 -0.455581952488132 109 69 85
-0.6012116363590695 3.0128795031731284 0.0762829291414555 189 182 179
-1.9684642582095468 3.040879351566048 2.0953280637349603 134 108 119
0.393558859003027 3.408697622057908 -0.2955177413959843 114 89 109
-0.2800569521763006 3.0997889241725636 1.1136498848929386 93 61 79
-0.3287196522073227 3.1418128671726704 0.14980648432209062 124 67 78
-0.5693528432545655 2.8621001569858264 -0.29667294099105257 133 85 102
-2.4348565890851273 2.9284374763540675 1.8212977271526114 127 111 136
-2.208087870510903 2.9324730753974766 0.642458041195795 75 66 89
-2.530539475456233 2.8528248140408907 0.5018309881308282 120 99 122
-0.13749667330918108 2.0662939771859468 -0.7306165148275401 103 62 71
0.8589012223500614 3.5149593797535488 -0.1201139761571774 117 93 108
-2.9855634489935543 2.738587213263963 2.0104294921203523 153 167 213
0.4067189946729205 3.019851023427342 -0.4798092997797693 116 74 87
-2.2690219833022334 2.877178183426735 -0.2426272573702065 111 98 119
-0.8827407165181793 2.900972239634666 1.2760152543371044 70 36 40
-2.1427653606636627 2.811613856809002 -0.8221375568361685 37 36 42
-1.7344530799274291 3.0797515546900445 1.961679621544856 126 101 116
-0.8008476121792105 1.96118433506831 -0.44072559937557654 116 71 85
0.0785905834296976 2.9966412316562128 -0.20157319774801932 135 89 109
-0.3181674419314089 3.096906700245047 1.0901802985165758 123 70 84
0.928411724579888 3.549022608676427 0.5215498047043525 127 109 135
0.6728962666639261 3.5263063893601263 0.9623373450530535 90 73 98
-0.0463772517429624 3.1911252675656607 0.5181558760909301 70 34 36
-2.3892715478442557 2.964232798145336 2.3907974567756582 100 85 106
1.0462162885740902 3.611551428823278 1.4452822943256964 108 91 116
-1.0288962122696408 2.00998287487406 -0.48845984741587306 55 31 37
-2.1253502488656175 2.9059134174284558 -0.21602051064035635 93 79 96
0.9562019221553968 3.586487986411614 1.2595809499340864 90 77 101
0.6676161689148095 3.5059522687735782 0.6681571258291255 75 66 81
0.4249546369344444 3.4076490403588577 -0.5206280962121076 84 62 82
0.956868032244141 3.5696808092317704 1.0678500416065246 136 120 145
-0.0771956210572006 3.3909366177528235 1.5608864671942195 112 81 103
-0.08048918099521467 3.2206000661192316 0.32854705519531896 133 77 90
0.8346650747763205 3.502236907576453 -0.3869327765009852 95 82 97
-1.4480808883943581 2.6668462134125366 -0.5010447554673113 74 41 45
-2.7972619407125707 2.7782417509306097 0.0663019748429573 106 92 111
-1.711998227093345 3.021310306042518 0.5717646974260998 116 87 102
-0.22699619828566214 3.377919588839992 1.79048985741979 135 108 124
0.09210279020647762 3.2294111742567253 0.14505405025658083 90 47 53
-2.379546375120799 2.9037031044791957 0.8783784234730129 107 91 118
0.4989443484111715 3.4368758342809365 -0.22015248168012944 118 98 110
1.2600565091563738 4.031228335547895 -0.6545801964301353 153 172 215
-1.0036018797642792 2.934420320337443 0.13009439963349495 81 46 58
-2.0823579565884844 2.9090460597550694 -0.33330466447020046 90 75 98
-2.2650344607564405 2.8723944156595143 0.11213073928492795 113 92 107
-0.154964018717098 3.359280995275347 1.1077676816435695 124 93 110
-2.32493665295829 2.9468903069486627 1.8434669237964614 84 71 86
0.889581758876076 3.563752667628375 0.977521979462976 110 87 106
-2.08837869419263 2.9064239239498564 -0.3511521594711198 47 34 43
0.4963354059948866 3.498175206041785 1.487660447960601 105 85 103
0.8589012223500614 3.5149593797535488 -0.1201139761571774 117 93 108
-1.2225733040747349 2.0932125879854486 -0.721503867484981 129 87 105
-1.7446401864493701 2.5627556517108783 -0.39460322593368086 104 54 61
-0.9603532022286464 1.9444485188740865 -0.6958913700083631 86 63 76
0.14070987217219866 3.008286747697988 -0.2435494290117228 67 55 60
-1.801934650075578 3.0129065936158566 0.4075782448284105 130 105 127
0.43523801491498193 2.98285200489846 -0.7389982446676957 93 51 63
0.6296687493294028 3.4287217355082715 -0.7088748713017688 109 105 137
-0.6084218530671739 2.796519719528609 -0.3971473621416959 59 46 56
-1.9327778580064279 2.942040226743244 -0.41762512309738414 88 78 99
0.5080790597693375 3.4464096542571565 0.060790830432709546 110 85 99
-0.030395017078038558 2.2112385641397942 -0.5032354991141407 148 100 121
1.1641075678297794 3.8456588896763386 0.28988135485919425 46 35 42
9.234156170322402 7.615468653729829 2.3495206422705706 130 123 164
-0.6401187892136067 2.846407115518959 -0.27241957489913277 118 89 114
-1.2342042522303796 2.991619687847344 0.48444868449264566 126 69 76
-0.3499338507907595 3.085792531628582 -0.08943577428059521 127 71 84
-2.3064036805894115 2.867469225512723 -0.054341936582363644 71 58 74
0.7119955752978828 3.4897809070897483 0.4381122026138035 133 112 131
0.7224354300186374 3.5115701274505637 0.564609660873703 133 102 118
-2.5932435743026816 2.8213597097606464 -0.3591835242998963 111 95 114
-0.06642233787911143 3.1238012530967474 0.8871269183274235 110 69 86
-2.5384956468185043 2.8204146749002925 -0.010305411006091378 84 72 96
-0.17800868244238977 3.1571173133711734 0.6528259333945887 124 73 88
0.3302947901275754 3.4460782302856896 0.6224439719425022 136 112 132
0.9481253575530021 3.562818105883911 0.24601601777696086 63 52 67
0.929112530194648 3.532037467188281 0.20750091724552688 97 78 98
8.655924750250483 7.75629392734708 0.4757809087843534 137 154 186
0.46905736101152645 3.4369019667944074 -0.0028689168822227697 93 68 87
-0.427175010243693 2.894918441813685 1.279626202976468 46 21 25
-0.5279313620943825 3.2067681621062505 0.05546076120639904 109 57 68
-1.2598032726127668 2.960306305477553 0.7653203374098628 53 24 28
-0.13096165481104194 3.376416029141744 1.490840636940342 122 105 125
-0.6208311045743383 2.018512461808644 -0.42779443744138324 64 29 33
-2.023554401843589 2.944553569756256 0.168949384930834 107 89 114
0.5793102633404581 3.4549688124730698 -0.19625984670229474 27 70 174
-0.9502460251910092 1.9260288784697126 -0.4082264801513448 105 65 76
-2.868685894659365 2.6782297331116385 -0.8092978802404696 121 113 130
-0.37691583589309435 3.047902400214536 0.05014803532417151 119 70 84
-2.004758411843113 2.944964975633428 -0.07251460149771133 98 80 98
-1.3825029703142533 2.954363709023891 0.4952821134411735 75 47 57
-0.6154180716227812 3.0175070827394523 0.9113045766824378 88 46 53
-0.26208648039019994 2.923009821337225 -0.27384254369515443 135 86 107
-1.4521701433374496 2.6778634269906276 -0.3099733954460114 129 82 97
-1.1815195358354278 2.7513277472934186 -0.22662968159317268 143 99 122
-1.140919642717473 2.7498667402701877 -0.2783902396169034 136 90 110
-1.1823158180951114 2.9859126765677195 0.1888587955280711 119 64 75
0.5339054174263347 3.430615481531807 -0.6678090098520175 59 45 55
1.267575730101624 3.9635072599234746 0.04316832876195872 139 158 196
-0.7340723805749692 2.9520701783100516 0.37591420782798823 178 167 147
-0.8260884538211017 1.9287626562095594 -0.7834386482129887 131 85 99
-0.36538673649167813 3.330105216012444 1.5115578503232554 132 108 134
1.2446542876512625 4.976851626060613 0.3700524575293019 146 164 207
-2.4748353134926786 2.875248616802011 0.8456976154643275 124 98 120
-0.8629565136732961 1.9738544427950955 -0.534111637197944 137 91 109
-2.05862100386369 2.9699291262032825 0.6478904523098106 59 49 65
1.1032452493590434 3.564752433146718 0.10345467646685891 97 76 93
-1.897006446417414 2.9630916688421247 0.07929421765925 114 90 105
-0.017388090260454594 3.379349798592872 1.3504995840316618 97 81 101
-1.420881945537356 2.90096374534712 -0.12555817476813483 144 92 112
0.614590985255116 3.4957117960674347 0.565918934848389 122 89 103
0.040661492248724194 2.3209500243636176 -0.598784508999472 155 109 132
-1.5257595635382228 3.116775881811786 1.7885186867335037 119 95 117
1.1424989307705589 3.879003516010654 1.105488360868324 38 24 31
-0.8909890096680421 2.9387029355740157 -0.03216098070504638 64 27 28
-0.4117962293360062 2.9816712774681093 1.190510331711061 67 42 48
7.459321436441613 7.610426244470102 2.9801618250304127 149 143 183
-1.4853723481036927 2.651934022191869 -0.4729726277337508 32 22 19
0.14020586782050293 3.4349035093854448 1.315824734825447 138 120 143
-0.3674646337354829 2.018036591080544 -0.7912884179616423 127 83 102
-0.8791196166162394 2.8995885446775036 1.0132511688435226 129 75 90
-0.4486494173476045 3.0404778090308637 0.19547592003426742 132 75 84
-2.049497957315668 2.954972859937128 0.5468086813737373 121 95 110
0.92033255918342 3.522975780855459 -0.17293572330437124 115 88 102
-1.5489735043877937 3.098959371953904 1.630160610502373 129 100 123
0.6653108390486159 3.4935560655341398 0.25205673286867275 132 109 124
-2.109001505256849 2.9035584729384447 -0.2865198590516632 111 89 101
-1.2780541556586413 2.1371347331655057 -0.8170129514719102 43 29 31
-1.0046391960766434 2.86885673504914 1.331884547939689 107 58 65
-1.4358174581235768 3.126540875770479 1.6910091185172822 127 106 126
0.9543380886378008 3.5374431566677207 0.11316707270306296 130 105 124
-1.0154585192283425 2.000556160404794 -0.4670814025809239 89 48 53
0.795591912822151 3.500038428675505 -0.38098240590623234 77 59 75
-2.0790056775439796 2.9682330634645746 0.9328123354301957 131 105 126
-2.1498017134685194 2.932183638831956 0.3061358267372289 57 51 60
-1.190670607744838 2.957140410118842 1.1450689784663073 83 39 45
-0.004805833399220007 3.1824804515369065 0.4817474222396215 102 55 65
-1.6349322841077445 3.05267907977787 0.9121982329358872 124 99 113
0.8614922843831744 3.548188463125682 1.0051935460474657 143 124 144
1.08939800561052 3.580982326477104 0.54472493351568 97 71 89
-2.4944971886179528 2.8169115374173552 -0.4676436916072447 88 80 107
-1.2045175707148905 2.1192904256102585 -0.5499178560156973 62 38 45
-2.4343870496390285 2.870865468261811 0.555199375429596 124 102 124
-2.5421704883098837 2.8545097071665384 0.6739087080251026 106 91 109
-1.1589177854834394 2.0931559715924797 -0.48430942775739616 65 39 45
0.24246720137479086 3.200321904622025 0.13990639128744262 69 38 44
-1.9898583906908365 2.8875941731036256 -0.7443514427356964 41 43 48
-2.573497385787314 2.8013585373492664 -0.5059777918772895 104 91 119
-2.07103059327572 2.9392639357809798 0.2812939639791393 106 88 107
-2.4249540557504887 2.8530975295049807 0.03435220820240177 106 90 107
-2.2814798216051204 2.9008831243194457 0.3872651726138206 111 94 114
-1.7146847664048743 2.7385461255188064 0.29018182517732566 84 39 42
-2.1441034547342754 2.922206892844425 0.07530591385316916 127 100 115
-1.4374007313429646 2.8943704350586965 0.030730382316028943 55 21 22
-2.520886088333268 2.809164569420972 -0.5278397262321614 56 54 67
-2.386353805627038 2.8384819112030732 -0.5391783707655513 116 107 132
-1.119474359458604 2.9007967831907533 -0.19679226758544036 42 26 31
-1.3260746480406236 2.8756099165834 0.9765185173682229 143 88 103
-0.054819072329745845 2.963369484319081 -0.34759959501525345 155 108 128
-2.486075879761276 2.8258954792137194 -0.3913625971310362 99 80 89
0.9081001474523434 3.5984358673727606 1.5952989464756129 143 119 143
-1.327881611359656 2.5553734675120645 -0.5548893925244792 26 20 20
-2.5122133610186257 2.8122737397864954 -0.6337731222072689 76 62 70
9.3514417928662 7.616804123987506 5.013888635271559 176 192 238
-2.248877124289829 2.88649281038958 -0.15471696891285272 93 73 95
10.815889525388963 6.345610788919793 -0.5675837398644288 55 53 69
-2.5520027201957007 2.8302687065614163 0.21360344993451635 91 73 91
-1.4092335170576333 2.689470213927914 -0.37919371195029694 125 82 86
-1.9099870779328618 2.943015381205889 -0.1959541714510871 108 81 91
10.306846396385446 7.63032927857968 3.4444589789952196 116 98 109
-1.5548938428839845 2.6214971664172704 -0.723464029539059 100 71 76
-2.2717857504871097 2.911891558974104 0.6945538812942214 101 79 99
-1.7673183759158317 2.7518206988608584 -0.2404453212045828 75 42 47
13.59490098971536 7.6115666169643355 4.119048326962396 170 187 230
11.434816952693321 7.6898432247001995 5.630978231779902 159 173 217
-1.4744678546042018 2.6087108820905165 -0.7440295744319728 98 65 78
-2.4212526194412063 2.877087607452567 0.6013273929935028 60 43 65
-1.3323714517854979 2.368313214745186 -0.38596161003042073 66 34 33
9.526859766380705 7.533498898329481 4.094414505580215 58 57 87
8.983576526085924 7.506371685406137 0.6829933098857324 70 68 91
-2.2650084819227008 2.890413272583882 0.058831241054331136 121 107 133
-2.4078577014051534 2.8649978994280074 0.1487462975020577 105 86 107
-2.51246640721615 2.841420516997691 0.06353632279918903 124 114 140
-1.091018781720304 2.8093190458336195 -0.20984503215139758 158 117 139
-1.7681222618816594 2.5936831846817894 -0.7420790935725312 111 60 68
9.545719220764955 7.547370414347345 4.192419200568688 135 147 193
9.091793762167297 7.07357842399086 1.7488815236391153 158 124 139
-0.0312987307353864 3.208388070543724 -0.005875226200002438 132 78 92
-2.531070349504312 2.84327858199117 0.3840962296031 108 94 115
11.620441983694327 7.585500160898301 4.215595860190424 181 197 244
-1.7573014152427435 2.844072220741672 0.19739621069724053 64 33 31
-2.5358018087190386 2.8135828809501464 -0.47071024552375745 79 74 100
-2.3868548660924214 2.838892994422928 -0.49394260542972246 71 60 85
-0.7061770267659923 2.9706573759214323 0.16782603414716613 85 43 46
-1.508160042917215 3.0816908917860517 0.9938844822934502 99 84 103
-1.057224700158602 2.934767703791548 1.1151699375744677 42 26 34
-1.3397363237101287 2.4543049785953595 -0.7614918187897053 42 29 28
-2.309309598191153 2.8519318746752873 -0.5054833478542681 84 73 99
10.38638140831683 7.5916030617891375 4.136695198876941 167 163 169
-0.9681472248163683 1.9756276994051265 -0.6187376975523092 56 31 39
-1.6397598727558038 3.0540136349189355 0.860877721624317 104 86 106
-1.3624233731985456 2.9509083536644454 -0.011040796338043637 103 73 97
11.840201898625635 7.174251706622793 1.488503202554407 174 192 238
13.817682255676154 7.576611175011991 4.257687286011827 169 185 235
9.176442412083011 6.189003856835347 -0.7001578606199323 64 69 87
-1.6295860212783662 2.779892686550065 0.3925394084697665 138 85 102
12.466208471995303 7.675933295758245 4.405618189847265 150 143 171
9.023369573243532 7.112315845801496 1.8306849169121064 201 216 255
-0.9821240440666434 1.9787632564181166 -0.6248760766220143 73 50 59
10.700715791985715 7.639547762426352 2.9274058912331657 174 166 189
9.545719220646712 7.547370414292353 4.192419200652255 135 147 193
-2.485649391483183 2.8594042160206214 0.3489620923555899 37 34 46
-2.1999484311212907 2.900415405259871 0.18270168608436207 98 85 110
-2.4177286748322957 2.8589448219843683 0.04964948627102582 116 103 128
-1.3193903325059837 2.329231198974187 -0.7494965033066643 39 24 23
-1.3294463194438515 2.5696190451489382 -0.68279298963688 67 36 39
-1.337821682264366 2.5923249851817043 -0.5576732560234937 58 32 35
8.48846618170124 7.576477478491757 1.871550711323634 165 175 219
-2.2144116817913813 2.9112952907067524 0.3754227338927273 120 97 115
-2.078587340842223 2.914811226182298 -0.08963152174009238 118 92 106
9.400807607474087 7.601066794235889 3.5879148530537113 90 77 96
-1.8958517176918024 2.9559319690368095 -0.04602665536066792 99 77 94
-1.042566087148126 2.9204163431226915 0.062148383898617744 123 78 98
8.840910571924962 5.572087800067499 -0.9535051576579172 29 36 40
9.272070465591275 6.5494287549664 2.039690566868535 178 145 164
12.549555980836143 7.674284320884836 3.799458047985575 161 184 228
-2.351869723807057 2.87441252099121 0.5143628658994017 87 65 86
-0.8380988125282998 2.998937540095275 0.3670833062512627 49 29 28
-2.2001699892446593 2.8724828013149355 -0.5688448482933759 79 64 83
-0.17947383477119516 3.138192652632183 0.6315087438776485 105 61 75
-2.4935858369246318 2.8197985196146176 -0.4914969911957326 113 108 137
10.935467178081995 6.226845451173158 -0.6091542441481633 107 117 147
-2.4710685921815796 2.818157637552189 -0.6138120679442158 106 89 103
11.084049623716318 7.661346681171898 4.941808089342946 138 145 187
-1.9242627826784235 2.9401953603160043 -0.5092042422529348 81 69 83
-2.4660915907583036 2.8642474434171867 0.47435896216681417 112 95 122
-2.5223941374269163 2.825813233335701 -0.19101783133790712 104 95 120
-2.0509137375892745 2.941773904993636 0.31047699685797425 60 45 51
13.684960689758897 7.828566859172091 5.383894653852188 123 118 152
9.68231369648078 7.222337704257363 -0.5643574679826059 92 83 111
10.087831411345045 7.607037620846115 3.6798289734606398 178 181 198
-1.3212868070458854 2.5621469595933557 -0.5320858502907703 48 31 35
10.690106732527726 7.573864660701975 3.9628081310339733 188 207 247
-0.8966279486265631 2.8953559863553084 -0.1326534573978158 74 29 34
-2.104552830027143 2.9317892552443885 0.1175463712508981 122 107 128
-2.040402896139834 2.93080736995985 -0.18642438503004555 112 95 113
-1.8892075733284146 2.9286450296593984 0.07717503233279409 69 56 71
-2.389852585396493 2.875175428360784 0.21914890507108872 105 91 116
-2.504100624643935 2.8292092294626996 -0.05282439714546786 92 84 114
9.268307783921527 7.667019597750468 4.553208559977383 143 145 185
-1.0085053851405468 1.9975200777693969 -0.5279710940672113 59 36 44
11.051232444653326 6.6511429237597035 1.1770288849272454 82 64 94
14.718901732866458 7.459563895971325 -0.13888881020300156 152 153 182
-1.7569157167761422 3.0105844592642446 0.49542634866332075 97 84 110
10.243777645128011 6.79050643685539 0.44441345185801406 111 82 88
-2.301313361147845 2.89609960145128 0.46711526791813984 111 90 112
8.891180054751471 7.579709123240008 4.868752790966006 150 148 188
-1.2974801839381276 2.9327003840416954 0.433931810589098 110 61 71
9.092688732564174 7.60287597131965 3.7396367761199834 154 149 189
-2.367037241206866 2.889321727364708 0.4938925945473266 51 41 58
0.05812296784686975 3.165143671164696 0.26409570880841504 79 34 37
-1.8162822452896557 2.8243797406230495 -0.7569095000734476 72 49 60
-0.3997822729205066 2.8423157615653643 -0.38907161881774177 71 54 65
-1.9139436516877022 2.9454660552425924 -0.2768068763895661 94 71 81
-2.3033635350585793 2.8558562197826496 -0.5500417156364353 94 79 98
9.162687323095652 7.063176209585797 -0.6653678944452477 38 44 50
-2.341706875798421 2.843428823103188 -0.6390077244388406 105 87 104
-2.357706000702835 2.8453050078001763 -0.6691999560571015 109 109 131
12.726050498971095 7.701182817646997 3.710145250388087 172 191 239
-1.6362110412069084 3.0477576760599216 0.5889725483208411 122 102 122
11.805842876366565 7.557869362515888 3.9633437139942096 137 158 203
0.8995961380709246 3.560362785837899 0.7098989037794248 147 125 147
-0.03740673166391539 3.2152745086717784 0.42020523856637504 78 46 61
-2.4173309984812836 2.836179326784747 -0.4326337839223246 86 77 107
8.273861059409956 7.581409467876021 4.101068773169385 177 194 239
-1.3850483620390412 2.8455226138032277 0.9364746686061465 126 70 84
-2.5550043431205474 2.848051071020505 0.37499698451928676 108 102 133
-2.480761078346607 2.8641620707919277 0.6336878512824615 108 90 113
11.158342933511292 6.7604769129625835 1.1090526848361046 156 168 207
-2.3813661965948136 2.8820746472461605 0.35440032353454654 44 35 49
-1.7569157167761422 3.0105844592642446 0.49542634866332075 97 84 110
-1.9430316606220877 2.940280344603537 -0.5103895914387894 49 41 53
-2.230043396306568 2.8721536406534542 -0.6509632655214809 82 72 89
-2.548880817234783 2.8425765880805467 0.4236058915869972 94 81 106
-2.350888518277232 2.8999981331502167 0.699273940497676 113 98 118
-2.164683376459477 2.9070471221358636 -0.0977543706128754 93 90 112
-2.284833601409899 2.898078982065058 0.2698021975798693 96 92 118
-2.0478682097151237 2.93424021644527 0.3002477442458952 71 55 66
12.446674086410699 7.596375367252967 5.318981601557356 162 175 219
9.117791063469593 7.019758816770831 1.835191113283625 201 216 255
9.230119843585058 6.489885658929785 1.778509767253419 193 167 185
-1.9715368425665982 2.9242260265486997 -0.5938677678497991 96 74 83
10.561942185426918 7.56644015747281 4.289785138262549 171 184 227
9.248937518950877 7.415727559558489 0.8091645564513918 149 118 134
-2.1417912215262676 2.925888720206526 0.3167550837035524 109 89 109
-1.268547189212202 2.2861055531522956 -0.5447346935280172 46 28 32
-2.18619788282016 2.901142100871836 -0.09092874119786709 54 54 72
-2.3186013874371434 2.854955306179669 -0.6535411599786336 46 36 45
-2.2841652364093927 2.8689697446557547 -0.2943715774099509 54 43 52
-2.1198176637482216 2.9407596716461204 0.7122539839352575 118 99 127
10.793165966964372 7.68570623222931 4.853031666780903 171 186 231
-2.530616343264392 2.857797099845531 0.6573437618804038 98 82 100
0.24248630318478023 3.189841932291372 0.016282944172029103 65 37 49
-2.4789293764772324 2.8398450188681763 -0.0778811535129503 78 69 87
-1.0445767939138049 1.9632990443568623 -0.7109625986878537 128 87 109
-0.8033030884869864 2.9460365380188134 0.07375622179681605 86 59 36
8.739184485310615 7.547631769051087 -0.4171946191255167 149 159 199
-1.1553044254019638 2.740580829897039 -0.30584611011410306 148 99 119
-2.4468951780955117 2.8792460072504675 0.7516233568695786 43 34 47
-2.3653385620185055 2.8505931051612903 -0.457505122373138 91 82 111
-2.2689996946387816 2.8968916582911963 0.3289275218229696 118 93 110
-1.6588018511949165 3.044126380790279 0.5667115106980027 107 72 84
14.560772755172273 7.51193516526178 1.299407848780356 170 189 237
-1.3600865378726246 2.6519759755851866 -0.7333112805906344 24 22 27
-2.5169963194656693 2.8264912250901197 -0.1654342766271603 125 110 136
-1.2607069209580055 2.1772748369172517 -0.4450353823762564 42 25 24
9.232516957071729 7.590354534266727 3.7199142913264236 80 63 104
-1.2879654306223447 2.3600614253199645 -0.5817388170442597 68 36 39
13.266415304977755 7.693483868139793 4.790145183494945 123 135 175
-2.14629416822772 2.914350378630725 0.09271871788657203 107 86 98
-0.4874341762796774 1.5131269282578397 -0.7898828352780229 79 89 118
11.068013983216495 6.78791073002678 1.4899535692758996 177 194 240
9.969967358943094 7.385209630066553 1.7165288357944546 115 76 86
-1.9015186368615566 3.0038450462158246 0.8466758179491226 133 109 124
-2.4842902116473877 2.8688953259956103 0.548645045194851 124 103 128
-2.006019886877382 2.9507144292303162 0.3463686505974979 108 83 102
-1.2715460216041516 2.261083083763075 -0.523701213200826 77 42 47
-1.171951079255595 2.991249987269993 0.5891607610714891 67 35 39
-1.0795295400215912 2.925315321007104 0.1706180198537513 84 34 35
-2.058115745466135 2.938035148023658 0.17699192382653978 91 76 102
-1.7886476891551704 2.8630579448741886 -0.29675751671536416 78 48 55
-1.5978904013659156 3.04539860347746 0.5025237293290405 119 101 121
12.170119182935581 7.6739446945918335 3.423456365662425 51 45 67
-1.6295860212783662 2.779892686550065 0.3925394084697665 138 85 102
-0.3046514159487335 3.0102908415279135 1.2220909225796246 58 35 42
13.732652019637573 7.711124493696672 5.71371182238881 148 165 203
9.267211705947556 6.72682940313839 1.3596217338144758 50 50 57
-1.5793491871422636 2.6208165959918133 -0.7158318718105409 78 55 57
9.06456200948765 7.571560657251044 2.481492877826688 145 144 185
11.37630221654841 7.60537813714333 3.347979022595457 170 187 230
11.427756314061455 7.635065359770733 4.246101315834878 175 189 235
-1.6622683233467819 2.636545486412485 -0.2706540804084233 121 78 89
-0.7692843255738312 2.992535013416764 0.5099228711344596 111 95 72
-1.8790607600107632 3.000594580604355 0.8732027991316228 102 79 91
-1.6435780469180752 3.029099045824854 0.6562534459671471 123 92 108
-2.5488097083111074 2.849671732310393 0.3874419010196559 42 37 45
12.63528288924576 7.541607395164719 5.502671033178119 150 143 148
-2.536250434251676 2.83501470213981 0.17216053958080466 119 109 133
9.957238919935968 7.594582365197549 3.37762153068767 151 140 143
-1.1751198480114424 2.6822527277117616 -0.4236235913097577 62 32 34
14.472926724360335 7.429515881398438 -0.31890085658221423 147 162 206
11.321882394141927 7.721099713366601 5.253425617107207 148 145 170
13.466561094889585 7.6122148876906435 3.2689590356953953 127 140 186
12.487232685569248 7.59432571440883 4.923230556708386 169 186 230
-1.452166258009169 2.9397725293093733 0.893340255393104 75 35 41
-2.497986949273743 2.862155030090087 0.4649064807725988 122 113 138
-1.1367589322023481 2.6713354839423067 -0.4260978957136807 65 32 34
-2.4144861226432153 2.8296319529081035 -0.576913008667264 119 97 112
-1.7856907061253087 2.675032085350092 -0.43672272858005057 31 23 20
-2.2568595103856848 2.8842469136688607 -0.06240112548814679 67 52 57
-1.9913290354961575 2.911838373157028 -0.7284781433232574 65 62 77
8.702576919694353 7.557731969314269 2.942546496151093 181 193 238
-2.5124664072160567 2.8414205169976756 0.06353632279730907 124 114 140
9.00095525827762 7.3643561311785435 1.2870837320850097 129 116 101
-1.6758553288943931 2.701785673269364 -0.19625056874685223 80 60 56
9.420167773996651 7.573672019558956 4.071238452356733 194 208 248
12.633800315329342 7.597248974496457 2.7204191050228825 176 191 237
-2.1779498720903008 2.888565427489692 -0.24314422847660433 106 92 116
11.189994572504915 7.708701984926971 4.7354137304889985 146 150 189
12.638890671628143 7.692335865232984 4.5811401413041795 170 186 230
-2.5033361064746207 2.834812240798951 -0.08215404174705776 70 59 73
-2.1411003619062488 2.894415146706641 -0.42112880998804547 103 89 113
-0.9821240440656885 1.9787632564185802 -0.6248760766153785 73 50 59
-2.0478682097206278 2.934240216442028 0.3002477443005798 71 55 66
-0.18014058890316692 2.9967081744651973 1.2787150124439706 154 136 165
9.36911655151238 7.614035385612406 4.398297906938333 171 184 228
12.960722834373286 7.524609268734706 3.404518993225439 142 153 195
-2.5048925644274935 2.836601092791295 -0.18224381171270013 94 78 95
-1.5469590315498334 2.6465506457678485 -0.3299144070566773 112 82 91
-2.1516602936175655 2.939991027679399 0.5311185822186237 122 98 124
-1.798828024971178 3.002790955580803 0.40870196613129345 138 116 138
12.019477821241203 7.656128401657478 4.434299588478707 179 186 227
-0.27411238546064204 3.0850611648379123 -0.15459796779353271 150 96 115
-2.4447623005416017 2.8570918917149712 0.2433271498186042 111 94 118
9.855548783707325 7.573514156291323 4.020511978584854 186 198 228
9.028647175406322 6.706275493997381 1.6515806677598894 96 86 100
-2.3865254580631254 2.8766248650095934 0.4419708576108396 127 112 132
11.433014060399685 7.477329339255819 3.5750805400785324 180 191 236
-1.8923959259586487 2.9456794599757736 -0.4591478951074908 55 45 61
-2.3813661965949735 2.8820746472460312 0.35440032353598605 44 35 49
-1.3148186894546408 2.301215747322159 -0.7456088806652299 49 28 27
-1.7737866583545752 2.798971470418801 -0.27152547778045444 77 41 45
-2.5481847935863713 2.855341034295901 0.6986939709553586 104 90 109
-1.533601656807921 2.6634904737172223 -0.23547713256679773 130 90 108
-1.6421117702751493 3.0419634316866575 0.5155341884426485 79 62 79
11.73419222063553 7.6851904862372695 5.6415690745773 104 95 129
9.392874027213805 6.41589885214523 1.5404551447818349 94 63 66
10.38638140831683 7.5916030617891375 4.136695198876941 167 163 169
-1.8001963610078977 2.9468228576447184 0.3195882949250734 95 64 80
-1.373879714505692 2.838165723473295 0.9021697498014344 54 23 27
-1.5874784850973043 2.633362003181432 -0.6672392761676499 71 53 64
-1.373879714505692 2.838165723473295 0.9021697498014344 54 23 27
10.662254695011292 7.679179298804914 0.09716993674368993 46 32 22
-2.2618194463821935 2.8929599073841987 0.1703398487265568 121 104 123
-1.9242024267814581 2.923205195976696 -0.6344641785477548 43 39 46
4.374978644630663 3.382376866112417 -0.06562064232951183 182 196 241
-1.8806649236230422 2.8913980341451273 -0.785047340021304 68 57 61
-2.3554669062024076 2.8655580909443863 -0.041225589717402505 103 83 109
-0.8966279486265631 2.8953559863553084 -0.1326534573978158 74 29 34
-2.517874399611312 2.845979681984061 0.2826066151768397 112 93 113
-0.7364812830360357 2.88744324653479 0.031176617589186648 62 37 25
-2.239623795228424 2.878237154659959 -0.25723111469841115 111 91 104
0.06582681321956839 3.1885982603380083 0.23304936245397248 102 54 60
-1.8013832981414026 2.93838576662932 -0.3376118697829148 49 34 39
10.22964722389643 7.598749292740543 4.1607264871098915 51 36 45
11.424946357745352 7.63887569698379 4.090668086679135 176 191 234
-1.510256135370087 2.7340614765499205 -0.21253441707587656 123 100 121
-0.9767628483975841 1.9606333999840964 -0.6872055129089466 127 86 105
0.16250927211894284 3.1898473684383637 -0.13113278870372666 97 47 51
-2.246027351957586 2.8909422165865615 -0.016010988105804178 129 105 123
-1.7452473197600578 2.6191643378502625 -0.3785429376739857 73 36 39
-1.9031562011272476 2.9780415881729914 0.28535189668424715 86 72 91
-2.324131968342082 2.8842795524639016 0.1865686521721095 91 81 105
-2.217828505256857 2.9164370746933725 0.7671579317676853 111 97 121
9.613205718453324 7.523003846408494 3.4039550176704445 101 66 68
-1.5637268674590732 2.634372601932678 -0.6819747397430604 25 22 22
-1.1066586920870958 2.8464428423858585 -0.19557296565911722 92 37 42
-1.7521705387030273 2.836926189737433 0.3624331773108428 139 92 113
8.788429571601734 7.654529024239659 4.80420125648438 169 181 227
-1.3276917546473535 2.542688682186117 -0.48887723762363433 56 30 32
-2.2300433963076256 2.872153640651214 -0.6509632655305855 82 72 89
-2.5028805284746602 2.8366120927059537 -0.09851772330781766 117 100 119
-1.2573936490834845 2.1561751900159645 -0.44633763971322543 46 25 27
-2.1198176637482216 2.9407596716461204 0.7122539839352575 118 99 127
-1.264050334323534 2.2114177419027095 -0.6252170968064626 48 29 35
-1.346422881490015 2.849005178485335 0.947367788069961 83 31 35
-1.9460003302946234 2.94426475735718 -0.1076351689592831 93 70 84
13.859181136362295 7.818058369548052 3.240394152942614 127 137 180
9.264572841330573 7.648216627547104 4.705930648876125 137 138 180
-2.0375101953175907 2.928466562646694 -0.49091861375085416 102 79 92
10.683512446464373 7.641850291377848 5.287741646146353 165 180 224
11.662586593387514 7.701216473790346 3.2639639025239107 184 200 244
-1.932356549301633 2.9955889527649444 0.9504755131530699 82 66 79
12.638890671628143 7.692335865232984 4.5811401413041795 170 186 230
-2.145352279142889 2.936904483954386 0.7005403420779029 115 98 124
-2.3070821128521075 2.8592437804949005 -0.2955159250184404 94 87 119
9.301798860873474 7.375790806682203 0.009477531989525214 128 111 137
-1.1205042694180785 2.979738852114962 0.834429256264472 52 22 26
-2.292214223712404 2.8534226866761205 -0.6514960128414112 52 45 56
-0.9593890115561912 2.944322886000339 0.09631812647563047 135 82 96
-2.148680000951022 2.9111040411840396 -0.08340617852826028 39 32 41
-1.911411047114852 2.949759702530286 -0.3258900563923438 87 79 103
9.085127805889005 6.72368280606888 2.017568427982213 165 163 195
-0.7950707700257728 2.766255636041954 -0.375114876648543 140 100 119
-2.4108121474752386 2.872609057704142 0.39958951144907817 128 110 131
-1.3081763252300715 2.4516806601826913 -0.4878106213406222 62 33 32
-1.1257572358525183 2.0711822772826967 -0.4642621962089455 86 49 55
-2.343293071537645 2.896600575778188 0.68758855284612 68 58 80
10.140785896146312 7.599843906380534 0.36523103000241286 61 47 40
-2.1602632924330756 2.91401100937101 0.12560438190100312 54 37 48
-2.208494843246609 2.881730958257364 -0.486862285145728 115 89 103
-1.264341312045734 2.241529406714041 -0.4958430404070364 50 29 35
-2.4598362254837904 2.8550146252260995 0.17342137952349465 120 109 133
-2.4303687298298366 2.827912749225657 -0.20247592032063835 106 89 107
11.743093998776017 7.593692367691755 4.065134438046668 188 205 249
8.894422814492321 7.501465529102675 1.2919141285320404 49 46 63
9.432866841689144 7.581357583856627 3.9550576316455217 198 217 251
-1.9764126327880223 2.9381868733351175 -0.16969827413021482 78 60 74
11.217659423252638 6.179878593646906 -0.5517362653642778 156 146 163
-1.346422881490015 2.849005178485335 0.947367788069961 83 31 35
11.189994572504379 7.708701984927262 4.735413730487503 146 150 189
9.748318236113017 7.557800450434092 3.251536214292852 165 153 174
11.13904913442687 6.513235365847529 -0.44585511075948286 115 91 105
8.933260480841502 5.495426531302831 -0.9398144647632046 34 40 47
10.455922265645597 7.578821213532501 3.4200363013197754 112 81 87
-0.42372310018134723 1.899266933273252 -0.8161745973047216 222 228 255
-1.1560829375607096 2.8701993062522635 -0.2429976130396108 135 91 112
10.250768771112435 7.710651248611503 4.696072915552837 117 139 186
10.255611843998496 7.693471017011687 3.3751298373027883 101 71 76
11.0850927121975 7.6069905632400125 2.90461246732515 177 176 207
-2.3871406307641045 2.8698742752143045 0.19231114702573754 64 54 72
-2.3025739144174064 2.908002825232953 0.708848842828889 120 104 126
-0.8929395827391114 2.8510703577368317 -0.1619629465188064 149 96 116
12.726050498908746 7.70118281762324 3.7101452504361263 172 191 239
12.960722834373286 7.524609268734706 3.404518993225439 142 153 195
10.785520691067223 7.506312523622671 3.4179724163988197 103 75 79
-2.4013952505686555 2.8384592747383626 -0.24315042950509863 15 17 29
-0.46381276543751815 2.934903158447524 1.3184586241886809 43 26 32
-2.19008749063391 2.928733369918143 0.6360650873457514 48 39 53
-1.6362110412069084 3.0477576760599216 0.5889725483208411 122 102 122
9.23122872703907 7.350461807654437 4.161245685846188 143 132 171
-2.1437451439009347 2.894211782839812 -0.6256539208634597 38 34 45
9.822141397202582 7.565790584657979 0.7121548286532893 24 20 20
11.24752610728865 7.720095876411675 5.514282449026926 172 168 168
9.89437285980769 7.571000325585832 4.1524288427347 63 49 55
-1.926466344493703 2.953398472922785 -0.14655280454299108 63 52 68
-1.09203473994343 2.9839166306457034 -0.12867067619753347 117 66 81
10.700715791985715 7.639547762426352 2.9274058912331657 174 166 189
-0.9181787542263622 2.8253807865229965 -0.20573101613889733 149 109 130
-1.5003042837945322 3.0895405110142176 1.05738552344066 129 105 128
-2.343293071535694 2.8966005757803304 0.687588552836043 68 58 80
-2.1664742049193166 2.8789091142987684 -0.6534848599300668 59 47 60
-2.4360702943518264 2.8411405386826494 -0.2202103228787975 82 71 94
9.13496570672241 6.498142750196197 1.6672194107857294 97 64 66
-2.069560213050868 2.95137170563787 0.5060865603473156 52 38 46
-1.5931461422757804 2.654946685037917 -0.23845493872286275 123 89 102
-2.277323563644737 2.8691480000456293 -0.19852637907598328 122 102 121
-2.521640701825698 2.8267036640212395 -0.177239726996351 95 79 92
-1.1253143299030817 2.9171439078369423 1.1796251938224316 61 30 37
11.604494287930821 7.647040644415053 2.6617568755953998 169 181 228
11.316451123738831 8.099992027983475 2.389993274499629 192 203 248
-2.500809622611104 2.8598389792684036 0.6247180999155683 73 65 81
-2.458551144068126 2.829015563406629 -0.4830995825457966 77 67 92
-1.7201844445557049 2.624720128464777 -0.2190849154231606 124 82 98
-1.279334464186556 2.3281977224955748 -0.6507369190140122 75 40 46
-2.2629404242507967 2.914774898602327 0.6842436870243973 107 86 107
10.306846396264362 7.6303292785252745 3.4444589791150344 116 98 109
9.06456200948765 7.571560657251044 2.481492877826688 145 144 185
-1.664854339250776 2.620555966047445 -0.5187142590253786 42 32 31
0.6383948573509782 3.524246559857736 1.3938741482012362 139 124 148
-2.1230744942076485 2.9135646692231174 -0.05520991237746707 63 49 65
-2.2603084911135034 2.8954706743417273 0.023528419617053636 114 100 124
12.514195155646458 7.482441329327145 -0.17800079321393406 152 152 182
10.667992751241163 7.728150581776966 5.418416431385845 171 179 219
13.22409145753796 7.649253597013336 3.855765209335142 140 141 177
-2.388895576629494 2.859510919469439 -0.01567767187632693 97 76 89
-2.2563508997650286 2.8928936921257282 0.1362256263783596 116 94 114
-1.2839911086035982 2.3329932706656913 -0.5817959447384021 77 42 46
13.639832496488804 7.606345034357816 3.92406979047347 171 186 230
-1.7025128236306015 2.8524836578765793 -0.11113982523915096 66 30 33
8.927215643674922 7.304389593031831 1.7497691755022973 173 146 166
-2.4212526194412063 2.877087607452567 0.6013273929935028 60 43 65
9.957238919935968 7.594582365197549 3.37762153068767 151 140 143
13.95022327232043 7.660388743965128 5.742430464488956 98 81 115
-1.0580847615300446 2.9307401350420546 0.9045022703162615 39 18 21
10.558966076294022 7.666856179581193 2.848306615594836 141 124 147
-0.49953232189597885 2.9052150650983948 1.318588374473042 48 25 32
-1.4383989570114881 2.654989994803104 -0.6841988559089446 76 39 49
-2.5248707635381655 2.818849738593567 -0.28104710444287634 121 110 135
-1.8979127675264917 2.944976835692543 -0.42543611669014997 79 75 99
-1.2643427344550195 2.9593005460304025 -0.06795160617074887 127 74 85
-2.474116664303267 2.841703720063534 -0.1648274016756059 124 114 139
8.918509248427418 7.580103753417916 4.338905990803766 147 151 197
-0.5582396558590703 2.9838203789607785 0.9395644671797538 57 33 41
-2.5362482648505673 2.8490849672599357 0.4471051986373817 95 80 107
-2.548880817237066 2.842576588078189 0.42360589160510737 94 81 106
9.121986752432312 6.4045459775422335 -0.5818421222023435 28 29 28
-1.7673183759158317 2.7518206988608584 -0.2404453212045828 75 42 47
-2.1410093574582647 2.903219292377127 -0.22159166410713002 94 78 90
10.26546499358672 6.479227516364776 2.024993653076014 178 152 178
10.082899690986261 7.645444400321962 2.4034551052148667 203 218 255
-1.4450826832564803 2.6868775845374673 -0.2390725833065116 60 44 49
-1.2721464023786637 2.300490426748168 -0.6619155092904498 40 27 30
-2.2651791014736005 2.862734874924026 -0.6771623696565383 109 95 110
8.723902597478425 7.591017560183405 -0.31002159951667907 148 110 122
-2.5128743575399795 2.812116781426465 -0.4629620911592313 96 86 118
-1.6974212955638825 3.022468732250234 0.6580255231261672 128 103 122
-2.0808557691498404 2.912198477464901 -0.5340672654718234 42 37 44
-2.0865034537482354 2.94439127029113 0.3669408870833836 64 49 64
-1.80995398124164 2.7896673831115404 -0.45625547862889676 51 25 28
10.480304031691245 7.633280224360444 3.1296213250055835 125 94 109
-1.327881611350082 2.55537346752163 -0.5548893924415994 26 20 20
-2.5097913143296244 2.8138495961613765 -0.509056918501189 80 70 97
-0.7201659260120984 3.0033667201053382 0.5340786170188982 52 30 39
13.849084176491614 7.717330738804134 5.072489668077315 166 180 224
-1.6267024603296847 3.03573060649179 0.454101087876915 93 62 69
-2.205123645128724 2.9028299324550817 -0.16555262053164965 51 37 42
12.849409073456618 7.587686331888763 5.921986591201916 76 61 92
-1.8419771775009732 2.993357650740783 0.3435995736701801 131 105 128
-1.747421528384891 2.6253730878639243 -0.2220696908059552 75 40 45
-0.14273408310351593 2.8996005737656945 -0.3824817223939208 97 69 83
9.582809275079672 7.578427097078844 4.33856720770112 177 183 226
-2.1451882383775613 2.8875210728957765 -0.6809308657210867 103 88 102
-1.2226600393290852 2.1091807356431236 -0.7177014369615125 123 80 100
-0.8364529944377862 2.9239817601366163 0.043248282005385594 146 132 125
-1.1656668982284086 2.0980499453999357 -0.6153327460779352 104 62 77
-1.128356868742636 2.908426573481319 1.0297474672248081 102 59 74
-1.171681019798881 2.1119839903766167 -0.5355888571919457 57 35 40
-1.0591760939038826 2.9267068321554057 0.67486411333073 96 54 60
-0.6429027875182326 2.837294443184949 -0.34333224730644013 147 103 127
12.650068664857772 7.599423725641011 3.0408324652335796 180 198 241
-1.7298050905518554 3.0193085785728813 0.7561543887237123 76 53 64
-1.257734818517131 2.2141574663945605 -0.5906333058510154 54 34 41
-1.0444734218200238 2.9299831346171894 0.8385552454550099 55 25 28
-1.2821725998601128 2.3729587749398995 -0.6524118291574444 57 36 40
9.290575037179968 6.693129444182058 2.114452920429465 126 87 94
-1.277197976639236 2.972155009059581 0.33574145104022485 123 71 81
-0.9348934152729537 1.938098928847208 -0.6844608557341603 158 115 140
-2.3886479908791034 2.846539031672026 -0.21224612623383646 24 31 56
-2.102754203508212 2.933318479635682 -0.0153712942325878 98 76 99
-2.032477121820565 2.906153530792598 -0.6000931486715548 98 76 84
-2.53554313597845 2.8293884463179007 0.104026584125709 122 106 130
-1.2666994009500367 2.213119776898072 -0.5555745774807468 48 31 35
-0.9889997091249398 2.870908223615127 0.9176903713530595 64 28 35
11.059823095136117 6.503574661951198 1.4288829985194558 92 88 75
10.795032326924865 7.354145475029324 0.5043933550982362 151 124 139
8.83093639836894 6.433413385051253 -0.7459970030127077 10 14 16
9.830722630726385 7.632441041939213 2.8031712309443146 208 222 255
-1.7452473197600578 2.6191643378502625 -0.3785429376739857 73 36 39
-1.5984179727516354 2.632812258362931 -0.520083994309412 76 54 71
11.103832421230573 6.624534721192039 1.5498635217593828 57 43 35
-2.4708795303094067 2.867210958058232 0.622135763745954 60 46 60
-0.9800535075985429 1.9762486060873536 -0.5420474369697048 61 42 50
-2.480761078341651 2.864162070797754 0.6336878512544605 108 90 113
-1.98111884095435 2.945455813714987 -0.18264398796999773 33 27 33
-2.4697435619732517 2.827346594055042 -0.49447298694833414 120 115 139
-1.803058137190452 2.773619151106125 -0.7777553019359886 35 23 28
10.720935004063195 6.806251076594713 1.5205280349165817 39 25 26
-1.7975676982661948 2.955920652574171 0.35634890003900827 126 82 97
-1.3718232852247634 2.695315758506045 -0.2884878220604696 139 88 105
-2.2966483105034685 2.8538965133091696 -0.6649095741688299 105 94 116
9.192059967102534 6.576173576535549 1.5448069205225308 87 57 59
-1.50324314900167 2.632999302485866 -0.7185840980273138 104 67 86
-0.617174038576815 2.952524904455091 1.045790753649407 132 85 108
-1.7759903036028786 2.793788792416799 0.2945829465636029 73 37 41
8.972947867285106 7.47549258495728 3.335749674151985 82 59 69
10.840582152099477 7.682594369274066 5.080083414987824 173 188 235
-1.3278816113547691 2.555373467516947 -0.554889392482153 26 20 20
10.886010497309917 6.455592365837194 1.2015631801626308 158 131 146
-1.0444734218200238 2.9299831346171894 0.8385552454550099 55 25 28
-1.301221332739048 2.454228966149764 -0.683785661343576 67 40 41
-1.697505587805507 3.03953116817044 0.760367348305092 59 37 44
12.324347127250023 7.652846034557464 4.630375137550367 151 146 170
-1.3022669916927174 2.2646694141655086 -0.7289205167090893 92 54 68
-1.2031136199732526 2.982490352370737 -0.04298369211351633 52 23 27
-2.4708795303094067 2.867210958058232 0.622135763745954 60 46 60
-2.545905498909587 2.834592312040355 0.1429198037171023 125 109 129
-2.348170877643629 2.8822043400407824 0.19431191416643923 49 41 53
-2.3460089224745078 2.875155601190566 0.11620094539024732 88 74 92
13.672969383128457 7.832340456970713 4.436688332008373 145 156 198
-2.281679684700699 2.9124297198255498 0.6756088182539525 130 115 137
9.774899368086572 7.525393334458758 -0.09538844973544697 31 14 12
8.643984386383387 7.624684301759946 4.574701796130553 168 165 197
-2.5574787748189225 2.8503407405394157 0.4830385906099763 55 47 57
12.085846858808672 7.717984591007105 4.944826245322792 134 158 201
-1.892471988546557 2.9781633079291443 0.14445569311065146 49 33 40
8.702576919716568 7.557731969324623 2.942546496122738 181 193 238
14.718901732866458 7.459563895971325 -0.13888881020300156 152 153 182
-1.7074220200639296 2.7914302633726025 0.16588870671256617 57 27 28
-1.3098292199276358 2.865895367194277 0.8744776397158825 115 69 88
-2.3758650212012156 2.8765421881793065 0.22834887444825347 83 67 79
9.02580746063208 7.364304405578751 1.9406027270444366 154 133 156
-2.043088837512185 2.912225241760203 -0.6467703056705723 97 79 90
-1.7884037802088861 3.007276530582569 0.39125698928076225 126 116 133
-1.774177258191676 2.564804639900898 -0.3937180814178329 64 29 29
10.497037760706279 7.595394852836918 3.310366504465708 139 129 149
-1.33735656993112 2.594944639676846 -0.6570695492208479 33 24 27
8.668877853226409 7.684009976940875 0.5889183067334371 171 181 225
-1.7456172963184244 2.560971900126926 -0.38350137963479924 133 91 105
-2.5193751360495886 2.831986064453597 -0.050184543991994936 74 68 92
-2.315421365901023 2.859964479114635 -0.3609975403603771 90 79 109
-2.5128743575397023 2.8121167814274095 -0.4629620911546601 96 86 118
-1.3452522553779351 2.423934381254793 -0.39949536780768335 57 29 30
10.455922265645597 7.578821213532501 3.4200363013197754 112 81 87
-2.492896486536425 2.8241161149435805 -0.5569226221693855 109 98 123
10.38638140831683 7.5916030617891375 4.136695198876941 167 163 169
11.068013983220572 6.7879107300268675 1.4899535692468746 177 194 240
-1.0229397806362148 2.8585503438564337 0.8538964438403753 129 84 108
-1.6847728005120652 2.785956169453578 0.09996530553361477 121 74 89
-2.311045503951266 2.8484135745906105 -0.6804185107731485 111 94 110
-2.417799861792608 2.851751288678768 0.17927829883040206 110 101 126
-0.3627437398025402 2.9184058644938244 1.295628547204943 69 32 39
12.019477821241203 7.656128401657478 4.434299588478707 179 186 227
-2.2534299245150113 2.879532121180956 -0.2520073820842212 95 82 98
8.849363680102613 7.404220599199653 2.038440641864389 143 109 115
-2.504100624643935 2.8292092294626996 -0.05282439714546786 92 84 114
-1.3105934810988982 2.8821338844555697 1.0007153122771142 52 21 23
-1.279223356413615 2.1377778139307337 -0.7440325523674993 45 27 26
-2.4417557305027886 2.829628403127318 -0.5465779289884188 117 102 121
10.621647384810604 7.593445111676529 3.087133298129397 160 157 186
