ply
format ascii 1.0
element vertex 698
property float x
property float y
property float z
property uchar red
property uchar green
property uchar blue
end_header
-0.28930080400131314 3.7491149022356773 0.329415280992925 165 159 157
0.5270738492046891 3.288643419976582 -0.018652516454272343 47 55 64
-1.1948912980355342 4.009179875622531 -1.0785339508071934 160 152 146
0.11465194397977237 3.6965660445717496 0.24785306861180562 186 176 177
1.3354990238291753 3.0595104637675328 -0.800294258432406 66 73 75
-0.3161696545299069 3.6735723297855953 -1.123624362053183 169 167 168
1.2330763629456214 3.1208205193605365 -0.6813765475724524 54 54 54
1.352321019151666 3.06427163268128 -0.5221213392419727 47 47 47
0.10707075300288392 3.296905087600967 -0.12030887078372608 140 70 78
1.3275929320632391 3.180765155836318 -0.26200353502610324 37 37 37
-1.557024193155431 3.1648591655417717 -1.2490986632169956 186 182 181
-0.8930133784055028 3.798012224464139 -1.156185635205325 174 167 165
0.12057059108068892 3.2793636163889786 -0.1891604231217886 95 94 102
0.38360097651546626 3.0517843173182295 -1.043593214912989 73 91 103
1.0789263726856013 3.309686097432572 0.21559930513793915 217 211 206
-2.1101016877538816 4.393655917524478 0.8678013577625376 225 232 248
-0.6726780797202471 4.3778455048682705 -0.8876536866290206 98 52 38
-0.6460640825087957 4.794139259349872 1.4393441226300554 203 187 190
1.6666812364582528 3.0398893742599054 -0.718865148563984 78 84 91
-1.9522853289339948 4.326361617332712 0.2685224361147182 170 168 171
-1.9571723254792197 4.637321578546039 0.6450166551462511 172 172 174
0.8351183666941161 3.3647153593818073 0.4263887434274025 164 159 161
0.353611467163784 3.162882309313486 -0.6167386394449698 140 167 185
-0.608485836113618 4.343677337988075 -0.9185495106742384 85 44 33
-1.4608849332500038 4.3980427768484285 -0.4893812703693405 147 145 145
-0.24426332131835168 4.222059031117759 -0.8032531629634155 114 99 90
0.7078370316660785 3.045374532592371 -0.9744320456927348 77 85 96
1.3007554076753352 3.1551572314470895 -0.4507208552921183 33 32 35
-2.0390529600156415 4.570123602637061 0.8694531808883763 193 198 212
0.15117514083013375 3.0595147172529567 -1.1698813749253731 116 116 118
1.2598369582521638 2.9774754366129352 -0.98695056786588 205 200 199
-0.3618888663700171 3.8523655100306136 0.9969619173397432 254 251 255
0.6214513674942824 3.447795773211126 0.6727941565327701 58 87 118
-0.19900491792747788 4.6518014787887685 1.4674233751859227 213 207 214
-0.6502217992296302 3.7379563633372364 0.6921432249375017 119 49 57
-1.7466044241998084 4.121748602805118 -1.1661698950444421 168 160 154
0.6150851331583024 3.2929308620724766 0.0054276723986236295 46 49 55
-0.2813337365048879 3.6735196542416357 0.4226690915940508 163 158 157
0.1766716733457485 3.3101943718577815 -0.10111762969008144 52 55 63
-0.30118736292714215 3.466606165555663 0.5625949339417244 164 89 101
-1.1857087914031015 4.043785788674995 -0.9962598858681428 163 152 147
-0.6036862555140504 4.029659188909032 0.05987565715883466 155 147 143
-0.3384181928517551 3.413686269647354 0.6768570032250113 169 92 106
0.17174687718122425 3.618319566490979 0.8208895173587004 124 121 124
0.6998697223157725 3.610881033798087 0.282452583489339 136 129 130
-2.133005170016272 4.596777411543225 -0.5166004558562041 40 72 86
0.48740560641383845 3.5205254615209824 0.4396881601592545 143 145 146
-0.32741111510608245 3.5637170792389443 0.6462429351906726 158 40 66
6.332243127220447 16.434645423849897 2.4525003098720264 127 122 123
1.606897975623243 3.2431544662785123 0.04019972172301139 43 43 43
1.305678284609708 3.1645254467629917 -0.2681291381230468 37 37 39
0.006228010094577015 4.228587747362511 -0.6708936795411008 100 77 76
1.234359392515694 3.243371504889041 -0.013828130210916374 32 39 53
-1.939585029038113 3.8602655969458444 -1.3100877538072087 180 171 167
-1.7843842815409623 4.123979913007885 -1.204205538654648 172 164 157
0.32296033401410573 3.1751582090511703 -0.6337219043275235 49 59 67
-0.700546867101159 3.731592642366578 -1.114931494102418 172 166 164
0.38314477098413136 3.4897524114406075 0.5885178981336782 132 136 139
-2.1590487212351483 4.356240412005752 0.7708573819814369 220 224 239
-0.58338821152474 4.346144843895693 -0.2791243395886411 143 134 132
-1.4509304268321899 4.57996430069774 -0.8171615207332463 122 108 113
5.037675460441518 26.604239561582023 12.14822682293135 178 178 180
-0.5269876592713107 3.897780272778379 0.21437839881175577 65 53 55
0.2569095808408167 3.687718831792256 0.26073037650613284 165 156 154
1.0116537055122652 3.9716519598384004 1.0160456973386736 239 241 247
-0.9251935206626044 4.487460960629342 -0.830993670974129 141 108 74
-0.18446031286417316 3.5209263364019785 0.6060105593436566 86 85 90
0.3906950274717916 3.016888414788274 -1.2025835139440253 122 112 106
1.5360525990266936 3.137843334145529 -0.38382217077324515 42 42 42
-0.8628693281975672 3.8615578616421935 0.5699527836390523 182 163 151
-0.23424015659644654 4.267795875875796 -0.4005437733575107 115 98 90
-1.748970199173081 4.6079679472817086 0.33147802124727693 152 154 158
0.48740560639427494 3.5205254615149935 0.4396881602321957 143 145 146
1.6658535330414868 3.005765871136186 -0.5747926048356117 54 54 54
6.589048896662981 27.609276903627887 12.432131044026608 87 137 168
-0.3575067157423259 4.386248936148121 1.1833235287380595 255 253 254
-0.18979042746747204 3.709001519331042 -0.48740839607041464 140 132 128
1.6073319468750449 3.1899076423236434 -0.37765446505045364 38 38 38
0.08741956443070341 3.275579134240707 -0.19675604194771526 202 199 200
0.17549270096379785 4.073900152281943 1.1768506245691996 221 224 237
-0.27667108778835925 4.29582127704573 -0.5459370834532951 131 122 118
0.9755081922197475 3.321340753389333 0.19855635067884334 217 208 207
-1.9888298562121993 4.759893304460752 0.7223856513298892 178 177 182
-0.08965952004154276 4.148447291327652 -0.500421515997627 142 129 127
1.7345892952061617 3.099194484651873 -0.5653082470064915 54 54 54
0.9719819757241737 3.669452769958171 0.7803077276383578 254 252 253
-0.7639687618911628 4.028528841964526 0.30587837477782065 165 118 115
0.31073671040092293 3.1295587756674004 -0.748749549941088 55 63 74
1.5189171199443752 3.1534028335374837 -0.22703233294460767 40 40 40
-1.9205321378343896 4.122841454722443 -1.2203573306694302 167 158 157
1.2820050384287904 3.1910029771421593 -0.19135484199570393 37 37 39
-1.2327152604111142 3.5444702582830305 0.6537163201961596 200 199 208
0.6722394718631359 3.5004286495265027 0.6594080410407877 102 114 124
0.3893490512121757 3.4576498184726563 0.016469895753086227 205 199 196
-0.9908999727012539 3.3472557950012414 -1.2973395925211857 104 106 112
-0.9535959120787754 4.54002007251501 -1.20349664400005 114 69 52
-0.8037781025055634 3.6676764256579912 -1.0606089385779385 161 153 149
0.5253817603912976 3.3426792757145343 0.7616965423033815 127 138 150
0.415253396851535 3.4604012847302505 0.590197277507311 96 104 122
1.4189204374113507 3.1327112727756474 -0.5094912281724753 46 49 48
-0.3196156803248926 4.230827794312288 -0.4925089497904945 139 131 125
-0.618715197145495 4.44915657267085 -0.4913573314841638 153 140 135
1.2006332091999552 3.0210427558273145 -0.8377412220946419 72 74 75
0.03177361810167086 3.59242929872034 0.5819381684146561 222 215 218
0.8308069865168687 3.391855225785297 0.5974672310487413 56 102 144
-9.689226341402009 32.15046918992847 12.103456836232807 41 39 40
2.5813980757503976 5.155064890381981 1.1222159426219145 69 67 68
0.7009999380489862 3.504146789215049 0.5109749880447785 68 93 121
0.29752347874929785 3.1596138517414314 -0.6502581769900138 56 61 69
-1.0002212391773584 3.9000115060355225 -1.129052902079297 168 160 154
-0.48351457254333563 3.891417477014962 0.22065858015771908 76 68 64
0.11153935661927229 3.325830594935235 0.040832651259892945 205 198 198
-0.750189841500212 4.277284357205395 -0.12066249472497173 151 149 147
1.4123157252703111 3.1760181101990352 -0.1730562017532072 37 37 37
0.705619945329204 3.6000016746111885 0.3340108027827742 145 137 130
-1.0861224280065251 3.586818567167891 -1.2997131708709069 78 89 103
0.8209609284901873 3.0453146326348337 -0.9386817549179889 75 82 94
0.19261450369977198 3.54400131229781 0.6245256522477546 116 42 51
0.4975444099760628 3.306181297492643 -0.24655539405568122 103 109 118
-0.2782541823669947 3.5187092629799968 0.7038421402924138 174 166 169
1.4189204375705866 3.1327112736657696 -0.5094912282555474 46 49 48
0.5852167343117587 3.64727204401009 0.4724217345014254 98 98 98
0.272234019541846 3.1252760247650486 -0.7880194182743 76 78 80
0.7384985173248753 3.4463962773222305 0.6178340434034362 45 83 118
-1.756707551138669 4.5468816363533895 -1.1342109072561983 149 142 142
0.18266447717730558 3.741852935886953 0.1712827019802311 38 44 53
-0.6099212057977468 3.802448375093767 0.644052961816216 118 48 44
1.1320038456711523 3.2282709313420295 -0.16742874541033043 35 35 35
1.3066317714884983 3.1829522916092907 -0.19452062742422413 40 40 40
0.32712007869675735 3.0938549823826613 -0.9399610799805235 62 61 64
-1.0091550647116465 3.9087552350547075 -1.106722748979771 75 76 83
0.4984373230971551 3.4873492376668653 0.9641060123744628 229 229 231
0.6017380889441004 3.0299235904429 -1.1702375962624803 79 79 79
0.42312589543979146 3.452356042033342 0.6932312534730627 161 165 168
-0.8923087414567642 3.9913110571788364 1.0836839502092233 106 110 115
-0.08437973106232913 3.6397775610109964 -1.0909391562520918 165 163 161
-2.2615392239787218 4.819650495463549 -0.616517522179924 78 83 83
-2.213829862561635 3.9539412545369017 0.8511719205359676 208 227 223
-0.056532394754586004 3.716227051897349 0.08139127817807534 71 72 76
0.8296479149316746 3.5260785887497312 0.5235724522007109 41 66 92
0.2721379663679244 3.6485071672776397 0.3829320779320824 127 125 126
0.13813715559772544 3.263411328093812 -0.2503257849096048 128 96 109
0.15573595563191683 3.2710906988612987 -0.21229099077120056 66 67 74
-0.6430580881861542 4.211280047500809 1.32364457180094 101 106 118
-1.3364725851404249 4.110895955027869 -1.0493934048007283 158 150 143
1.4152500750134793 3.192303600753731 -0.15646850663756764 42 42 44
0.6130799946864098 3.3584312973308945 -0.1705617892818459 200 232 244
0.5126809498184569 3.327296013826621 0.005998061205045055 48 51 61
-0.462622997570017 3.969551069961452 -0.049851430901561654 62 49 54
-0.425901517462446 4.048160682319009 0.01565580020239819 57 44 44
-0.3112805311443395 4.155784302648084 -0.8216241752160051 113 100 98
0.6976231775721855 3.4807587463593825 0.6048178734442444 88 110 132
-8.082197715936102 25.709060182935403 10.75480610955227 22 22 22
-1.0861224280065251 3.586818567167891 -1.2997131708709069 78 89 103
0.24473024960790166 3.1587357350532472 -0.6616002464477113 64 75 89
-0.9963530299887602 3.422969328046867 0.8207744481742006 108 119 138
1.3420660039252583 3.024098740516128 -0.9367759332892615 191 187 183
-2.149437133818931 4.656089067315627 -1.0548846220242611 138 135 136
-0.36801949079125856 3.6266076147160677 0.5507641855258798 171 160 157
1.3101911249866243 3.037970324141699 -0.9555380726128216 199 197 196
-2.087502922051456 4.231376911446021 -1.1802940040756924 169 161 157
0.3017951572598321 3.6524722631991073 0.3924913783370331 165 161 160
1.3523210191300452 3.0642716326769013 -0.5221213393591022 47 47 47
-1.7976638959378841 4.544320989764311 0.10948808615273575 155 154 161
-4.5312974591617206 33.83539838067096 13.004046410038043 76 56 56
-0.3025602342065189 3.6309339677830472 0.4789055206368053 161 154 152
-1.9503034771279526 4.200869369536984 0.27850868248742094 171 170 177
0.7232908928862269 3.4436621386033006 0.6833079207318418 50 86 120
1.7763668781046793 3.2026262173790174 0.04708593263093542 40 39 42
-4.022758368263425 35.265283409893456 13.756373711169061 125 123 123
7.479786715620741 19.75740020879738 4.583382585733574 67 63 62
-0.7215545176733082 4.611023422600925 -0.7434028800675626 129 119 102
1.1479659074912807 4.169023541697467 0.5881818681802227 219 228 254
-1.6794201329378275 4.648297029390335 -1.0563988158897786 146 138 141
0.3416870432616853 3.03893423766698 -1.1149852457182445 201 199 197
1.3235359407328537 3.2432805501174977 0.03999575253740808 42 42 42
-1.6980190522250842 4.48038837378855 -0.06434192673882316 149 148 153
-1.715266209361989 3.932826856613523 -1.2387415963272614 174 166 158
0.4856684627085762 3.253781672100311 -0.5510340047305877 127 160 183
0.41533395043283994 3.442553819935792 0.6674154707540456 151 153 155
1.4279903859346343 3.2517085585614667 -0.07580263042153536 36 35 40
0.04549950705858052 3.271055908210076 -0.4651809880863962 140 133 131
0.3689999192814178 3.1237324533923734 -0.7372146833907768 49 55 60
-0.4375017317750544 4.334026151725517 -0.80528789121306 121 108 104
-0.7768451682304738 4.358702928328144 1.3263719552660538 107 112 122
-1.197602915790241 3.5522746171447674 -1.287189778138587 189 187 187
-0.6434089339052086 4.175621387793887 -0.049940266995313724 156 149 149
-0.05580363105370057 4.254177482110338 -0.8375372724205097 66 31 25
-0.79549957138721 3.757989691066081 -1.1256989430958348 175 167 163
1.397720944291144 3.109533133461079 -0.4126249041375111 43 43 43
-1.1942534431583267 4.039104123701091 0.1049228028704262 132 124 129
0.6398076704368674 4.030047785265609 1.2086672441947097 203 240 255
0.028131905792086676 3.7143752796310383 0.15628669552264962 162 153 154
1.1078176047919035 3.258819851702674 -0.05670528905892852 37 37 37
-0.3161094948020812 3.7807322212696977 0.06798490462378025 86 48 45
0.31364156949832034 3.653047877855248 0.3606314463123202 163 157 154
-0.45478863145078874 3.764478691412241 0.41739719448521057 29 22 24
-1.68081398882744 3.7063748906971745 -1.3597337554737474 172 166 164
0.6715404134037938 3.690943041658671 0.28629518498480444 146 140 135
1.1620292856928525 4.131204223149826 0.41348206546440675 234 238 253
-0.6976542338173906 4.191378502972205 -0.06092228568036766 141 139 140
-0.7854791277475967 3.754365878459939 -1.161756231533689 165 159 159
-1.022136654208451 3.7153309484362005 -1.1779431648246639 85 85 85
-7.888259776702452 29.48745124071135 11.869829461253783 24 21 22
-0.41087367512106937 3.7667804251075294 0.22696168173447145 59 49 52
-2.011639359500541 4.030901421104455 -0.70488762168631 109 106 107
-9.799956792140254 33.51445788899633 13.12337974804278 35 34 39
0.18639146598410836 3.261961528903084 -0.24372002569768356 110 40 46
-2.337526262751106 4.6453357165755165 -0.7743939027925357 121 121 121
1.3275929322151598 3.1807651560347714 -0.26200353502004786 37 37 37
-1.6349153890760089 4.02527521694497 -1.2072330474567077 165 156 154
-0.49328943672134 3.8315526143826566 0.31134787190899527 130 120 114
-0.5301853090598059 4.382071119240868 -0.8469589218170915 143 131 126
-0.7000488305448411 4.3780412585242985 -0.32259388844926473 157 145 138
-0.54709218478174 3.850523442377504 -1.1202630791403103 172 166 164
0.4008266321155337 3.0794572218823517 -0.987224410459805 63 62 67
0.07011176517447959 3.726280467393184 0.07681275785979508 197 190 190
1.1543325867637912 3.016384947053711 -0.9000272357106498 198 196 195
-0.9221045851810061 3.334371885051886 0.814919398285417 102 117 139
0.2032718393685776 3.4182817854405876 0.6598529901508778 117 47 57
-1.0140526498238718 3.7240888333309634 0.5980143726599834 216 191 163
1.3313597452401758 3.2292705044677255 -0.026296761917177686 36 44 68
-1.7017988892235516 3.5642899327993898 -1.3683224591414214 183 181 180
0.6087552271661831 3.2931279681912122 -0.009946409264945711 44 52 58
-0.2797220472935892 4.203881130940308 -0.2874910307128408 97 58 48
0.7149520983950178 3.64681753905998 0.2920159491413369 145 137 130
-0.6279589614585906 4.493796811679433 -0.8067673040451185 143 133 127
1.5021843201736662 3.1251218582712896 -0.22517844608518595 40 40 40
0.13185842700647593 3.2958375686714176 -0.08262149558700885 81 81 86
0.25080144881930894 3.9934556071540626 1.0449046833320617 136 136 138
-0.6813644199996559 4.277982600403458 -0.18484339019908008 158 149 145
-0.10838762992502196 3.6680621686941675 0.37196304177095396 56 44 48
-0.810744468748972 3.9955493071275483 0.30283913934457724 170 153 145
0.18047852718347285 3.250586246149133 -0.3065004416029462 156 158 157
-2.084046390684146 4.150436907065248 -1.1957029765470555 169 163 158
-2.032148619723495 4.850747251204889 -1.053180580309862 139 137 137
0.953080001950337 3.0122840631177206 -0.9895520025735651 202 200 196
1.5222066147751712 3.161443250893616 -0.2063141098207753 37 37 39
-1.2739786562082733 4.402584859372817 -1.0032016511935844 130 119 118
-0.502190682692556 3.68513470418671 -1.1237196235901308 170 163 163
-0.1892419696223489 3.795316191964513 1.0706227508881094 255 253 254
-0.40287581299426506 27.270329604429147 11.44573275853583 17 17 17
0.14131205356122264 3.218487069769083 -0.3869123106786688 198 196 197
0.08901698171377787 3.4218770118776924 0.6803296505725434 128 125 131
0.4165452903481443 3.530450715755021 0.4841467943813842 140 143 142
0.16610547691310124 3.615335675452451 0.521400132253233 164 157 157
1.5096379654296552 3.13749310690304 -0.39928794306984383 45 42 43
0.44882110331372654 3.589676796922036 0.36070688241029536 130 132 134
0.33674580750365174 3.7143644205496305 0.2235092815688304 155 148 148
-0.5156104594361907 3.622180317658357 0.804673169002885 255 253 254
0.5231718332345654 3.1130412305685553 -0.900543993145317 90 98 105
-0.2420431254265379 4.3902581074237 -0.7164033092979287 138 131 119
0.6715912798627087 3.340888250126401 -0.15730098213091184 80 119 145
-0.7263682780473059 4.205873381450337 0.013816556653267115 157 153 150
2.832599004567426 29.519796538123533 13.093207614348374 172 163 161
1.6730936550846598 3.115728496656876 -0.4115296657965787 57 52 42
0.4248786393989895 3.4578000391166244 0.6940988287503509 161 165 168
0.4410308304794099 3.5224398981424705 0.518093725855647 120 124 139
1.1053173735998032 4.19440934693455 1.1763504951821409 224 225 234
1.4848138071146586 3.054388726263936 -0.6932936578289827 62 61 64
1.48169543476623 26.616521576326942 10.925608459821078 61 29 26
1.4138933114981644 3.2573867624498134 0.06523232846865082 39 41 43
0.4468817448595778 3.525956782710422 0.49237586835403807 148 148 148
-1.1980639636794197 3.628469781811378 0.7464321738120703 145 146 157
-1.6045181054260353 4.182096140139174 -1.1191840542998073 166 157 153
1.6307336693484848 3.2420254061222704 0.04700121658532075 44 44 44
1.1504797608766146 3.0258143526194914 -0.8888929006119743 131 141 147
-2.053200527384764 4.4933120651933285 0.7435965977290776 180 181 190
-0.4078069293192535 4.035309401314396 -0.015957156826796097 63 49 52
-1.9112717009058056 4.036905475181462 -1.2868903147428625 175 169 162
-0.46489966724293896 4.225283930353544 -0.31394390320296006 93 77 73
0.18290260312006473 3.670625853281407 0.4339294105742738 161 159 159
1.3631115457027767 3.169846635995247 -0.25707364202381383 37 39 38
-1.4538572023772012 3.354475674313805 0.48445552272743403 170 173 186
0.26643693559574483 3.084852422912605 -0.8587415001284311 208 205 206
-0.8306347927481058 3.968700355507517 0.3756146931821651 173 157 147
2.7478339278651682 26.644863210643102 11.426295865221284 168 153 149
0.269505055833607 3.672668909897914 0.3574981238224423 85 83 84
-0.5605650024143347 3.8247027123487576 0.34992710242329467 70 58 60
1.5345386607381482 26.946008216769627 10.850678051416942 129 86 66
0.6225635906331923 3.613451968197813 0.4656766859204169 153 147 142
0.1871746636233333 3.232435696339986 -0.21024501281435434 58 56 68
1.6791971524938443 3.0929346141402543 -0.33744097686110613 40 40 40
-1.1476835687733344 3.77001397303423 -1.2698458162172752 123 119 118
-1.2433190311617277 4.210393833702801 -0.09765269254587715 118 115 120
0.44721969185830646 3.560919302324738 0.46591888224702055 97 105 123
0.7428000428713553 4.352806887562683 1.3476111546375287 206 204 203
4.22047968421636 29.88279619584998 13.295650292529668 145 129 128
-2.0781943092179738 4.481440255136485 0.8536816337878379 204 208 224
-1.8548383153285697 4.430344235893661 0.5444371544601969 154 158 170
0.724041756669227 4.207779200616736 1.2418188978337776 254 254 254
-0.9197433915938396 3.9895483318145755 -1.2278553938413135 169 162 162
-0.3179246601347411 4.2456076662527185 -0.30172587995074135 49 35 38
-2.046183287159578 4.812874327069727 -0.6515570557402872 120 106 111
0.9128266353746942 3.6218213976548386 0.8269098155679523 234 235 241
0.4588824162721117 3.018003791571388 -1.1776229519044452 72 72 72
-1.5733964781612744 4.03404929682187 -1.1765105701303877 169 161 155
0.6351549451934523 3.0820819703615068 -1.0106424771324236 55 65 75
0.66734860008623 4.06703392663277 1.1888865630639944 178 208 220
-1.2062587259247977 4.0250550596630745 0.04499469339517209 101 100 105
0.605974579552103 3.4643753884154345 0.719557518565698 43 81 114
-2.00945614201022 4.524722077452019 0.6114611979206723 175 172 177
-1.8870362279470196 4.3538576413039145 0.231250760390685 156 155 160
0.9265939444692077 3.064152973090442 -0.7951989044456157 71 87 100
-0.8622950558025777 4.503061496253656 -0.8436129731643899 87 41 31
-0.3582471974599643 4.4626437998292445 -0.7621046317940974 137 131 127
0.6017380889447004 3.0299235904434823 -1.170237596259083 79 79 79
-0.4361957675812434 4.028834109726624 -0.02348837260436121 69 58 54
1.2358518111069345 3.2419939447629513 0.01872809519287956 38 42 43
0.34372704564086354 3.5235378999491624 0.540612390408948 108 108 110
1.469834697589091 3.165480400571814 -0.2263764971782981 38 38 38
4.468257247506142 27.55495621697441 12.018669431575113 105 70 61
-0.7855436846961747 3.8995556179983604 0.513907711985785 165 123 119
-0.8007660484039797 4.310846470143478 -0.1894913658107735 106 84 66
0.05497800607175174 3.5811474141391204 0.8997738391660653 223 224 235
0.9635263499418915 3.0427405938973764 -0.8119262418257983 31 36 48
-0.7844185264686605 4.109889068555058 0.14309400607256734 166 156 150
-0.6547259241859776 4.170975763708976 -0.1568953478953598 154 147 145
-0.14498488773389198 3.6153721309350386 -1.13805260767047 170 168 169
-0.46512192356037796 4.035603720717852 -0.0013013949149750044 93 83 84
0.18029238571052203 3.2243890990315633 -0.41073124223141844 65 66 72
-2.140706521677632 4.481084905577132 0.9673787473715679 231 238 254
0.2677636895447355 3.542130916189333 0.6101839358108838 171 164 164
1.546569361184215 3.0522653784197185 -0.6043115745146618 54 54 54
0.6012106317674499 3.0496258717582965 -1.0019495262908895 63 62 69
-0.33447659121600576 4.310118047645618 -0.5069040902535848 140 129 123
1.4152500750134793 3.192303600753731 -0.15646850663756764 42 42 44
0.33454224035178676 3.036273023535103 -1.152504861612397 195 193 191
-0.7501126853824621 3.803977271445102 0.5366129322074007 168 136 133
0.2131583574546347 3.5485901637580404 0.6115073928792525 165 153 155
-1.6452983122310014 3.85044000561489 -1.296861127191911 177 169 163
-0.9111084747005959 3.889148368508678 0.5121042347819097 124 99 73
-2.0807273438587934 4.225039534921888 0.5672486378792099 178 179 187
-0.20718184923764618 3.8209438195690795 0.12214402784361177 91 75 78
0.23980149644679088 3.3238343099377703 0.07075372773146553 211 204 204
-0.8522878040294307 3.8803721970380822 0.5122188533232921 180 164 151
-0.9053901116126419 3.9572588361563934 0.4520053806407893 118 94 73
-0.8795051653372163 3.793395492671781 0.6863594344451275 191 175 162
1.3838333169770372 3.121173839423315 -0.4339594806031616 38 38 38
0.37533358630292935 3.4547751610580426 0.6300075387846652 140 144 147
1.4998146411896929 3.065911911363272 -0.7481595260706193 67 69 69
0.71342539890412 3.608385402004429 0.3382866932211193 148 140 136
-1.5530795093165675 3.9410388590132395 -1.212804953764294 176 165 160
-1.0794283588983433 3.5902205547979915 -1.2662265789318878 81 81 86
-2.0377265090303025 4.581955711888098 -0.6152606127196679 118 116 124
1.644806951431439 3.0752842602151307 -0.7111233032095818 65 66 70
0.21615590488549363 3.6636723887665497 0.40528833846254314 172 163 161
-1.6217236027278135 4.015292514864618 -1.173557618458626 169 162 153
-1.9845621636979016 3.964089116030921 0.21731135441764055 204 201 207
-1.0876965847075644 4.114284469714948 1.1540307117428468 99 113 138
0.6575420956723681 3.0795342586720937 -0.9385508247553499 55 59 62
-0.3492975216760228 3.7494704470823796 0.30683513765218534 40 38 38
0.18798483034163463 3.2409143843239288 -0.3400304292454518 65 72 83
5.387268507116262 27.712853087190886 12.986257895094973 46 52 59
5.464511620390706 21.082732393027236 8.820710074115782 40 40 40
0.5852167343186399 3.6472720440091204 0.47242173454670394 98 98 98
1.0201426560841258 2.9788730988599643 -0.9837427506741913 196 193 187
-0.9325418282485392 3.791016203330638 0.9859325042672327 103 109 118
-0.8642527853623808 3.8340190883470893 0.6284461388436632 187 171 158
-2.1901738941017053 4.874186512750225 -1.0216486930770399 132 132 132
-0.3096136945707302 3.629679014267199 -1.040272071994355 168 164 163
-0.26023712220296835 3.705354160117226 0.31025887441075084 158 154 153
2.3339815165564173 24.264305607429403 9.698326094821956 30 30 30
-2.076126972979657 4.549639224551254 0.8429221319185817 196 197 208
-0.9083029047636104 3.5397944752622 1.0080646255589647 94 109 133
-3.272758845255564 32.53903233482161 13.091110788513609 154 146 142
0.8414552573027027 3.2807917141480902 -0.003199610052352645 167 192 204
-0.4759750601660287 3.7475726057006873 0.395710896690943 64 53 52
-0.23362383554668512 3.7272541979947076 0.39452312675071466 164 158 155
-1.402586728765021 4.68583827785714 -0.5581248363790392 120 117 125
1.5179289621533587 3.071404849386364 -0.787568276870051 116 147 164
-0.6654519149308147 4.223725934378255 -0.3113116826927948 156 145 140
1.433211358167775 3.0380668750470567 -0.7748107032481981 72 83 88
0.3987454603581156 3.4864112136759275 0.5613435655176949 144 146 148
4.163370144195241 11.836834275665204 4.924232700673827 12 14 16
1.4476134518563786 3.147953635562437 -0.14633494483972678 36 36 38
-1.9395088816671515 3.8560485069625896 -1.343990304926321 179 173 169
-2.022980439013164 3.963571127751594 -1.2581065566444845 175 167 161
-13.481398482351391 35.63581583946365 12.219070902503942 124 117 117
-0.23239814213261717 3.775108985331892 0.12449180868814826 158 152 152
-1.080891970777448 3.602552507344776 0.6702528358909177 168 146 126
-0.4429404075187244 4.113700414904663 -0.1778054686991788 57 43 46
-0.13950723255357655 2.9760194829355595 -1.2580578925192825 58 58 58
-0.09746489386785154 2.9373638458184934 -1.3110372118109936 52 47 49
0.37053540071105284 3.046345714812181 -1.0639924535426937 89 101 115
-0.9347161429387106 3.8039627184566887 -1.15775456367432 171 162 158
0.27855961396477774 3.1470580670823822 -0.6909061235871913 8 171 234
-0.3152623672184812 3.656560889908684 0.38689135234946426 167 158 159
-0.8162758027970513 4.068837940225336 1.1108873288032879 255 254 248
1.2384875801630695 27.028451450713582 10.792071540340245 119 79 58
-2.2986349626461164 4.628977185431399 -0.8009525047943173 127 126 129
-1.8373608947447189 4.646360284577658 0.3000858425728439 161 160 165
11.138529596151871 33.42589688023819 7.371978701689416 61 59 55
-0.6976542338170929 4.1913785029726975 -0.06092228569168372 141 139 140
-0.044837123420298504 3.0976996266273082 -1.2591555096712648 111 107 106
0.7274747812838197 3.4514172356711943 0.6851875809176264 51 84 116
-3.24299059859884 5.542892754204148 -0.6698699750015875 83 71 61
0.5219643729136393 3.659655043624127 0.1803596948397164 197 190 190
-1.2481931218509703 4.588903448253516 -0.9502419397328924 87 47 38
-0.8032919176053505 4.042204811872966 0.22579723067634647 169 157 147
-1.246301980045238 4.173989989667632 -1.0229763826010332 162 154 150
-2.2624387962647754 4.689214103259365 -0.7154438718608194 111 111 111
0.2500454343575323 3.63319459906001 0.45762098022383524 173 164 162
-1.4641364389798013 4.483091548798598 -0.9365041862527883 115 110 114
-0.3716643151434685 3.5328387552410705 0.5543618112526568 169 160 159
-0.4793666360106691 4.483007336948323 -0.7776080797957461 151 143 136
-0.0138709503474794 4.131819347290585 -0.5312302152660082 125 59 61
-2.027143634321657 4.173981277306758 0.36440331054504826 186 182 188
-0.13135792971450924 3.6339084093633915 0.5041446739201719 155 150 151
1.5222066147751712 3.1614432508936154 -0.20631410982077522 40 40 40
5.310014555311483 28.299433131709527 13.198146303027755 197 195 196
0.2733181128203946 3.8357496793589787 1.0600588680653005 154 159 168
0.7038065566824956 3.627905055113316 0.21445389349810515 206 199 199
0.29469256762434387 3.6316948900652184 0.4211195406780702 161 159 159
-0.3458473226226809 3.5986580657986886 0.8098733797086469 203 202 205
-2.5391994463747025 26.53915559445463 9.726095085211977 34 32 33
3.2088446788971337 29.184701702282283 12.78704990996503 162 151 148
0.3518610184223271 3.047911083469017 -1.0982202890094348 83 87 90
3.9346370352671274 27.657947531631645 12.09887851985143 132 111 104
-1.6315619197677138 4.555506160456256 -0.9646561631783748 120 114 118
1.0163369870252958 3.038171884568337 -0.8940246054960159 44 55 70
0.6249631643466226 3.681825675757386 0.24340495329022097 80 80 84
-0.15225144629857393 3.6646629118202756 -0.07983576983279497 157 151 148
0.6001804882250148 3.690435516934757 0.23113231302784573 104 104 104
-0.5853799329245013 3.821955035649606 0.39012615246029336 78 59 63
0.33344079915414343 3.666385066944906 0.2798913203359951 160 153 153
0.47620248075312566 3.5776269800062726 0.3691724696396882 61 62 71
-0.10081502292624196 3.7799326274768585 0.25345042473683177 19 17 17
0.6226614086466286 3.4632364094477976 0.7023592448368652 91 100 115
-0.9084741682053812 3.773324297093136 0.7795267445592576 208 193 175
-4.531297484280776 33.83539853528934 13.00404647160238 76 56 56
0.6314024632898594 4.227434712438045 1.3195934182601363 183 230 246
-0.5083498531268416 4.584680808582921 -0.7262433115632364 152 144 135
0.3325832467299684 3.3478987907964406 0.7257460333912207 138 140 144
0.24884038112256035 3.5857157580050187 0.5257787969571832 115 29 42
-0.6899232752122734 4.232515708268379 -0.10955885910258968 98 121 131
1.3705512077041382 3.201384702239176 -0.08872344803601395 37 37 37
-1.5958546023249098 3.9435355395479332 -1.2295298854842893 176 166 158
-0.21821927431711044 3.794495267458938 0.06480625515746988 162 154 152
-0.15249348675466332 4.234948528597941 -0.8270964885574755 113 100 96
-1.6132710176878502 4.569080121083436 -0.05386110289550296 145 145 150
0.501578356759859 3.0584895677955215 -1.003760385924193 58 59 65
1.0223634346919244 3.8734264834368917 1.0393202196065925 233 236 244
0.17307046119983502 3.743841205621774 0.4469045081052606 88 88 90
-0.6044840464368867 4.391462264208812 -0.49122961457935027 154 141 138
6.8877977466486815 19.45020364628543 3.141109086882528 101 95 93
-3.8945503691165313 34.71460073620536 13.955756470869916 169 156 151
0.8277009142160328 3.3477741040785705 0.29786683981531575 159 156 157
0.24989827562840766 3.150075331842899 -0.6956586395085697 46 97 148
-0.13885241207547025 3.7454144493190733 0.0647242853394502 157 150 150
-1.8547703995134428 4.526610332779536 0.3089890070098974 162 161 166
1.0294646861148355 3.307710215407708 0.18168007962939256 199 194 196
0.7456505301454512 3.436290375689532 0.6845695311797949 54 89 123
-1.066988946163678 3.1535972922722655 -1.538163509736376 155 153 154
-1.1105489174108705 4.159928974841597 -0.2610686661117141 88 77 74
-1.969696058583936 4.279038901529257 0.2573191186717326 166 166 170
-1.171880600788973 3.1238098737802384 -1.5041950808373246 188 185 186
-1.7384537991981515 4.1122186886578875 -1.1978591944813346 174 164 156
1.3315206961079382 3.153553560483281 -0.4374095780924905 35 40 40
0.048393635673377226 3.1027728318194394 -1.1737711194614175 109 104 106
-0.7347149569040511 4.308579780734805 -0.18102208250610213 162 150 142
-0.4200292229155723 3.652397469085712 0.5645411373665531 105 94 91
-0.5812582193118726 4.451549512721043 -0.8614549677208145 138 125 118
0.21499945534023082 3.190543795706184 -0.5356168961506838 66 67 74
1.4348038666704592 3.17548348655446 -0.2236192529035057 38 38 38
6.423357381940511 22.169619103729644 3.4974086947848133 63 63 63
-0.7921718294348729 4.20366257270347 1.2398370070989597 110 112 116
7.1150393698574135 19.947462113344557 3.6632222017474736 54 50 51
-0.008274631111125358 3.703259493952465 0.08428993291173394 160 152 155
-2.3968308709193735 5.396889463590749 1.2625132345052552 245 252 255
0.3654790218435071 3.3698699088943482 0.10124679315283082 206 201 203
0.3978672131946473 3.0437060432120253 -1.0877534696308047 76 82 86
0.4268128303008037 3.060620512246641 -1.0535835982299306 64 74 82
-2.0025313365940303 4.1410977960950826 0.290985772038533 193 192 199
-0.5879809968634636 3.800070827022157 0.43267174926300445 79 63 63
-0.3598215281853604 3.5679035122109255 0.6399326592635621 158 45 69
-0.35519180201364586 3.69446572129031 -0.974785708267794 104 62 51
-2.0132379307120734 4.6152454470545825 0.6424427438647712 176 173 179
1.9173993795879916 3.2880650624598573 0.4033661419078124 212 207 206
-2.181281143085785 3.96191886226196 0.5814896902580513 227 231 246
1.8384760045557689 3.269447452859652 0.3580219432254409 60 63 73
1.6217159850188445 3.0003464889415286 -0.6200835372625406 56 56 56
0.5780655172077749 3.023577993855594 -1.1489442605874491 103 96 85
0.005184584830482892 3.113216476539481 -1.195223168122944 236 233 234
-1.4784496145975652 4.407012510682855 -0.43819430512754465 147 144 148
0.39156788017431565 2.955926408262308 -1.1801586926135477 134 112 81
1.3772347968204486 3.2304145152318773 -0.19085629923770114 42 47 45
0.42834204035669876 3.0560777463319035 -0.9663697417868147 57 59 60
0.226179308225599 27.532284347846918 11.868564336823525 152 139 132
-0.5371654672686713 4.002107816711376 -0.30310994050630546 155 144 141
0.6004302026915196 3.4886442317817914 0.6639514140983035 46 81 115
1.2104839858728063 4.390758764596992 1.203900518973307 167 164 169
-0.4913358295758964 4.0040579492912185 -0.00816780472864849 82 71 72
0.06187301423632313 3.3241153900566767 0.04860290325854983 188 180 183
1.2718214659241172 3.2239449959725293 -0.02873418033412932 38 38 42
0.6760150257084951 3.6843149974276685 0.22354253238786723 186 179 182
-0.11662406632391657 4.640686244463473 1.4602599135127186 254 252 253
-4.632513174996314 29.266842423053358 11.150898471166116 76 56 56
-1.8202541534819043 4.657174650975128 -0.9788066767053518 127 125 126
0.6572420730186431 3.407194676255354 0.591695044753847 49 80 113
-0.07752417604114237 2.9983642533340666 -1.2607855055357022 81 59 64
0.8373297698764112 3.286877441237571 0.029540105528072968 100 62 72
1.336066443309795 2.9964952265016014 -0.9296479878866354 191 187 183
1.0026414603923357 3.3004799220608323 0.15231673456202224 60 63 69
1.5819208432932101 3.0641265393957764 -0.6023650478769228 54 57 56
-1.5824500620258708 4.888204747693687 -0.9880582433009192 96 88 95
0.18018752216592335 3.198490155739981 -0.41002686860568094 61 78 83
-0.6342787657285147 4.095199097938383 -0.012593713892120191 159 150 146
1.2886242914124881 3.183675620633795 -0.3957524915012995 36 48 60
0.2093905109748242 3.405315386496729 0.6213208245599349 138 103 110
-0.23199191452017573 3.775605937818978 0.2613337136549767 142 140 139
-1.6719463202584846 4.329622106614929 0.6552801979405958 161 164 174
-1.1727222451136672 3.7835265708262202 -1.2514452748651257 111 107 106
-0.10141158173012138 3.5587498727236158 0.30005465665384445 63 62 67
0.5834267044731487 2.7812834332536553 -0.22743166157471983 133 154 176
1.1271945462192066 3.2234407002908974 0.08298879024104315 42 47 55
-1.627053852170348 4.5916637571543815 -0.8697895407265418 133 120 125
-9.64186854442982 33.76716210523168 12.677875547358108 73 70 73
0.4248349314808141 3.007281377041463 -1.2313417042554167 193 187 183
-0.609208979707879 4.4610820152804935 -0.808124048866537 146 134 124
-1.5946343617207686 4.772052388958315 0.27487626104967644 145 147 151
1.448160456255227 3.0634552314016097 -0.7614345959286531 68 71 70
-0.5529610423789595 3.8493076613248562 0.446736477785761 126 117 120
1.292932847717805 3.2104924261187504 -0.3441941553740249 33 32 35
-1.073545036829676 4.183855301489413 -1.1285245881445005 79 54 54
0.3824076628018621 3.0629091810827824 -1.0481593970411187 73 91 103
0.35761908572729534 3.3935348286005436 0.6678614175064407 137 143 148
-2.080012938094213 4.127951942355437 -1.1496452570356948 172 164 157
-0.882679794810675 3.7709155207856284 0.7399869816394002 199 183 170
1.3313597452401758 3.2292705044677255 -0.026296761917177686 36 44 68
-0.07000748231202784 4.239104121245472 -0.7426485640547812 129 117 112
5.31001455525721 28.2994331313521 13.198146303177166 197 195 196
-1.0763722642886107 3.7644869455230157 -1.1805932502169045 79 84 96
-1.139862404623081 4.152060009028712 -1.0660030780912082 152 139 130
8.503687595283193 36.947228117821325 14.679201322250725 23 23 25
0.26080073450524455 3.1333368120803726 -0.7558941147893502 95 95 97
0.11430361369259927 3.6318452256284033 0.5707201191601505 94 89 91
-0.30514962119498484 3.628155171150178 0.5130399825808736 171 158 156
-2.0916849290109014 4.338830128286397 0.6608571842121878 176 177 186
-0.37088924758609476 4.546613696897056 -0.7401269892103051 134 126 122
-5.895843347096964 32.34416306599677 12.185363848884066 61 53 56
0.7820587002180684 3.3510045552583443 0.4469919605072012 144 135 131
-0.5533925922781139 3.689787897390576 0.7063717608319418 120 52 50
-1.637147715930981 4.836741088220955 0.3753538264112713 137 138 145
-0.08548654408932352 3.2307221523470973 0.8080854525598982 255 253 254
-0.53690034611858 4.025517949344373 0.10242322804890637 61 52 53
2.920803069987797 26.269118403106276 10.390088864586295 24 24 24
-1.2314835168029061 4.686424727592758 -0.8421382111653555 104 95 98
-2.076902481921188 4.330513411745572 0.7173573131314775 187 192 204
-1.2325692286203664 3.54679264461206 -1.2411917795753358 182 178 175
-2.482658114072967 28.426346763384334 11.486909490764813 150 144 141
1.604321304261762 3.1405680072672455 -0.38949639024765814 44 44 44
-0.19698937510153602 4.371215127512622 -0.7631428849282412 136 125 122
1.3237043187674895 3.2751859793163343 0.2251356172021661 55 60 67
-1.2956662650980775 4.504183044563171 -0.9663373814147552 131 122 121
-1.6354526338838968 3.742451673725693 -1.3551933510301521 174 168 163
-0.07319441770062597 3.609145146150369 0.37717704932618734 167 160 160
-0.5187184250415087 3.9005678923824396 0.28680160814458056 133 114 118
-1.2208121074143363 3.761676142045599 -1.203483368954521 171 161 153
0.7614586024947337 3.053923643283781 -1.0363383529489385 198 197 193
-1.2176016759479855 3.8279740095998713 0.41646541359852596 133 135 141
0.3839780426570033 27.972480788710538 11.225598514244444 132 95 73
-1.1109203145748745 3.856807514926663 0.042863966373095724 128 122 129
0.0335676116166365 3.7042161101396895 0.15324470308820556 167 158 159
-0.30524720080112583 4.3581689169684426 -0.6417563969335371 81 82 91
-2.396881479026826 4.5841688486434125 -1.1701659065212857 145 140 142
-0.43756452090275627 3.4491274223588766 0.7709838717630202 246 245 250
0.8571657070722934 3.3968075761519776 0.2690417060070717 153 149 150
1.3044052122379646 2.939897025397468 -1.018661973857409 175 168 168
0.6705524446549501 3.6122363719806296 0.4168187069352002 139 137 137
1.2622317208040617 4.3189478880975685 0.5312570335229038 225 233 244
-0.988147979979753 3.7951377182263593 0.566825261994911 200 174 142
-1.1898649186967623 4.027250840973643 0.10819769493726615 128 122 131
1.4003511930500896 3.0940642841136134 -0.5247038257979979 60 69 68
0.17683660218439406 3.199599209095039 -0.5117627474658453 202 198 195
0.024707320452928668 3.3385355322507446 0.7221446049795598 204 204 218
1.3572983207982074 28.74452021441908 11.547630551536004 106 65 49
-0.16916774556833797 3.676814876072061 -1.0577654684889144 171 164 164
1.649722838331654 3.1319620954351386 -0.5048701396921363 44 44 44
-2.389024782858353 4.2888129669628565 -1.189985053375866 181 173 167
0.30085053233131276 3.077931531094592 -0.8884475129692587 113 98 108
0.13472206612283738 3.29907617672412 -0.10914254738883129 176 141 128
-0.3666092583156921 3.7025557052970353 -1.1117964920123817 172 166 164
-0.7021120932016207 3.991262581792463 0.27493368945803376 167 153 151
-2.3689741115878054 4.56263573100043 -1.2135503432799533 153 149 150
-0.48543741212849867 3.539696496030876 0.5759575659661406 123 52 53
0.613726307471142 3.4690504764441616 0.833455023214085 228 221 221
-8.153948386076209 29.038418045799403 11.537575968256217 33 31 31
1.1761360785346366 3.1941780101714894 -0.23493420919845692 34 34 34
0.9029329812534626 3.3609777373649683 0.22260748314476653 213 211 212
0.21057540796109414 3.1048641143629725 -1.1200462189644034 162 160 161
-0.6595513711745912 4.272178237155939 -0.2313683396987209 151 129 125
-0.474694265942123 4.374245530338397 -0.4003062404258 108 93 87
0.15356686925579394 3.490324169399999 0.6052033076360235 174 166 169
-0.5190175902549198 4.476860775513226 -0.7833947613824924 144 135 131
-1.0863884923105116 3.808110499298254 -1.2413172031129809 83 86 83
-2.045915238582195 4.339399770349503 0.5211878156927873 178 177 186
-0.3194947281027428 4.052516302387452 -0.07986772171217135 86 50 46
-0.7520614344148675 3.746439441948495 -1.0747059843556153 172 163 159
-1.7895597507294185 4.504626403127827 0.7431543775104267 180 176 184
1.4911042295513735 3.1496416785042305 -0.5928218509378855 88 105 115
-0.5140969667488479 29.210143941288877 11.658036274297098 96 69 55
1.63548130931815 3.0780157184050587 -0.3647915977991524 40 40 40
-1.7748957652228547 4.415929489953017 0.029656606016478845 152 152 155
-0.0666484894248522 3.373750994838777 0.7524373597209637 208 204 212
0.6900719072347695 3.637486007740834 0.26218016807572636 129 124 126
-0.32041185618810564 3.6867145932410477 -1.096179775392514 154 152 152
0.03237619504560758 3.5780739222427203 0.5790072894206375 221 214 217
0.28596793437166496 3.588470698283958 0.4934337281544678 169 160 161
-0.8837099315865792 3.804475268350633 0.6876209645545891 191 175 162
0.10481583866379654 3.142511160455615 -0.8594916455164597 164 159 161
-1.1903779275109454 3.933759389277841 0.1713192755332939 124 120 128
-0.24763256762243877 3.682296329529456 -1.1016597232471332 168 164 163
-2.065154719637851 4.914725903011796 1.0908940829894431 220 229 242
-0.33456864085652266 4.351956621704027 -0.7197257873942167 139 126 119
0.16812368060546895 3.7494662965315393 0.2899504601539578 112 105 107
-0.4205807161514176 4.310303766625792 -0.47851553690396054 110 96 94
-1.2808349619641053 4.4150085555183285 -1.0161827720017096 106 66 59
1.3056782846999664 3.16452544724804 -0.26812913815275957 37 37 39
1.3548657739718697 3.215533425515093 -0.3392480988926755 36 36 36
1.7113617426909062 3.272175678158244 0.2977386916319027 54 55 66
-2.1880272431336554 4.763084824152723 -0.5862493122181647 38 59 86
-0.9963530299887602 3.422969328046867 0.8207744481742006 108 119 138
-0.448870169369084 3.8472439700207004 0.3318967741774188 49 40 43
-1.818217047457784 4.05818318560431 -1.1994697873191522 172 164 157
-1.2067454002350244 4.5376576109493385 -0.6093538322268526 126 118 123
0.33674580749330835 3.714364420546019 0.2235092816223565 155 148 148
5.423876200727963 28.021197509907886 12.922873172079496 166 163 166
1.5157706247652636 3.218730513226533 -0.02711432715741344 43 43 45
-0.41058061241290555 4.329848804946401 -0.4122676759049076 54 46 49
-0.6746520223710035 4.364267149829687 -0.3852375437666185 152 144 135
0.0670190124218376 3.688991606357671 0.09821875096078383 119 111 116
0.6356159647896227 3.595396586941447 0.44012829855670416 155 147 143
0.6540351970136151 3.793648974444279 1.0424013051296515 255 253 254
-2.174623689553037 4.070087080983031 0.6701226534552246 226 233 247
-1.385761862047279 3.5395920400938654 -1.2757822196167994 180 178 176
0.3232809515886977 3.133590413209333 -0.7737768120261074 56 62 67
-1.3364725853289405 4.110895955530324 -1.0493934050691252 158 150 143
1.4488598421136512 3.1048316935457048 -0.5085281147844557 49 49 49
1.2584963226803323 3.204318036032573 -0.1960909267442586 37 37 37
0.19606124970781816 3.232627812496675 -0.376735950653889 111 141 169
0.5997315956832022 3.473805705740114 0.6762493699661332 45 80 116
1.2056369678810919 4.308064051480219 0.5554412387190895 202 219 241
1.2584854608927876 26.32030840381969 11.592193296381106 45 46 55
0.36987099700064185 3.0574739715249866 -1.0683609138467947 89 101 115
7.181781278955707 23.13258872889202 8.254603732993505 81 77 74
0.2172841925426072 3.6686525866093564 0.40541316587826254 168 159 158
-0.8294972012869838 3.775773013110979 0.6905785123179614 191 165 158
0.030027104560461124 3.084434918839362 -1.202172513118338 161 161 161
-3.338324030753667 5.723243758609991 -0.17865822724479027 52 53 60
-0.17423125537129264 3.804303352570971 0.14937819202161037 159 155 154
-1.49860930838742 4.205991480755556 -0.02003681815654233 151 147 153
0.7681570811832243 3.322667088699048 0.1587972140313062 215 209 209
-0.8007660484039797 4.310846470143478 -0.1894913658107735 106 84 66
0.6152233683848088 3.2719608491055907 -0.20753605011425075 112 143 164
-0.08536318744369208 4.311033458999533 -0.7065895578482744 115 106 102
1.6048392888212764 3.1321793207660247 -0.46265905951977176 47 47 47
0.3800966752404194 3.4851279789606973 0.6126653011736087 139 142 141
-1.6234372478209296 4.28636038276555 -0.3805166244206451 159 155 154
0.08003118865724199 3.6995220394813457 0.16351690496754787 167 159 162
-1.1058131320911448 4.214713825692833 -1.0602421143625333 75 76 94
-1.2854280197480206 4.638714638090743 -0.9990763907183239 98 62 56
-0.6761157454251225 4.524492471099143 -0.8846929949432218 150 133 125
0.2609230945599236 3.379199461463273 -0.003498946288888173 198 194 190
0.7082988095175212 3.065795937527419 -0.9810051101200554 52 59 72
-0.37560632099176083 3.7281317796990336 -1.057414352992555 170 164 161
-1.6644442270083324 4.780102414706243 0.3744810668241815 149 150 156
-0.11074255594922316 3.6350784239536615 -1.0673811741105217 165 162 163
-0.3638833124659113 3.5491620309769694 0.6348761950859584 156 31 55
0.21554971503327935 3.6171075537713806 0.5220361241488776 114 38 48
0.4555712805073463 25.793823163456707 11.14855517174542 189 172 164
0.28806617238899596 3.581861427546137 0.4915458300165807 169 160 161
-0.910106068718188 3.9130526242984924 1.0133839260618316 123 123 127
0.10112600784385385 3.304138730321099 -0.08018519316921596 86 97 112
0.15914667565841198 3.301535168126124 -0.05477594914627093 58 68 76
-1.7121449645889408 4.5143905576934475 0.05775520091448518 151 153 157
-1.6512510271268943 3.7606238674387176 -1.3327063767344096 178 173 165
0.5851723990308425 3.624550136386146 0.47900646107249484 54 58 59
-1.9979444871889405 4.327964760383381 0.35820578330042147 159 160 167
0.44311059679202114 3.612999940858679 0.3834187223495554 137 134 135
-0.6898248733736639 4.229800641496223 -0.10981868906364844 98 121 131
-0.604077259607257 3.4992601302831154 0.7801318170789217 196 192 193
-1.1247591509311812 4.494572488887185 -0.7570712635432452 118 108 112
0.23831318435440238 3.599431890336734 0.5061911455203016 143 118 122
0.23649627925160466 3.282365668423252 -0.15275617525744503 166 191 203
-1.7308712957456078 4.851931716549507 0.3032382090439875 145 145 150
1.3147992459208055 3.091153250043443 -0.5166510819526926 43 43 43
1.259021881998919 3.1705487364603053 -0.3626895522028151 36 36 38
-2.166448033789424 4.347701586169051 0.8559997308682077 232 239 253
-0.8818655253032969 4.124172926604169 0.03529803830618847 120 93 63
-0.02306278870016804 3.50090789307219 0.6430438839834781 186 179 182
-0.03949098812889814 3.5723303230089725 0.4099964270041451 171 164 166
-0.1660061983180877 3.8872401919865536 -0.03688705498847378 105 116 117
-0.5432171562144154 3.7092689556378566 0.616477227283426 115 42 46
0.7740358248813635 3.6879761739658146 0.8449563867654588 96 107 124
-0.35800785247087547 3.6808930174599817 -1.1321312108977357 172 168 167
7.1825265754383585 20.510933343148032 3.853017994410745 67 64 65
-1.9341504118155948 4.450498682692503 0.4961411836633788 157 162 174
