ply
format ascii 1.0
element vertex 827
property float x
property float y
property float z
property float nx
property float ny
property float nz
property uchar diffuse_red
property uchar diffuse_green
property uchar diffuse_blue
property uchar class
property uchar detection
end_header
-2.4983 7.8989 0.2849 -0.831 -0.522 -0.193 143 139 141 0 0
-2.4504 7.8523 0.2830 -0.617 -0.781 -0.096 149 144 150 0 0
-2.5138 8.1958 0.2904 -0.922 -0.374 -0.098 149 144 150 0 0
-2.4950 8.1692 0.2896 -0.916 -0.400 -0.035 149 146 152 0 0
-2.4672 8.1010 0.2877 -0.798 -0.601 -0.040 152 149 158 0 0
-2.4485 8.0738 0.2868 -0.750 -0.657 -0.072 158 156 171 0 0
-2.4307 8.0506 0.2860 -0.816 -0.562 -0.137 164 163 182 0 0
-2.3609 7.9601 0.2829 0.124 -0.919 -0.374 62 50 61 0 0
-2.3317 7.9412 0.2819 -0.609 -0.757 -0.238 78 37 43 0 0
-2.1593 8.0370 0.2797 -0.725 -0.474 -0.500 110 57 67 0 0
-2.1216 7.9678 0.2777 -0.419 -0.757 -0.502 115 62 70 0 0
-2.1086 7.9666 0.2774 -0.372 -0.773 -0.513 119 67 74 0 0
-2.0956 7.9644 0.2770 0.522 -0.850 -0.072 124 75 79 0 0
-1.9071 7.9818 0.2731 0.600 -0.691 0.404 166 163 132 0 0
-1.8956 7.9913 0.2730 0.542 -0.662 0.517 168 163 131 0 0
-1.8844 8.0024 0.2730 0.666 -0.436 0.605 170 163 134 0 0
-1.7375 8.2853 0.2746 0.640 -0.743 -0.197 120 111 104 0 0
-1.6480 8.4562 0.2756 -0.107 -0.989 -0.101 159 150 143 0 0
-1.6345 8.4578 0.2754 -0.380 -0.858 -0.345 159 150 143 0 0
-1.6163 8.4123 0.2742 -0.557 -0.758 -0.339 161 152 143 0 0
-1.4864 10.6347 0.3103 -0.812 -0.574 0.111 160 160 168 0 0
-1.4670 10.6071 0.3093 -0.812 -0.574 0.111 158 158 168 0 0
-1.4472 10.5693 0.3082 -0.918 -0.388 0.085 159 159 171 0 0
-1.3809 9.7455 0.2923 0.663 -0.668 0.339 160 160 172 0 0
-1.3035 9.8036 0.2916 0.581 -0.807 -0.102 139 139 149 0 0
-1.2878 9.8148 0.2914 0.581 -0.807 -0.102 112 111 125 0 0
-1.2722 9.8262 0.2913 0.581 -0.807 -0.102 109 108 124 0 0
-1.2280 9.9338 0.2922 0.098 -0.986 -0.137 130 132 147 0 0
-1.2108 9.9155 0.2915 -0.041 -0.995 -0.087 135 137 150 0 0
-1.1936 9.8951 0.2907 -0.135 -0.983 -0.124 141 143 156 0 0
-1.1772 9.8931 0.2903 -0.120 -0.985 -0.123 145 147 160 0 0
-1.1600 9.8685 0.2895 0.121 -0.990 -0.070 149 151 164 0 0
-1.1434 9.8600 0.2890 -0.563 -0.826 0.031 151 153 166 0 0
-1.1266 9.8458 0.2884 -0.610 -0.792 0.019 152 155 170 0 0
-0.4109 9.3932 0.2644 0.339 -0.891 -0.303 182 181 197 0 0
-0.3949 9.3987 0.2641 0.233 -0.952 -0.198 166 167 185 0 0
-0.3790 9.4029 0.2639 0.376 -0.875 -0.304 179 180 198 0 0
-0.2932 9.5208 0.2640 0.827 -0.467 -0.314 176 175 189 0 0
-0.2766 9.5311 0.2638 0.270 -0.957 -0.107 157 157 169 0 0
-0.2614 9.5192 0.2633 -0.517 -0.848 0.116 153 151 162 0 0
-0.2236 9.6054 0.2639 0.697 -0.382 -0.607 154 154 162 0 0
0.6329 10.1105 0.2536 0.373 -0.856 -0.359 240 238 239 0 0
0.6740 10.1524 0.2534 0.345 -0.938 -0.038 238 236 239 0 0
0.6923 10.1589 0.2531 0.466 -0.883 -0.057 235 235 237 0 0
0.7112 10.1681 0.2529 0.525 -0.848 -0.077 224 228 231 0 0
0.7305 10.1801 0.2527 0.525 -0.848 -0.077 223 230 236 0 0
1.4305 11.2540 0.2559 -0.116 -0.951 -0.285 102 90 94 0 0
1.4495 11.2518 0.2554 -0.116 -0.951 -0.285 114 102 106 0 0
1.4698 11.1667 0.2534 -0.416 -0.896 -0.155 130 119 123 0 0
1.4697 11.0788 0.2519 -0.744 -0.662 -0.088 133 124 129 0 0
1.4872 11.0713 0.2514 -0.536 -0.839 -0.088 137 128 133 0 0
1.5070 11.0740 0.2510 -0.221 -0.930 -0.294 140 131 134 0 0
1.5654 11.0776 0.2497 0.012 -0.933 -0.359 153 147 149 0 0
1.7236 11.1756 0.2479 0.562 -0.813 -0.156 205 204 212 0 0
1.7976 11.0834 0.2446 -0.358 -0.803 -0.477 184 184 196 0 0
1.8165 11.0820 0.2442 -0.043 -0.912 -0.408 203 203 213 0 0
1.8356 11.0813 0.2438 -0.043 -0.912 -0.408 213 213 223 0 0
2.0800 11.3415 0.2428 0.783 -0.523 -0.335 170 167 174 0 0
2.1667 11.4396 0.2426 -0.689 -0.713 -0.128 169 166 173 0 0
2.1981 11.4092 0.2414 0.232 -0.917 -0.326 171 170 176 0 0
2.2191 11.4127 0.2410 0.274 -0.921 -0.277 174 169 176 0 0
2.2439 11.4298 0.2407 -0.081 -0.992 -0.092 179 173 183 0 0
2.2635 11.4283 0.2403 -0.081 -0.992 -0.092 188 185 194 0 0
2.2870 11.4403 0.2400 0.112 -0.984 -0.138 204 202 213 0 0
2.3083 11.4447 0.2396 0.148 -0.989 0.026 216 216 228 0 0
2.3319 11.4571 0.2392 0.342 -0.930 -0.137 212 214 227 0 0
2.3581 11.4776 0.2390 0.551 -0.805 0.220 215 217 232 0 0
2.3813 11.4880 0.2387 0.498 -0.751 0.434 207 210 226 0 0
2.4105 11.5184 0.2386 0.558 -0.721 0.410 192 199 218 0 0
2.4906 11.4501 0.2356 0.781 -0.611 -0.129 95 115 142 0 0
2.6051 11.6892 0.2372 0.818 -0.396 -0.417 89 106 129 0 0
2.6354 11.7203 0.2371 0.903 -0.403 -0.148 91 99 118 0 0
2.8395 12.1673 0.2403 0.138 -0.889 -0.437 136 139 148 0 0
2.8622 12.1710 0.2399 0.138 -0.889 -0.437 179 183 192 0 0
2.8837 12.1710 0.2394 0.263 -0.882 -0.391 215 219 228 0 0
2.9418 12.2173 0.2389 0.630 -0.717 -0.298 238 240 252 0 0
3.1054 12.4491 0.2393 -0.698 -0.629 -0.342 239 242 249 0 0
3.1285 12.4525 0.2389 -0.029 -0.921 -0.388 238 238 248 0 0
3.6844 12.9436 0.2351 0.297 -0.890 -0.346 196 194 198 0 0
3.7328 12.9497 0.2341 0.400 -0.832 -0.385 197 194 203 0 0
3.7709 12.9899 0.2339 0.287 -0.785 -0.549 192 190 200 0 0
3.8264 12.9527 0.2320 0.647 -0.762 0.032 207 205 218 0 0
3.8615 12.9842 0.2318 0.484 -0.834 -0.266 213 210 220 0 0
3.9003 13.0252 0.2317 0.715 -0.648 -0.264 209 206 214 0 0
4.0648 13.1480 0.2301 0.740 -0.621 -0.258 165 150 158 0 0
4.2173 13.3543 0.2303 0.414 -0.804 -0.427 134 119 122 0 0
4.2521 13.3817 0.2300 -0.230 -0.788 -0.571 123 107 112 0 0
4.3309 12.9947 0.2215 0.398 -0.829 -0.392 140 130 141 0 0
4.4132 13.0792 0.2211 -0.050 -0.873 -0.486 146 137 150 0 0
4.4539 12.7409 0.2143 0.776 -0.460 -0.431 155 149 165 0 0
4.5297 12.8615 0.2147 0.789 -0.491 -0.369 156 149 165 0 0
4.5531 12.8621 0.2142 0.844 -0.518 -0.137 155 150 165 0 0
4.5937 12.7457 0.2112 -0.937 -0.349 -0.028 157 153 167 0 0
4.7281 12.7884 0.2090 -0.215 -0.705 -0.676 117 108 120 0 0
4.7449 12.7746 0.2084 0.150 -0.956 0.253 72 65 73 0 0
4.7662 12.7709 0.2078 -0.169 -0.952 0.255 43 38 43 0 0
4.7895 12.7712 0.2073 -0.258 -0.934 0.247 38 33 37 0 0
4.7323 9.4555 0.1504 -0.312 -0.842 -0.440 70 70 72 0 0
4.9004 9.5028 0.1474 0.582 -0.768 -0.267 8 15 35 0 0
4.8693 9.4279 0.1468 0.614 -0.763 -0.202 5 17 36 0 0
5.0600 9.5344 0.1444 -0.099 -0.946 -0.307 5 13 36 0 0
5.0693 9.5222 0.1440 0.199 -0.916 -0.347 6 14 39 0 0
5.0927 9.5313 0.1436 -0.099 -0.946 -0.307 7 14 41 0 0
5.1091 9.5297 0.1432 -0.099 -0.946 -0.307 6 19 47 0 0
-5.2146 10.9847 0.3820 -0.434 -0.860 -0.270 97 52 33 0 0
-5.1242 10.8921 0.3785 -0.496 -0.795 -0.348 58 34 26 0 0
-5.1076 10.8933 0.3781 0.532 -0.791 -0.300 43 29 23 0 0
-4.0338 9.6118 0.3337 -0.712 -0.681 0.170 44 39 40 0 0
-3.2869 8.6992 0.3025 -0.522 -0.798 0.302 23 24 29 0 0
-2.7361 7.8082 0.2761 0.772 -0.582 -0.254 158 152 152 0 0
-2.6660 8.1263 0.2795 0.017 -0.944 -0.331 122 116 120 0 0
-2.5006 7.9081 0.2723 -0.828 -0.489 -0.273 142 138 140 0 0
-2.4526 7.8614 0.2705 -0.670 -0.723 -0.167 148 143 149 0 0
-2.4958 8.1723 0.2764 -0.916 -0.400 -0.035 149 147 153 0 0
-2.4500 8.0802 0.2739 -0.784 -0.620 0.008 158 156 171 0 0
-2.4319 8.0556 0.2731 -0.816 -0.562 -0.137 164 163 182 0 0
-2.3612 7.9612 0.2700 -0.322 -0.888 -0.328 62 50 61 0 0
-2.3329 7.9461 0.2692 -0.609 -0.757 -0.238 79 38 44 0 0
-2.1104 7.9757 0.2646 -0.308 -0.795 -0.522 117 65 72 0 0
-2.0968 7.9707 0.2642 0.186 -0.911 -0.368 122 71 76 0 0
-1.9119 8.0139 0.2608 -0.355 -0.935 -0.012 162 159 128 0 0
-1.8959 7.9918 0.2600 -0.083 -0.979 0.185 165 160 130 0 0
-1.8833 7.9930 0.2598 0.550 -0.733 0.401 169 162 133 0 0
-1.7380 8.2874 0.2612 0.668 -0.732 -0.134 141 132 123 0 0
-1.6114 9.8162 0.2824 -0.078 -0.986 0.150 171 166 172 0 0
-1.5063 10.6655 0.2935 -0.715 -0.681 0.159 164 164 172 0 0
-1.4865 10.6314 0.2925 -0.812 -0.574 0.111 160 160 168 0 0
-1.4669 10.5988 0.2915 -0.883 -0.469 0.031 158 158 168 0 0
-1.4471 10.5630 0.2905 -0.889 -0.423 0.178 159 159 171 0 0
-1.3039 9.8053 0.2753 0.581 -0.807 -0.102 141 141 151 0 0
-1.2882 9.8166 0.2752 0.581 -0.807 -0.102 114 113 127 0 0
-1.2725 9.8273 0.2750 0.709 -0.702 -0.067 107 106 122 0 0
-1.2446 9.9306 0.2760 0.732 -0.669 0.129 123 125 140 0 0
-1.2275 9.9145 0.2753 -0.353 -0.930 0.104 130 132 147 0 0
-1.2108 9.9081 0.2749 -0.353 -0.930 0.104 135 137 150 0 0
-1.1941 9.8978 0.2743 -0.161 -0.984 -0.076 141 143 156 0 0
-1.1776 9.8952 0.2739 -0.161 -0.984 -0.076 145 147 160 0 0
-1.1601 9.8636 0.2730 -0.019 -0.992 -0.125 149 151 164 0 0
-1.1437 9.8596 0.2726 -0.563 -0.826 0.031 151 153 166 0 0
-1.1270 9.8483 0.2720 -0.563 -0.826 0.031 152 155 170 0 0
-1.1108 9.8530 0.2717 -0.401 -0.916 -0.021 155 158 173 0 0
-0.4388 9.1411 0.2454 -0.290 -0.843 -0.453 169 168 184 0 0
-0.4110 9.3994 0.2488 0.254 -0.897 -0.362 179 178 194 0 0
-0.3950 9.4038 0.2485 0.244 -0.897 -0.368 165 166 184 0 0
-0.3791 9.4083 0.2482 0.376 -0.875 -0.304 186 187 205 0 0
-0.2931 9.5286 0.2482 0.412 -0.894 -0.175 174 174 186 0 0
-0.2769 9.5328 0.2479 0.270 -0.957 -0.107 153 153 163 0 0
-0.2619 9.5173 0.2473 -0.517 -0.848 0.116 154 153 161 0 0
0.6156 10.1135 0.2370 0.461 -0.824 -0.329 242 238 239 0 0
0.6336 10.1180 0.2366 0.373 -0.856 -0.359 240 238 239 0 0
0.6734 10.1517 0.2363 0.438 -0.867 -0.237 240 238 241 0 0
0.6930 10.1660 0.2361 0.416 -0.905 -0.086 235 236 240 0 0
0.7115 10.1733 0.2358 0.482 -0.867 -0.130 231 236 240 0 0
1.4311 11.2597 0.2367 -0.116 -0.951 -0.285 105 93 97 0 0
1.4503 11.2582 0.2362 -0.436 -0.852 -0.290 115 103 107 0 0
1.4675 11.1587 0.2343 -0.685 -0.708 -0.172 131 120 124 0 0
1.4696 11.0806 0.2330 -0.738 -0.663 -0.126 134 123 129 0 0
1.4871 11.0733 0.2325 -0.536 -0.839 -0.088 137 128 133 0 0
1.5073 11.0778 0.2321 -0.041 -0.954 -0.297 140 131 134 0 0
1.5455 11.0771 0.2312 0.164 -0.912 -0.376 146 137 140 0 0
1.5672 11.0877 0.2309 -0.334 -0.885 -0.325 155 149 151 0 0
1.7811 11.0970 0.2262 -0.153 -0.846 -0.511 179 179 191 0 0
1.7993 11.0927 0.2258 -0.241 -0.861 -0.447 188 188 200 0 0
1.8180 11.0903 0.2253 -0.043 -0.912 -0.408 205 205 216 0 0
1.8371 11.0896 0.2249 -0.043 -0.912 -0.408 213 213 223 0 0
2.0228 11.2779 0.2237 0.782 -0.555 -0.283 167 164 173 0 0
2.1092 11.3779 0.2233 0.805 -0.546 -0.232 171 168 175 0 0
2.1524 11.4626 0.2237 -0.067 -0.616 -0.785 171 166 173 0 0
2.1996 11.4165 0.2219 0.232 -0.917 -0.326 169 164 170 0 0
2.2249 11.4354 0.2216 -0.005 -0.970 -0.242 169 162 170 0 0
2.2443 11.4334 0.2211 -0.024 -0.993 -0.111 177 172 179 0 0
2.2660 11.4390 0.2207 -0.077 -0.995 -0.058 193 190 199 0 0
2.2854 11.4369 0.2203 -0.039 -0.987 0.158 205 205 215 0 0
2.3052 11.4362 0.2198 -0.045 -0.912 0.408 202 206 218 0 0
2.3280 11.4456 0.2194 0.220 -0.892 0.395 186 193 209 0 0
2.3524 11.4604 0.2191 0.419 -0.778 0.469 166 174 193 0 0
2.3729 11.4618 0.2187 0.540 -0.837 0.089 142 153 175 0 0
2.4168 11.5419 0.2190 0.491 -0.742 -0.457 114 130 156 0 0
2.4934 11.4613 0.2160 0.821 -0.558 -0.121 87 120 153 0 0
2.6184 11.7340 0.2174 0.834 -0.402 -0.377 90 109 133 0 0
2.8210 12.1787 0.2199 0.336 -0.867 -0.368 103 105 118 0 0
2.8449 12.1862 0.2195 -0.011 -0.905 -0.426 138 140 150 0 0
2.8664 12.1861 0.2190 -0.011 -0.905 -0.426 183 187 196 0 0
2.8862 12.1811 0.2185 0.258 -0.887 -0.384 220 224 233 0 0
2.9454 12.2305 0.2179 0.650 -0.707 -0.279 238 240 253 0 0
3.0368 12.3769 0.2182 0.685 -0.616 -0.389 238 241 250 0 0
3.0914 12.4756 0.2185 -0.755 -0.560 -0.342 240 243 252 0 0
3.1344 12.4721 0.2175 -0.143 -0.794 -0.590 237 236 246 0 0
3.6881 12.9560 0.2126 0.200 -0.866 -0.458 195 193 196 0 0
3.7366 12.9619 0.2116 0.400 -0.832 -0.385 194 191 198 0 0
3.7767 13.0078 0.2115 0.287 -0.785 -0.549 188 186 196 0 0
3.7915 12.9235 0.2098 0.683 -0.729 -0.037 200 198 211 0 0
3.8273 12.9574 0.2095 0.674 -0.730 -0.113 210 208 221 0 0
3.8604 12.9835 0.2092 0.518 -0.796 -0.313 214 211 221 0 0
4.0699 13.1632 0.2073 0.760 -0.601 -0.248 164 149 157 0 0
4.2298 13.3880 0.2073 0.327 -0.866 -0.379 133 118 121 0 0
4.2471 13.3712 0.2066 0.354 -0.859 -0.370 123 107 112 0 0
4.2239 13.2533 0.2053 -0.615 -0.747 -0.252 113 98 105 0 0
4.3858 13.1848 0.2005 0.246 -0.817 -0.521 138 128 137 0 0
4.3355 13.0076 0.1989 0.398 -0.829 -0.392 141 131 142 0 0
4.4176 13.0915 0.1984 -0.152 -0.856 -0.495 146 137 150 0 0
4.4419 13.0933 0.1978 0.108 -0.853 -0.511 148 140 153 0 0
4.3456 12.7573 0.1947 -0.376 -0.805 -0.458 150 144 158 0 0
4.4421 12.7156 0.1919 0.610 -0.585 -0.535 155 149 165 0 0
4.5748 12.6544 0.1879 -0.506 -0.775 -0.377 156 151 165 0 0
4.6230 12.7107 0.1877 0.250 -0.843 -0.476 158 150 164 0 0
4.7213 12.7754 0.1865 -0.432 -0.724 0.537 118 108 119 0 0
4.7580 12.7548 0.1854 -0.418 -0.729 0.542 50 41 43 0 0
4.7934 12.7319 0.1842 -0.464 -0.658 0.593 42 37 38 0 0
4.7450 9.4496 0.1335 -0.153 -0.922 -0.355 71 70 75 0 0
4.7576 9.4423 0.1331 -0.160 -0.922 -0.353 68 69 74 0 0
4.9063 9.5130 0.1309 0.582 -0.768 -0.267 8 15 35 0 0
4.8736 9.4358 0.1304 0.614 -0.763 -0.202 5 16 36 0 0
5.0733 9.5294 0.1274 0.199 -0.916 -0.347 7 15 38 0 0
5.0954 9.5364 0.1270 -0.099 -0.946 -0.307 9 16 41 0 0
5.1118 9.5348 0.1266 -0.099 -0.946 -0.307 5 20 49 0 0
-5.2678 11.0693 0.3665 -0.631 -0.769 -0.103 100 53 33 0 0
-5.2185 10.9938 0.3643 -0.404 -0.842 -0.358 97 52 33 0 0
-5.1286 10.9025 0.3610 -0.496 -0.795 -0.348 61 35 28 0 0
-5.1078 10.8936 0.3604 -0.234 -0.852 -0.468 45 30 24 0 0
-5.0889 10.8892 0.3599 0.522 -0.749 -0.407 37 26 25 0 0
-2.6668 8.1292 0.2664 -0.115 -0.945 -0.306 123 117 121 0 0
-2.4537 7.8653 0.2579 -0.670 -0.723 -0.167 149 144 150 0 0
-2.4502 8.0802 0.2608 -0.784 -0.620 0.008 158 156 171 0 0
-2.4332 8.0606 0.2602 -0.816 -0.562 -0.137 164 163 182 0 0
-2.3625 7.9663 0.2573 -0.322 -0.888 -0.328 61 49 60 0 0
-2.3282 7.9844 0.2567 -0.236 -0.886 -0.399 79 38 46 0 0
-2.1334 7.9609 0.2520 -0.745 -0.479 -0.465 109 56 64 0 0
-2.1165 7.9366 0.2513 -0.716 -0.507 -0.480 112 59 67 0 0
-2.0979 7.9757 0.2514 0.186 -0.911 -0.368 120 68 74 0 0
-2.0855 7.9777 0.2512 0.195 -0.932 -0.306 125 75 80 0 0
-1.8824 7.9851 0.2467 0.063 -0.790 -0.610 169 162 133 0 0
-1.8713 7.9975 0.2466 0.542 -0.594 -0.595 175 166 137 0 0
-1.4668 10.5924 0.2737 -0.788 -0.586 0.190 157 157 167 0 0
-1.4479 10.5703 0.2730 -0.736 -0.589 0.333 159 159 169 0 0
-1.3699 9.8228 0.2608 0.334 -0.910 -0.247 159 159 169 0 0
-1.2729 9.8285 0.2587 0.709 -0.702 -0.067 104 106 121 0 0
-1.2448 9.9276 0.2594 0.728 -0.672 0.135 125 124 140 0 0
-1.2277 9.9127 0.2588 -0.353 -0.930 0.104 132 131 147 0 0
-1.2111 9.9063 0.2583 -0.353 -0.930 0.104 139 138 152 0 0
-1.1945 9.9005 0.2579 -0.179 -0.982 -0.053 142 144 157 0 0
-1.1780 9.8972 0.2575 0.039 -0.997 -0.066 146 148 161 0 0
-1.1608 9.8726 0.2567 -0.211 -0.963 -0.169 150 152 165 0 0
-1.1440 9.8584 0.2562 -0.610 -0.792 0.019 152 154 167 0 0
-1.1273 9.8478 0.2556 -0.563 -0.826 0.031 153 156 171 0 0
-1.1112 9.8536 0.2553 -0.401 -0.916 -0.021 155 158 173 0 0
-0.4264 9.4124 0.2337 0.072 -0.984 -0.165 180 177 194 0 0
-0.4110 9.4057 0.2332 0.254 -0.897 -0.362 172 171 187 0 0
-0.3950 9.4115 0.2329 0.315 -0.891 -0.327 174 175 193 0 0
-0.3791 9.4159 0.2326 0.234 -0.941 -0.246 194 195 213 0 0
-0.3472 9.4222 0.2320 0.296 -0.943 -0.151 180 183 200 0 0
-0.3243 9.5466 0.2332 -0.260 -0.953 0.156 178 180 195 0 0
-0.3084 9.5463 0.2329 -0.190 -0.974 0.121 177 179 192 0 0
-0.2933 9.5316 0.2323 0.412 -0.894 -0.175 167 167 179 0 0
-0.2771 9.5345 0.2320 0.270 -0.957 -0.107 150 150 160 0 0
-0.2623 9.5169 0.2314 -0.408 -0.910 0.077 154 153 161 0 0
0.6164 10.1215 0.2200 0.395 -0.841 -0.370 242 238 239 0 0
0.6535 10.1384 0.2194 0.642 -0.750 -0.160 240 238 239 0 0
0.6743 10.1600 0.2192 0.398 -0.803 -0.444 240 240 242 0 0
0.6950 10.1812 0.2190 0.159 -0.880 -0.447 232 235 240 0 0
0.7108 10.1719 0.2185 0.377 -0.807 -0.454 209 219 228 0 0
1.4132 11.2698 0.2180 0.086 -0.937 -0.339 94 79 82 0 0
1.4322 11.2674 0.2175 -0.210 -0.920 -0.332 108 93 96 0 0
1.4510 11.2643 0.2171 -0.436 -0.852 -0.290 118 103 106 0 0
1.4688 11.1670 0.2153 -0.563 -0.765 -0.312 131 120 124 0 0
1.4891 11.0844 0.2137 -0.041 -0.954 -0.297 137 128 133 0 0
1.5081 11.0837 0.2133 -0.041 -0.954 -0.297 140 131 134 0 0
1.5268 11.0813 0.2128 0.164 -0.912 -0.376 142 133 136 0 0
1.5468 11.0851 0.2124 0.164 -0.912 -0.376 146 137 140 0 0
1.5681 11.0943 0.2120 -0.334 -0.885 -0.325 155 149 151 0 0
1.8203 11.2561 0.2086 -0.240 -0.943 -0.230 179 179 191 0 0
1.8387 11.2515 0.2081 -0.240 -0.943 -0.230 187 189 201 0 0
1.8207 11.1031 0.2064 0.074 -0.939 -0.336 203 205 217 0 0
1.8406 11.1053 0.2060 0.094 -0.948 -0.302 210 212 224 0 0
2.0247 11.2873 0.2044 0.767 -0.581 -0.271 167 166 172 0 0
2.1117 11.3891 0.2039 0.762 -0.577 -0.292 171 168 175 0 0
2.1985 11.4150 0.2023 0.386 -0.825 -0.413 170 164 168 0 0
2.2216 11.4257 0.2019 0.392 -0.802 -0.450 174 164 172 0 0
2.2472 11.4458 0.2016 -0.172 -0.934 -0.313 182 177 184 0 0
2.2663 11.4424 0.2011 -0.172 -0.934 -0.313 179 179 189 0 0
2.2853 11.4387 0.2006 -0.239 -0.963 -0.125 159 165 177 0 0
2.3052 11.4385 0.2002 -0.182 -0.848 -0.498 135 146 162 0 0
2.3264 11.4424 0.1997 -0.183 -0.949 -0.257 112 129 149 0 0
2.3612 11.4925 0.1997 0.578 -0.812 -0.081 97 117 141 0 0
2.3875 11.5133 0.1994 0.599 -0.771 -0.216 90 114 142 0 0
2.4206 11.5566 0.1992 0.491 -0.742 -0.457 86 117 148 0 0
2.3643 11.3011 0.1969 0.744 -0.667 0.036 82 121 154 0 0
2.4615 11.4249 0.1964 0.737 -0.668 0.109 73 121 161 0 0
2.4869 11.4424 0.1961 0.752 -0.596 -0.281 78 120 158 0 0
2.8264 12.1981 0.1990 0.366 -0.858 -0.361 104 106 118 0 0
2.8489 12.2009 0.1985 -0.183 -0.915 -0.359 143 146 153 0 0
2.8688 12.1960 0.1980 -0.011 -0.905 -0.426 188 192 201 0 0
2.8903 12.1957 0.1975 0.260 -0.871 -0.417 222 226 235 0 0
2.9173 12.2126 0.1971 0.555 -0.764 -0.329 235 237 250 0 0
2.9482 12.2415 0.1968 0.650 -0.707 -0.279 237 239 252 0 0
3.1123 12.4741 0.1964 -0.488 -0.693 -0.530 239 242 251 0 0
3.1390 12.4879 0.1960 0.102 -0.739 -0.666 234 232 243 0 0
3.1679 12.5080 0.1956 0.307 -0.812 -0.497 210 208 221 0 0
3.7202 12.9824 0.1897 0.431 -0.854 -0.291 198 196 201 0 0
3.7403 12.9742 0.1892 0.499 -0.781 -0.374 195 192 198 0 0
3.7839 13.0290 0.1889 0.330 -0.794 -0.510 197 194 204 0 0
3.7982 12.9434 0.1874 0.654 -0.631 -0.417 212 210 221 0 0
3.8298 12.9659 0.1870 0.646 -0.720 -0.255 216 214 225 0 0
3.9166 13.0112 0.1857 0.102 -0.899 -0.426 203 198 202 0 0
3.9412 13.0146 0.1852 0.097 -0.890 -0.446 196 187 192 0 0
3.9656 13.0175 0.1847 0.097 -0.890 -0.446 186 175 183 0 0
4.0757 13.1800 0.1845 0.740 -0.621 -0.258 163 148 156 0 0
4.2572 13.4591 0.1843 -0.836 -0.548 -0.001 132 117 120 0 0
4.2509 13.3828 0.1833 0.354 -0.859 -0.370 121 106 112 0 0
4.2256 13.2597 0.1822 -0.615 -0.747 -0.252 112 96 105 0 0
4.4635 12.7666 0.1699 0.407 -0.530 -0.744 155 148 164 0 0
4.5619 12.6784 0.1664 -0.636 -0.722 -0.273 156 151 165 0 0
4.5793 12.6662 0.1659 -0.504 -0.700 -0.506 157 151 165 0 0
4.6297 12.7274 0.1656 0.178 -0.803 -0.569 158 150 164 0 0
4.8014 12.8008 0.1627 0.487 -0.701 0.521 51 40 41 0 0
4.7605 9.4481 0.1167 -0.160 -0.922 -0.353 68 69 74 0 0
4.7765 9.4462 0.1163 0.052 -0.938 -0.343 60 60 69 0 0
4.9121 9.5231 0.1143 0.582 -0.768 -0.267 9 15 35 0 0
4.9192 9.5073 0.1139 0.717 -0.669 -0.196 6 16 36 0 0
5.0569 9.5320 0.1112 0.199 -0.916 -0.347 6 14 35 0 0
5.0773 9.5366 0.1108 0.199 -0.916 -0.347 7 15 37 0 0
5.0977 9.5409 0.1104 -0.012 -0.938 -0.346 8 17 42 0 0
5.1151 9.5409 0.1100 -0.012 -0.938 -0.346 3 22 49 0 0
-5.2233 11.0049 0.3467 0.546 -0.640 -0.541 97 52 31 0 0
-5.1301 10.9057 0.3434 -0.631 -0.697 -0.342 62 36 29 0 0
-5.1153 10.9114 0.3431 -0.243 -0.838 -0.489 46 31 25 0 0
-5.0929 10.8987 0.3424 0.550 -0.658 -0.514 36 25 24 0 0
-5.0704 10.8856 0.3417 -0.258 -0.838 -0.481 33 24 25 0 0
-3.3457 8.4958 0.2733 -0.222 -0.680 0.699 115 108 106 0 0
-2.6680 8.1335 0.2534 -0.115 -0.945 -0.306 123 117 121 0 0
-2.4547 7.8691 0.2453 -0.670 -0.723 -0.167 149 144 150 0 0
-2.4504 8.0803 0.2478 -0.784 -0.620 0.008 157 155 170 0 0
-2.3637 7.9715 0.2445 -0.322 -0.888 -0.328 61 51 63 0 0
-2.3025 7.9817 0.2432 -0.553 -0.719 -0.421 81 38 47 0 0
-2.1195 7.9527 0.2387 -0.716 -0.507 -0.480 112 59 67 0 0
-2.1022 7.9260 0.2380 -0.745 -0.479 -0.465 116 63 71 0 0
-2.0986 7.9789 0.2385 -0.103 -0.854 -0.511 119 66 72 0 0
-2.0862 7.9808 0.2383 0.364 -0.855 -0.369 123 71 77 0 0
-1.9014 8.0271 0.2346 -0.733 -0.504 -0.457 166 161 132 0 0
-1.8870 8.0166 0.2342 -0.527 -0.596 -0.606 169 160 131 0 0
-1.4667 10.5866 0.2560 -0.788 -0.586 0.190 158 158 168 0 0
-1.4475 10.5589 0.2552 -0.628 -0.646 0.434 158 158 168 0 0
-1.3720 9.8539 0.2449 -0.592 -0.762 -0.260 158 158 168 0 0
-1.2309 9.9813 0.2432 -0.538 -0.815 0.213 131 130 146 0 0
-1.2114 9.9064 0.2419 -0.357 -0.932 0.061 139 138 152 0 0
-1.1947 9.8977 0.2414 0.025 -0.999 -0.029 143 145 158 0 0
-1.1783 9.8982 0.2410 0.039 -0.997 -0.066 147 149 162 0 0
-1.1613 9.8780 0.2404 -0.249 -0.964 -0.089 151 153 166 0 0
-1.1444 9.8617 0.2398 -0.574 -0.819 -0.008 153 155 168 0 0
-1.1281 9.8629 0.2394 -0.494 -0.869 0.026 153 156 171 0 0
-1.1117 9.8597 0.2390 -0.317 -0.948 -0.032 155 158 173 0 0
-1.0953 9.8592 0.2387 0.473 -0.878 -0.080 156 159 176 0 0
-0.4532 9.1740 0.2157 -0.347 -0.834 -0.430 166 165 181 0 0
-0.4267 9.4143 0.2180 0.049 -0.986 -0.162 181 178 195 0 0
-0.4111 9.4104 0.2176 0.202 -0.902 -0.381 169 168 182 0 0
-0.3952 9.4141 0.2173 0.202 -0.902 -0.381 189 188 206 0 0
-0.3792 9.4200 0.2170 0.234 -0.941 -0.246 196 197 215 0 0
-0.3248 9.5441 0.2173 -0.260 -0.953 0.156 179 181 196 0 0
-0.3091 9.5398 0.2168 -0.260 -0.953 0.156 173 175 188 0 0
-0.2938 9.5289 0.2164 0.487 -0.865 -0.125 155 155 167 0 0
0.6171 10.1294 0.2030 0.395 -0.841 -0.370 242 238 239 0 0
0.6350 10.1335 0.2026 0.285 -0.870 -0.402 240 238 239 0 0
0.6536 10.1415 0.2023 0.544 -0.758 -0.359 239 237 238 0 0
0.6742 10.1628 0.2021 0.394 -0.715 -0.578 238 238 240 0 0
0.6936 10.1756 0.2018 0.230 -0.804 -0.548 226 231 237 0 0
0.7118 10.1809 0.2014 0.376 -0.824 -0.424 194 208 221 0 0
0.7307 10.1899 0.2011 0.399 -0.741 -0.540 178 196 216 0 0
1.3192 11.1938 0.2000 0.556 -0.750 -0.358 65 50 57 0 0
1.4142 11.2768 0.1988 0.086 -0.937 -0.339 95 80 83 0 0
1.4518 11.2704 0.1979 -0.436 -0.852 -0.290 119 104 107 0 0
1.4693 11.2613 0.1974 -0.571 -0.787 -0.231 125 113 117 0 0
1.4898 11.0902 0.1948 -0.041 -0.954 -0.297 138 129 134 0 0
1.5089 11.0895 0.1944 -0.041 -0.954 -0.297 140 131 134 0 0
1.5280 11.0893 0.1939 0.164 -0.912 -0.376 142 133 136 0 0
1.5481 11.0931 0.1935 0.164 -0.912 -0.376 146 137 140 0 0
1.5690 11.1008 0.1931 -0.303 -0.876 -0.375 156 150 152 0 0
1.8196 11.2556 0.1893 -0.196 -0.981 -0.003 176 176 188 0 0
1.8393 11.2562 0.1889 -0.011 -1.000 -0.020 187 189 201 0 0
1.8217 11.1093 0.1875 0.094 -0.948 -0.302 202 204 216 0 0
2.0343 11.3251 0.1853 0.837 -0.483 -0.256 168 167 173 0 0
2.1826 11.4317 0.1832 -0.771 -0.601 -0.208 173 167 169 0 0
2.2026 11.4317 0.1828 0.204 -0.852 -0.482 171 165 167 0 0
2.2263 11.4445 0.1824 0.237 -0.821 -0.520 167 160 167 0 0
2.2501 11.4579 0.1820 -0.177 -0.763 -0.622 158 155 166 0 0
2.2690 11.4539 0.1815 -0.177 -0.763 -0.622 134 139 153 0 0
2.2875 11.4485 0.1810 -0.227 -0.748 -0.624 109 121 138 0 0
2.3093 11.4544 0.1806 -0.043 -0.745 -0.666 97 117 138 0 0
2.3349 11.4736 0.1803 0.613 -0.786 0.084 90 117 144 0 0
2.3611 11.4944 0.1799 0.578 -0.812 -0.081 88 119 150 0 0
2.4243 11.5712 0.1794 0.491 -0.742 -0.457 77 117 153 0 0
2.7609 12.0602 0.1777 0.870 -0.439 -0.223 93 100 112 0 0
2.8285 12.2067 0.1780 0.277 -0.904 -0.326 112 115 125 0 0
2.8507 12.2088 0.1775 -0.183 -0.915 -0.359 154 154 162 0 0
2.8713 12.2059 0.1770 -0.011 -0.905 -0.426 193 196 203 0 0
2.8931 12.2067 0.1765 0.260 -0.871 -0.417 223 227 236 0 0
2.9174 12.2150 0.1760 0.479 -0.788 -0.387 235 237 249 0 0
2.9632 12.2894 0.1759 0.781 -0.570 -0.257 237 239 252 0 0
3.1171 12.4908 0.1749 -0.405 -0.707 -0.580 240 240 250 0 0
3.1416 12.4980 0.1744 0.145 -0.794 -0.590 230 227 238 0 0
3.1721 12.5229 0.1740 0.307 -0.812 -0.497 201 199 213 0 0
3.2245 12.5463 0.1731 0.421 -0.728 -0.542 93 98 117 0 0
3.2512 12.5592 0.1726 0.472 -0.756 -0.454 136 142 161 0 0
3.7232 12.9927 0.1672 0.354 -0.863 -0.362 200 198 203 0 0
3.7585 13.0254 0.1668 0.439 -0.792 -0.425 203 201 206 0 0
3.7879 13.0419 0.1663 0.439 -0.792 -0.425 208 205 214 0 0
3.8056 12.9651 0.1650 0.564 -0.647 -0.513 215 213 224 0 0
3.8667 13.0041 0.1641 0.397 -0.833 -0.387 213 210 217 0 0
3.9201 13.0224 0.1631 0.102 -0.899 -0.426 202 196 201 0 0
4.1977 13.3717 0.1610 0.558 -0.786 -0.265 141 126 129 0 0
4.2563 13.4590 0.1608 -0.831 -0.557 0.007 130 115 118 0 0
4.2530 13.3902 0.1600 0.353 -0.883 -0.311 119 104 110 0 0
4.3343 13.3538 0.1577 0.657 -0.726 -0.203 118 107 115 0 0
4.3306 13.1700 0.1555 -0.131 -0.967 -0.220 131 121 130 0 0
4.3760 13.2226 0.1551 -0.098 -0.879 -0.466 134 124 133 0 0
4.4016 13.1701 0.1539 -0.088 -0.937 -0.337 141 131 142 0 0
4.4849 12.8177 0.1477 0.342 -0.683 -0.645 156 149 165 0 0
4.7635 9.4539 0.1002 -0.160 -0.922 -0.353 66 66 73 0 0
4.9270 9.5205 0.0973 0.717 -0.669 -0.196 6 14 35 0 0
5.0609 9.5391 0.0945 0.199 -0.916 -0.347 6 15 35 0 0
5.0813 9.5437 0.0941 0.199 -0.916 -0.347 5 15 37 0 0
5.1184 9.5470 0.0933 -0.012 -0.938 -0.346 3 24 50 0 0
-5.1992 10.9883 0.3281 -0.261 -0.809 -0.526 90 48 34 0 0
-5.1360 10.9196 0.3259 -0.631 -0.697 -0.342 63 37 30 0 0
-5.1105 10.8995 0.3251 -0.189 -0.822 -0.536 47 31 25 0 0
-5.0949 10.9033 0.3248 0.504 -0.654 -0.564 36 25 24 0 0
-5.0684 10.9223 0.3244 0.660 -0.546 -0.516 35 24 28 0 0
-2.6807 8.1321 0.2405 -0.435 -0.872 -0.226 108 102 106 0 0
-2.6661 8.1250 0.2401 -0.435 -0.872 -0.226 123 117 121 0 0
-2.6035 8.1322 0.2388 -0.939 -0.344 -0.014 139 134 138 0 0
-2.5682 8.0358 0.2369 -0.939 -0.344 -0.014 139 134 138 0 0
-2.4641 7.8550 0.2327 0.681 -0.696 -0.227 146 141 147 0 0
-2.4557 7.8730 0.2327 -0.670 -0.723 -0.167 148 143 149 0 0
-2.4685 8.1038 0.2354 -0.772 -0.635 0.043 151 148 156 0 0
-2.4506 8.0804 0.2347 -0.784 -0.620 0.008 156 154 169 0 0
-2.3650 7.9767 0.2317 -0.322 -0.888 -0.328 61 51 63 0 0
-2.0948 7.9555 0.2253 -0.654 -0.517 -0.552 119 64 70 0 0
-2.0874 7.9865 0.2254 0.211 -0.882 -0.422 120 68 74 0 0
-2.0754 7.9911 0.2252 0.364 -0.855 -0.369 125 75 80 0 0
-2.4752 11.7634 0.2737 0.958 -0.210 0.196 146 149 120 0 0
-1.8903 8.0380 0.2214 -0.483 -0.654 -0.582 168 158 131 0 0
-1.7873 8.2481 0.2213 0.500 -0.772 -0.393 103 94 87 0 0
-1.7634 8.2711 0.2210 0.569 -0.733 -0.372 142 132 120 0 0
-1.7404 8.3027 0.2208 0.297 -0.751 -0.589 141 133 114 0 0
-1.4668 10.5822 0.2383 -0.828 -0.535 0.165 159 159 169 0 0
-1.2312 9.9797 0.2266 -0.593 -0.791 0.151 130 129 145 0 0
-1.2117 9.9054 0.2254 -0.357 -0.932 0.061 138 137 151 0 0
-1.1950 9.8980 0.2249 0.214 -0.973 -0.081 143 145 158 0 0
-1.1788 9.9023 0.2246 0.232 -0.966 -0.113 147 149 162 0 0
-1.1447 9.8621 0.2234 -0.574 -0.819 -0.008 152 156 168 0 0
-1.1284 9.8626 0.2230 -0.494 -0.869 0.026 153 156 171 0 0
-1.1120 9.8593 0.2226 -0.184 -0.979 -0.081 155 158 173 0 0
-1.0957 9.8607 0.2223 0.518 -0.853 -0.069 157 160 177 0 0
-1.0797 9.8713 0.2220 0.591 -0.805 -0.049 157 160 177 0 0
-0.9726 8.3968 0.2042 0.672 -0.738 -0.057 160 161 179 0 0
-0.4269 9.4168 0.2023 0.049 -0.986 -0.162 174 171 188 0 0
-0.4113 9.4143 0.2019 0.123 -0.964 -0.237 175 174 188 0 0
-0.3955 9.4166 0.2016 0.157 -0.960 -0.231 197 196 214 0 0
-0.3796 9.4186 0.2012 0.123 -0.964 -0.237 189 190 208 0 0
-0.3635 9.4257 0.2010 0.173 -0.957 -0.233 182 185 202 0 0
-0.3253 9.5416 0.2013 -0.260 -0.953 0.156 177 180 195 0 0
-0.3097 9.5360 0.2009 0.021 -1.000 0.016 166 168 181 0 0
-0.2941 9.5311 0.2005 0.487 -0.865 -0.125 148 148 160 0 0
-0.2786 9.5227 0.2000 -0.290 -0.952 0.097 151 150 158 0 0
-0.2640 9.5025 0.1995 -0.581 -0.814 -0.000 154 151 160 0 0
0.6159 10.1240 0.1858 0.521 -0.780 -0.347 242 238 239 0 0
0.6554 10.1563 0.1852 0.559 -0.703 -0.439 238 236 237 0 0
0.6761 10.1776 0.1850 0.394 -0.715 -0.578 236 236 238 0 0
0.6951 10.1877 0.1847 0.230 -0.804 -0.548 221 225 234 0 0
0.7129 10.1902 0.1843 0.376 -0.824 -0.424 186 203 221 0 0
1.1468 11.0015 0.1828 0.439 -0.540 -0.718 98 87 93 0 0
1.1647 10.9960 0.1823 0.552 -0.647 -0.525 96 87 92 0 0
1.1857 11.0068 0.1820 0.591 -0.665 -0.455 93 82 90 0 0
1.2049 11.0079 0.1815 0.684 -0.671 -0.285 86 75 83 0 0
1.3199 11.1995 0.1809 0.674 -0.700 -0.235 66 49 57 0 0
1.3950 11.2810 0.1800 0.393 -0.872 -0.291 85 69 72 0 0
1.4151 11.2839 0.1796 0.086 -0.937 -0.339 97 81 84 0 0
1.4702 11.2678 0.1782 -0.313 -0.900 -0.303 127 115 117 0 0
1.4681 11.1689 0.1772 -0.537 -0.778 -0.328 131 120 124 0 0
1.4962 11.1212 0.1761 -0.753 -0.637 -0.162 138 129 134 0 0
1.5096 11.0954 0.1755 -0.041 -0.954 -0.297 140 131 136 0 0
1.5341 11.1185 0.1752 -0.567 -0.776 -0.277 142 133 138 0 0
1.5527 11.1159 0.1747 -0.246 -0.906 -0.346 148 139 144 0 0
1.5700 11.1075 0.1742 -0.334 -0.885 -0.325 158 152 156 0 0
1.8192 11.2562 0.1701 -0.094 -0.978 0.188 172 172 184 0 0
1.8383 11.2545 0.1696 -0.064 -0.986 0.152 188 190 202 0 0
2.0383 11.3424 0.1659 0.837 -0.483 -0.256 168 167 173 0 0
2.1945 11.5488 0.1645 -0.606 -0.572 -0.552 170 168 173 0 0
2.2045 11.4406 0.1632 0.249 -0.820 -0.515 168 166 171 0 0
2.2285 11.4545 0.1628 0.217 -0.814 -0.539 161 160 168 0 0
2.2521 11.4671 0.1623 -0.107 -0.754 -0.648 144 150 163 0 0
2.2714 11.4644 0.1619 -0.095 -0.749 -0.656 119 133 152 0 0
2.2908 11.4623 0.1614 -0.095 -0.749 -0.656 97 121 144 0 0
2.3327 11.4680 0.1605 0.617 -0.748 -0.245 79 117 150 0 0
2.3586 11.4878 0.1601 0.568 -0.747 -0.347 77 119 157 0 0
2.3932 11.5368 0.1598 0.560 -0.700 -0.443 74 118 157 0 0
2.4240 11.5724 0.1595 0.619 -0.682 -0.389 70 118 158 0 0
2.3553 11.2751 0.1580 0.618 -0.783 -0.075 67 119 158 0 0
2.4783 11.4842 0.1573 0.786 -0.503 -0.360 71 124 158 0 0
2.5170 11.5445 0.1571 0.635 -0.720 -0.281 74 119 151 0 0
2.5519 11.5917 0.1568 0.830 -0.460 -0.314 80 115 143 0 0
2.6167 11.7350 0.1568 0.911 -0.400 -0.103 81 104 126 0 0
2.8311 12.2172 0.1569 0.001 -0.889 -0.458 120 121 129 0 0
2.8530 12.2182 0.1564 -0.134 -0.904 -0.407 158 159 164 0 0
2.8744 12.2178 0.1559 0.001 -0.889 -0.458 197 200 205 0 0
2.8943 12.2124 0.1554 0.244 -0.862 -0.444 227 230 237 0 0
2.9206 12.2271 0.1550 0.476 -0.782 -0.403 239 239 251 0 0
2.9675 12.3050 0.1547 0.781 -0.570 -0.257 240 240 252 0 0
3.1514 12.5293 0.1528 -0.026 -0.861 -0.508 228 223 237 0 0
3.1743 12.5314 0.1523 0.446 -0.805 -0.392 193 189 204 0 0
3.2006 12.5436 0.1519 0.700 -0.656 -0.281 115 117 137 0 0
3.2579 12.5810 0.1509 0.472 -0.805 -0.360 138 144 166 0 0
3.4020 12.6733 0.1486 0.464 -0.841 -0.279 181 187 199 0 0
3.6439 12.8416 0.1448 -0.016 -0.959 -0.283 200 198 201 0 0
3.6664 12.8406 0.1443 0.041 -0.972 -0.233 204 202 205 0 0
3.7643 13.0431 0.1442 0.359 -0.774 -0.522 208 206 211 0 0
3.7204 12.8626 0.1433 0.336 -0.854 -0.397 212 210 218 0 0
3.7793 12.8973 0.1423 0.479 -0.779 -0.404 213 212 220 0 0
3.8094 12.9160 0.1418 0.479 -0.779 -0.404 214 213 219 0 0
4.1447 13.2997 0.1381 0.722 -0.650 -0.236 149 134 139 0 0
4.2554 13.4587 0.1373 -0.828 -0.560 0.025 128 113 116 0 0
4.2546 13.3963 0.1366 0.403 -0.881 -0.248 116 101 108 0 0
4.2943 13.3160 0.1349 0.463 -0.809 -0.361 115 103 112 0 0
4.3551 13.2313 0.1326 0.157 -0.969 -0.192 132 122 131 0 0
4.3674 13.2036 0.1320 0.175 -0.947 -0.271 134 124 133 0 0
4.5915 12.6971 0.1216 -0.330 -0.651 -0.684 157 151 165 0 0
4.6441 12.7631 0.1211 0.147 -0.689 -0.709 156 149 162 0 0
4.8379 12.9847 0.1190 0.735 -0.548 -0.400 88 69 74 0 0
4.8786 9.5004 0.0816 0.587 -0.772 -0.244 11 16 36 0 0
4.9116 9.5247 0.0811 0.459 -0.829 -0.320 8 13 33 0 0
4.9341 9.5326 0.0807 0.720 -0.667 -0.190 7 13 35 0 0
5.0649 9.5463 0.0778 0.199 -0.916 -0.347 6 15 35 0 0
5.0854 9.5509 0.0774 0.199 -0.916 -0.347 6 16 37 0 0
5.1043 9.5532 0.0770 -0.012 -0.938 -0.346 4 18 41 0 0
5.1217 9.5531 0.0766 -0.012 -0.938 -0.346 6 31 56 0 0
-5.2588 11.0474 0.3121 0.784 -0.621 -0.020 101 53 31 0 0
-5.2337 11.0292 0.3113 0.443 -0.570 -0.692 97 52 31 0 0
-5.2049 11.0016 0.3104 -0.261 -0.809 -0.526 90 48 32 0 0
-5.1158 10.9121 0.3076 -0.189 -0.822 -0.536 49 31 26 0 0
-3.2436 8.3802 0.2425 0.908 -0.354 -0.224 32 32 35 0 0
-2.8326 7.7568 0.2276 0.116 -0.925 -0.362 34 30 36 0 0
-2.8209 7.7584 0.2274 0.116 -0.925 -0.362 57 49 55 0 0
-2.7533 7.8247 0.2264 0.146 -0.874 -0.463 161 160 158 0 0
-2.7416 7.8268 0.2262 0.090 -0.882 -0.463 155 154 153 0 0
-2.6818 8.1359 0.2275 -0.447 -0.870 -0.207 109 103 107 0 0
-2.6672 8.1289 0.2271 -0.435 -0.872 -0.226 124 117 123 0 0
-2.5468 7.9974 0.2231 -0.834 -0.463 0.299 138 136 139 0 0
-2.4658 7.8620 0.2201 0.617 -0.775 -0.136 146 141 147 0 0
-2.4567 7.8768 0.2200 -0.670 -0.723 -0.167 148 143 149 0 0
-2.4685 8.1029 0.2223 -0.772 -0.635 0.043 150 147 157 0 0
-2.4508 8.0804 0.2217 -0.784 -0.620 0.008 156 154 169 0 0
-2.3660 7.9806 0.2188 -0.360 -0.891 -0.277 63 51 62 0 0
-2.3193 8.0007 0.2179 -0.182 -0.965 -0.188 79 37 47 0 0
-2.0905 8.0040 0.2127 -0.242 -0.767 -0.594 120 65 73 0 0
-2.0770 7.9995 0.2123 0.048 -0.855 -0.517 123 71 79 0 0
-2.0638 7.9971 0.2120 -0.103 -0.859 -0.501 127 79 85 0 0
-1.8908 8.0404 0.2084 -0.431 -0.800 -0.418 166 159 131 0 0
-1.4660 10.5645 0.2205 -0.677 -0.691 0.254 159 159 167 0 0
-1.4280 10.5134 0.2192 -0.577 -0.660 0.481 156 156 166 0 0
-1.4116 10.5312 0.2190 -0.016 -0.653 0.758 158 158 168 0 0
-1.2474 9.9669 0.2103 0.936 -0.350 -0.019 123 122 138 0 0
-1.2286 9.9107 0.2094 -0.440 -0.896 0.051 130 129 143 0 0
-1.2120 9.9049 0.2089 -0.338 -0.941 0.005 137 139 152 0 0
-1.1287 9.8622 0.2066 -0.494 -0.869 0.026 153 156 171 0 0
-1.1123 9.8601 0.2062 -0.265 -0.964 0.031 156 159 174 0 0
-1.0965 9.8757 0.2060 0.595 -0.793 0.134 157 160 177 0 0
-0.4428 9.4200 0.1870 0.266 -0.963 0.033 180 179 197 0 0
-0.4271 9.4194 0.1866 0.049 -0.986 -0.162 171 168 185 0 0
-0.4115 9.4182 0.1863 0.123 -0.964 -0.237 187 186 202 0 0
-0.3957 9.4203 0.1859 0.123 -0.964 -0.237 201 200 218 0 0
-0.3798 9.4219 0.1856 0.038 -0.995 -0.095 182 183 201 0 0
-0.3101 9.5358 0.1849 0.021 -1.000 0.016 159 161 174 0 0
-0.2941 9.5361 0.1846 0.021 -1.000 0.016 146 146 158 0 0
-0.2791 9.5212 0.1841 -0.290 -0.952 0.097 156 155 163 0 0
-0.2645 9.5005 0.1836 -0.600 -0.800 -0.008 155 152 159 0 0
0.6568 10.1681 0.1681 0.559 -0.703 -0.439 236 236 238 0 0
0.6779 10.1919 0.1679 0.240 -0.873 -0.425 234 234 236 0 0
0.6961 10.1970 0.1675 0.240 -0.873 -0.425 216 223 233 0 0
0.7148 10.2047 0.1671 0.332 -0.856 -0.397 190 208 228 0 0
0.7326 10.2071 0.1667 0.579 -0.772 -0.262 192 216 242 0 0
1.1379 10.9579 0.1639 0.698 -0.706 -0.122 94 83 91 0 0
1.1612 10.9810 0.1636 0.698 -0.706 -0.122 94 84 92 0 0
1.1823 10.9922 0.1632 0.565 -0.806 -0.176 93 83 91 0 0
1.2043 11.0077 0.1628 0.565 -0.806 -0.176 91 80 88 0 0
1.2487 11.1360 0.1629 0.740 -0.608 -0.287 83 70 80 0 0
1.4152 11.2871 0.1604 -0.156 -0.926 -0.344 98 82 85 0 0
1.4341 11.2841 0.1599 -0.156 -0.926 -0.344 111 96 99 0 0
1.4718 11.2780 0.1590 -0.156 -0.926 -0.344 129 117 119 0 0
1.4691 11.1761 0.1582 -0.579 -0.748 -0.324 132 121 125 0 0
1.4857 11.1635 0.1577 -0.579 -0.748 -0.324 136 127 130 0 0
1.4978 11.1311 0.1571 -0.799 -0.569 -0.194 138 129 134 0 0
1.5102 11.1005 0.1566 -0.273 -0.856 -0.439 139 130 135 0 0
1.5351 11.1258 0.1562 -0.177 -0.944 -0.277 142 133 138 0 0
1.5534 11.1215 0.1557 -0.238 -0.923 -0.302 149 140 145 0 0
1.5710 11.1142 0.1553 -0.268 -0.913 -0.307 160 154 158 0 0
1.6604 11.0850 0.1530 0.254 -0.864 -0.434 201 201 209 0 0
1.9561 11.2577 0.1476 0.509 -0.790 -0.341 205 205 213 0 0
2.0423 11.3597 0.1465 0.837 -0.483 -0.256 168 167 173 0 0
2.1980 11.5635 0.1447 -0.619 -0.607 -0.499 169 167 172 0 0
2.1845 11.4429 0.1440 -0.496 -0.847 -0.193 169 167 170 0 0
2.2121 11.4698 0.1436 -0.455 -0.849 -0.269 166 165 170 0 0
2.2309 11.4652 0.1431 0.195 -0.847 -0.494 159 159 169 0 0
2.2567 11.4855 0.1427 -0.454 -0.711 -0.537 143 150 165 0 0
2.2738 11.4749 0.1422 -0.454 -0.711 -0.537 116 133 157 0 0
2.2948 11.4782 0.1418 -0.701 -0.601 -0.383 90 119 147 0 0
2.3107 11.4638 0.1413 -0.689 -0.597 -0.411 80 118 151 0 0
2.3387 11.4908 0.1409 -0.236 -0.673 -0.701 77 121 156 0 0
2.8339 12.2281 0.1358 0.001 -0.889 -0.458 115 118 126 0 0
2.8556 12.2284 0.1353 0.001 -0.889 -0.458 166 167 172 0 0
2.8772 12.2287 0.1348 0.001 -0.889 -0.458 208 209 214 0 0
2.8985 12.2276 0.1343 0.376 -0.806 -0.457 232 232 240 0 0
2.9244 12.2409 0.1339 0.479 -0.773 -0.416 239 239 249 0 0
3.1113 12.5443 0.1322 0.359 -0.824 -0.437 243 243 255 0 0
3.1322 12.5404 0.1317 0.093 -0.914 -0.395 240 238 251 0 0
3.1553 12.5430 0.1312 0.093 -0.914 -0.395 225 219 233 0 0
3.1758 12.5381 0.1306 0.514 -0.793 -0.326 186 182 199 0 0
3.3206 12.6355 0.1281 0.500 -0.815 -0.294 210 217 233 0 0
3.3736 12.6586 0.1271 0.427 -0.834 -0.350 189 196 211 0 0
3.4105 12.6997 0.1266 0.541 -0.784 -0.306 181 190 206 0 0
3.5419 12.8143 0.1246 0.655 -0.706 -0.269 185 191 204 0 0
3.6658 12.8411 0.1220 -0.476 -0.839 -0.264 205 203 206 0 0
3.7724 13.0670 0.1215 0.246 -0.751 -0.612 207 205 210 0 0
3.7240 12.8744 0.1209 0.336 -0.854 -0.397 210 208 214 0 0
3.7523 12.8887 0.1204 0.459 -0.819 -0.343 214 211 220 0 0
3.7840 12.9118 0.1199 0.479 -0.779 -0.404 216 214 223 0 0
3.8141 12.9306 0.1193 0.479 -0.779 -0.404 216 215 221 0 0
3.9463 13.1561 0.1182 0.119 -0.910 -0.397 207 203 208 0 0
4.2546 13.4588 0.1138 -0.828 -0.560 0.025 126 111 114 0 0
4.2568 13.4039 0.1132 0.403 -0.881 -0.248 115 100 106 0 0
4.2513 13.2704 0.1122 -0.318 -0.795 -0.517 110 97 106 0 0
4.2676 13.2520 0.1117 -0.379 -0.855 -0.353 116 103 112 0 0
4.3629 13.4281 0.1110 -0.267 -0.897 -0.353 120 109 117 0 0
4.3332 13.1801 0.1095 -0.131 -0.967 -0.220 132 122 131 0 0
4.3550 13.1757 0.1090 0.293 -0.919 -0.264 136 126 135 0 0
4.3824 13.1846 0.1084 0.293 -0.919 -0.264 140 130 139 0 0
4.4160 13.2085 0.1079 -0.147 -0.941 -0.306 143 133 144 0 0
4.4411 13.2118 0.1073 -0.541 -0.760 -0.361 143 135 146 0 0
4.5994 12.7164 0.0994 -0.330 -0.651 -0.684 157 151 164 0 0
4.8555 13.0250 0.0962 0.735 -0.548 -0.400 105 82 83 0 0
4.8493 12.9605 0.0957 0.332 -0.435 -0.837 99 71 68 0 0
4.8838 9.5096 0.0650 0.587 -0.772 -0.244 11 16 36 0 0
4.9169 9.5341 0.0645 0.459 -0.829 -0.320 8 13 33 0 0
5.0687 9.5532 0.0611 0.221 -0.920 -0.324 5 16 36 0 0
5.0894 9.5581 0.0607 0.199 -0.916 -0.347 6 17 39 0 0
5.1076 9.5593 0.0603 -0.012 -0.938 -0.346 5 19 43 0 0
5.1251 9.5594 0.0599 0.027 -0.937 -0.350 12 38 65 0 0
-5.2586 11.0467 0.2941 0.780 -0.625 0.028 99 53 30 0 0
-5.2306 11.0215 0.2933 0.486 -0.557 -0.673 97 52 31 0 0
-5.2108 11.0156 0.2928 -0.116 -0.804 -0.584 90 49 31 0 0
-5.1213 10.9250 0.2901 -0.160 -0.818 -0.552 50 30 24 0 0
-4.0242 9.8909 0.2575 -0.719 -0.548 0.428 56 53 53 0 0
-3.9132 9.7468 0.2540 -0.670 -0.551 0.497 119 110 108 0 0
-3.3543 8.5217 0.2326 -0.764 -0.630 0.141 114 109 105 0 0
-3.3258 8.4736 0.2316 -0.646 -0.746 -0.161 112 108 104 0 0
-2.8221 7.7622 0.2150 0.240 -0.882 -0.406 53 44 54 0 0
-2.7551 7.8310 0.2139 0.146 -0.874 -0.463 160 160 160 0 0
-2.7431 7.8322 0.2137 -0.248 -0.871 -0.424 155 152 153 0 0
-2.4577 7.8807 0.2074 -0.670 -0.723 -0.167 150 145 151 0 0
-2.4687 8.1033 0.2092 -0.756 -0.654 -0.029 153 150 160 0 0
-2.3839 8.0050 0.2065 -0.715 -0.688 -0.127 121 121 136 0 0
-2.3671 7.9851 0.2060 -0.360 -0.891 -0.277 59 47 58 0 0
-2.2594 7.8882 0.2028 -0.234 -0.698 0.676 84 38 49 0 0
-2.0923 8.0134 0.1998 -0.623 -0.559 -0.547 119 63 74 0 0
-2.0785 8.0072 0.1995 0.048 -0.855 -0.517 121 69 78 0 0
-2.0658 8.0081 0.1992 0.048 -0.855 -0.517 125 75 82 0 0
-1.8789 8.0463 0.1951 -0.467 -0.842 -0.271 164 159 129 0 0
-1.4831 10.5540 0.2032 -0.165 -0.955 0.248 164 164 172 0 0
-1.4661 10.5603 0.2029 -0.758 -0.637 0.138 160 160 168 0 0
-1.4274 10.4980 0.2015 -0.782 -0.591 0.198 156 156 164 0 0
-1.2478 9.9674 0.1937 0.936 -0.349 -0.051 120 122 137 0 0
-1.2289 9.9099 0.1929 -0.440 -0.896 0.051 129 131 144 0 0
-1.2123 9.9049 0.1925 -0.338 -0.941 0.005 136 138 151 0 0
-1.1289 9.8571 0.1902 -0.434 -0.901 0.005 154 157 172 0 0
-0.4432 9.4204 0.1713 0.249 -0.968 0.019 176 175 193 0 0
-0.4274 9.4214 0.1709 0.026 -0.998 -0.053 171 170 188 0 0
-0.3787 9.4507 0.1700 0.614 -0.784 -0.085 183 182 200 0 0
-0.3611 9.4841 0.1698 0.780 -0.580 -0.236 184 183 201 0 0
-0.3269 9.5278 0.1693 0.693 -0.622 -0.364 174 173 189 0 0
-0.3105 9.5355 0.1690 0.021 -1.000 0.016 154 154 166 0 0
-0.2945 9.5358 0.1686 0.021 -1.000 0.016 151 151 161 0 0
-0.2795 9.5198 0.1682 -0.290 -0.952 0.097 152 152 160 0 0
-0.2649 9.4994 0.1677 -0.504 -0.861 0.072 154 153 159 0 0
0.6556 10.1631 0.1510 0.598 -0.765 -0.240 237 236 241 0 0
0.6788 10.2004 0.1507 0.326 -0.881 -0.343 233 232 238 0 0
0.6975 10.2084 0.1503 0.321 -0.880 -0.350 214 221 231 0 0
0.7157 10.2130 0.1499 0.332 -0.856 -0.397 190 207 227 0 0
0.7761 10.2615 0.1488 0.636 -0.697 -0.332 185 203 227 0 0
1.1420 10.9820 0.1453 0.505 -0.850 -0.149 94 84 93 0 0
1.1675 11.0163 0.1450 0.457 -0.879 -0.136 91 84 92 0 0
1.1828 10.9971 0.1445 0.383 -0.920 -0.085 88 81 89 0 0
1.2372 11.1779 0.1445 0.331 -0.900 -0.284 86 76 85 0 0
1.2548 11.1693 0.1440 0.540 -0.813 -0.217 82 70 80 0 0
1.3956 11.2892 0.1416 -0.279 -0.893 -0.353 88 72 75 0 0
1.4152 11.2897 0.1411 -0.196 -0.904 -0.380 100 84 87 0 0
1.4337 11.2849 0.1406 0.435 -0.818 -0.376 113 98 103 0 0
1.4727 11.2847 0.1397 -0.105 -0.938 -0.331 129 117 121 0 0
1.4696 11.1810 0.1391 -0.518 -0.811 -0.272 132 121 125 0 0
1.4985 11.1367 0.1381 -0.799 -0.569 -0.194 138 129 132 0 0
1.5343 11.1246 0.1372 -0.199 -0.946 -0.256 143 134 139 0 0
1.5534 11.1238 0.1368 -0.063 -0.945 -0.320 146 140 144 0 0
1.5718 11.1201 0.1363 -0.237 -0.926 -0.295 161 155 159 0 0
1.7069 11.2010 0.1337 0.046 -0.990 -0.130 203 202 210 0 0
1.8649 11.2097 0.1301 0.547 -0.767 -0.335 214 214 226 0 0
2.0447 11.3707 0.1271 0.851 -0.478 -0.218 172 169 176 0 0
2.1078 11.4571 0.1262 0.686 -0.620 0.381 169 167 172 0 0
2.1831 11.5119 0.1248 -0.759 -0.615 -0.216 169 167 170 0 0
2.1858 11.4496 0.1244 -0.076 -0.962 -0.261 169 167 170 0 0
2.2425 11.5084 0.1234 -0.517 -0.809 -0.280 162 159 170 0 0
2.2599 11.4988 0.1230 -0.547 -0.780 -0.305 144 147 165 0 0
2.2783 11.4930 0.1225 -0.348 -0.881 -0.319 114 130 158 0 0
2.3000 11.4984 0.1220 -0.233 -0.917 -0.323 90 120 150 0 0
2.3251 11.5156 0.1216 0.133 -0.896 -0.425 81 116 150 0 0
2.4499 11.8029 0.1207 0.024 -0.510 0.860 67 118 149 0 0
2.4870 11.8585 0.1202 0.535 -0.556 0.636 64 118 152 0 0
2.4627 11.7066 0.1197 -0.707 -0.549 -0.446 63 119 156 0 0
2.4499 11.4610 0.1183 0.804 -0.519 -0.291 69 121 160 0 0
2.8365 12.2385 0.1147 -0.101 -0.912 -0.396 124 128 137 0 0
2.8575 12.2366 0.1142 -0.134 -0.904 -0.407 173 174 182 0 0
2.8788 12.2356 0.1137 -0.011 -0.905 -0.426 213 212 220 0 0
2.9014 12.2388 0.1132 0.474 -0.779 -0.410 236 234 245 0 0
2.9398 12.2908 0.1127 0.765 -0.578 -0.285 240 240 252 0 0
3.1151 12.5580 0.1105 0.406 -0.809 -0.425 239 241 253 0 0
3.1333 12.5460 0.1099 -0.216 -0.922 -0.323 234 236 248 0 0
3.1561 12.5477 0.1094 0.366 -0.846 -0.388 219 217 231 0 0
3.1792 12.5501 0.1089 0.506 -0.793 -0.339 179 176 196 0 0
3.2069 12.5665 0.1084 0.791 -0.561 -0.245 94 97 124 0 0
3.4135 12.7103 0.1046 0.541 -0.784 -0.306 181 195 220 0 0
3.6148 12.7662 0.1003 -0.458 -0.860 -0.226 199 197 202 0 0
3.6391 12.7705 0.0998 -0.333 -0.901 -0.277 206 201 207 0 0
3.7193 12.9258 0.0990 -0.536 -0.822 -0.192 208 205 211 0 0
3.7780 12.8980 0.0974 0.831 -0.531 -0.164 215 214 222 0 0
3.8880 13.1282 0.0965 0.212 -0.928 -0.307 214 213 221 0 0
3.9294 13.1757 0.0958 0.353 -0.909 -0.223 212 209 216 0 0
3.9490 13.1652 0.0953 0.061 -0.947 -0.316 207 202 209 0 0
3.9530 12.9933 0.0940 0.153 -0.912 -0.381 183 172 178 0 0
4.2504 13.4504 0.0903 -0.789 -0.614 -0.003 125 109 114 0 0
4.2715 13.2637 0.0885 -0.516 -0.781 -0.351 116 103 112 0 0
4.2904 13.2515 0.0880 -0.516 -0.781 -0.351 121 108 117 0 0
4.3837 13.4222 0.0870 0.300 -0.870 -0.391 124 113 121 0 0
4.3473 13.1591 0.0860 0.077 -0.971 -0.225 136 125 134 0 0
4.3885 13.2014 0.0854 0.445 -0.864 -0.235 138 128 139 0 0
4.4085 13.1924 0.0849 -0.006 -0.971 -0.238 141 132 144 0 0
4.3656 12.7601 0.0829 0.760 -0.603 -0.240 152 146 159 0 0
4.8475 9.4811 0.0491 -0.605 -0.748 -0.274 12 17 38 0 0
4.8890 9.5188 0.0484 0.587 -0.772 -0.244 10 16 38 0 0
4.9233 9.5450 0.0478 0.587 -0.772 -0.244 7 15 33 0 0
5.0729 9.5607 0.0444 0.199 -0.916 -0.347 5 17 40 0 0
5.1109 9.5654 0.0436 -0.012 -0.938 -0.346 6 20 45 0 0
5.1286 9.5657 0.0432 0.027 -0.937 -0.350 20 47 75 0 0
-5.2617 11.0538 0.2762 0.656 -0.750 -0.081 98 53 32 0 0
-5.2481 11.0628 0.2760 -0.032 -0.684 -0.729 95 53 31 0 0
-5.2167 11.0293 0.2751 -0.116 -0.804 -0.584 90 49 29 0 0
-5.1268 10.9380 0.2725 -0.108 -0.819 -0.564 52 31 25 0 0
-5.1089 10.9364 0.2721 0.548 -0.593 -0.590 37 25 23 0 0
-4.0187 9.8745 0.2412 -0.756 -0.542 0.367 42 41 42 0 0
-3.9878 9.8298 0.2403 -0.719 -0.548 0.428 56 53 53 0 0
-3.7085 9.4941 0.2321 -0.502 -0.472 0.724 120 113 107 0 0
-3.3157 8.6565 0.2186 -0.158 -0.959 -0.237 23 24 28 0 0
-3.2994 8.6478 0.2182 -0.475 -0.829 -0.295 22 23 27 0 0
-2.8238 7.7680 0.2026 0.071 -0.900 -0.430 51 44 54 0 0
-2.7288 8.1685 0.2025 -0.576 -0.798 -0.178 78 81 86 0 0
-2.6476 8.2069 0.2008 -0.580 -0.800 -0.154 135 132 137 0 0
-2.6687 8.4081 0.2023 0.856 -0.500 -0.129 140 134 138 0 0
-2.4587 7.8844 0.1947 -0.613 -0.785 -0.087 150 143 150 0 0
-2.4655 8.0877 0.1959 -0.613 -0.787 -0.069 153 151 161 0 0
-2.3673 7.9853 0.1931 -0.563 -0.766 -0.310 58 46 57 0 0
-2.2345 7.8880 0.1895 0.058 -0.889 0.454 86 38 50 0 0
-2.0897 7.9968 0.1867 -0.655 -0.546 -0.522 118 62 75 0 0
-2.0827 8.0313 0.1867 -0.419 -0.722 -0.551 122 67 79 0 0
-2.0673 8.0158 0.1863 0.048 -0.855 -0.517 124 74 82 0 0
-1.8804 8.0550 0.1821 -0.563 -0.771 -0.298 160 157 126 0 0
-1.8451 8.1790 0.1819 0.554 -0.579 0.598 90 78 52 0 0
-1.4943 10.2021 0.1841 -0.693 -0.720 -0.032 169 167 180 0 0
-1.4820 10.5310 0.1855 0.099 -0.933 0.346 164 164 174 0 0
-1.4644 10.5277 0.1851 -0.473 -0.825 0.308 161 161 169 0 0
-1.4463 10.5171 0.1846 -0.716 -0.671 0.195 157 157 165 0 0
-1.4274 10.4921 0.1840 -0.782 -0.591 0.198 156 156 164 0 0
-1.2313 9.9605 0.1767 -0.763 -0.645 -0.046 130 132 145 0 0
-1.2126 9.9050 0.1760 -0.338 -0.941 0.005 137 139 152 0 0
-1.1951 9.8738 0.1754 0.075 -0.994 -0.079 143 146 161 0 0
-1.1293 9.8593 0.1738 -0.501 -0.864 0.055 153 156 171 0 0
-1.0969 9.8698 0.1731 0.595 -0.793 0.134 156 159 176 0 0
-1.0810 9.8835 0.1728 0.612 -0.771 0.175 156 159 176 0 0
-0.4705 9.1588 0.1549 0.179 -0.904 -0.388 173 172 190 0 0
-0.4436 9.4192 0.1556 0.355 -0.930 -0.094 170 169 187 0 0
-0.4277 9.4222 0.1552 0.026 -0.998 -0.053 176 175 193 0 0
-0.3951 9.4450 0.1546 0.636 -0.745 -0.202 184 183 201 0 0
-0.3109 9.5353 0.1531 -0.210 -0.977 0.034 152 152 164 0 0
-0.2951 9.5319 0.1527 -0.210 -0.977 0.034 152 152 162 0 0
-0.2804 9.5127 0.1523 -0.391 -0.914 0.108 153 153 161 0 0
-0.2646 9.5096 0.1519 -0.173 -0.971 -0.165 155 154 160 0 0
0.6188 10.1523 0.1346 0.618 -0.710 -0.338 240 238 239 0 0
0.6626 10.2111 0.1339 0.129 -0.908 -0.399 235 234 239 0 0
0.6796 10.2085 0.1334 0.126 -0.926 -0.356 229 229 237 0 0
0.6975 10.2111 0.1330 0.126 -0.926 -0.356 212 218 230 0 0
0.7351 10.2280 0.1323 0.483 -0.843 -0.238 185 209 233 0 0
1.1994 11.0853 0.1258 0.365 -0.822 -0.437 87 80 88 0 0
1.2189 11.0873 0.1254 -0.016 -0.922 -0.388 83 76 84 0 0
1.2565 11.1805 0.1250 0.450 -0.787 -0.422 81 69 79 0 0
1.3964 11.2956 0.1223 -0.306 -0.888 -0.343 89 73 76 0 0
1.4163 11.2976 0.1218 -0.196 -0.904 -0.380 101 85 88 0 0
1.4343 11.2901 0.1214 0.559 -0.739 -0.376 115 100 104 0 0
1.4577 11.3083 0.1209 0.669 -0.669 -0.325 124 112 116 0 0
1.4748 11.2967 0.1205 -0.177 -0.915 -0.362 130 117 124 0 0
1.4710 11.1898 0.1200 -0.634 -0.740 -0.224 132 121 127 0 0
1.4992 11.1422 0.1191 -0.799 -0.569 -0.194 138 129 132 0 0
1.5349 11.1296 0.1182 -0.199 -0.946 -0.256 144 135 140 0 0
1.5536 11.1271 0.1178 -0.163 -0.952 -0.258 149 143 147 0 0
1.5726 11.1259 0.1173 -0.237 -0.926 -0.295 164 158 162 0 0
1.5899 11.1173 0.1169 -0.500 -0.827 -0.257 183 178 184 0 0
1.6522 11.1363 0.1155 0.630 -0.745 -0.220 201 200 206 0 0
1.7836 11.1204 0.1124 0.461 -0.818 -0.342 202 202 214 0 0
1.8061 11.1333 0.1119 0.461 -0.818 -0.342 208 208 220 0 0
1.8661 11.2166 0.1110 0.384 -0.810 -0.443 211 211 223 0 0
2.1141 11.4823 0.1065 0.684 -0.729 0.028 171 169 174 0 0
2.1493 11.5378 0.1060 -0.487 -0.739 0.465 172 170 175 0 0
2.1664 11.4538 0.1052 0.118 -0.975 -0.188 169 167 170 0 0
2.1865 11.4541 0.1047 -0.209 -0.951 -0.226 167 165 168 0 0
2.2418 11.5081 0.1037 -0.112 -0.961 -0.252 161 158 169 0 0
2.2613 11.5059 0.1032 -0.112 -0.961 -0.252 142 145 163 0 0
2.2808 11.5038 0.1028 -0.112 -0.961 -0.252 108 126 156 0 0
2.3039 11.5141 0.1023 0.004 -0.967 -0.253 89 118 154 0 0
2.4372 11.7620 0.1004 -0.159 -0.505 0.848 66 118 149 0 0
2.4657 11.7190 0.0995 -0.707 -0.549 -0.446 62 120 157 0 0
2.3616 11.3026 0.0998 0.641 -0.762 -0.095 61 119 157 0 0
2.4105 11.3989 0.0992 0.860 -0.503 -0.080 65 118 158 0 0
2.4491 11.4604 0.0986 0.858 -0.497 -0.132 70 122 161 0 0
2.8132 12.2352 0.0941 0.488 -0.786 -0.380 95 98 113 0 0
