ply
format ascii 1.0
element vertex 822
property float x
property float y
property float z
property float nx
property float ny
property float nz
property uchar diffuse_red
property uchar diffuse_green
property uchar diffuse_blue
property uchar class
property uchar detection
end_header
-0.7199 10.1503 -1.7980 -0.857 -0.339 -0.388 153 150 164 180 176
-0.7118 10.1162 -1.7909 0.159 -0.956 -0.245 143 141 152 64 7
-0.6960 10.1141 -1.7917 0.180 -0.854 -0.489 155 152 163 21 87
0.0739 8.6403 -1.5188 -0.890 -0.378 -0.256 109 85 79 0 87
0.0786 8.6154 -1.5135 -0.958 -0.268 -0.101 79 68 61 0 8
0.0845 8.5936 -1.5091 -0.994 -0.106 0.011 82 76 75 0 66
0.0878 8.5655 -1.5029 -0.994 -0.109 0.032 109 105 106 0 127
0.1011 8.3189 -1.4478 -0.997 0.054 0.048 74 74 73 127 127
-0.1043 7.5896 -1.2649 -0.205 -0.897 -0.392 44 30 30 0 127
-0.0020 7.7033 -1.2991 0.220 -0.942 -0.254 85 85 85 255 13
0.0134 7.7083 -1.3015 0.299 -0.933 -0.199 134 136 135 255 87
0.0249 7.7046 -1.3016 0.351 -0.899 -0.262 56 58 57 255 8
0.0412 7.7115 -1.3045 0.084 -0.965 -0.248 117 117 117 255 66
0.0553 7.7134 -1.3061 0.079 -0.948 -0.307 140 139 139 255 127
0.0558 7.6285 -1.2868 -0.035 -0.978 -0.204 132 128 128 214 64
0.0688 7.6283 -1.2878 -0.035 -0.978 -0.204 152 148 147 51 14
0.1274 7.6412 -1.2956 0.024 -0.998 -0.063 109 107 108 0 127
0.1671 7.6414 -1.2989 0.021 -0.999 -0.038 124 121 122 0 184
0.1803 7.6414 -1.2999 -0.047 -0.969 -0.241 99 96 97 0 14
0.2206 7.6426 -1.3035 0.134 -0.989 -0.064 105 104 100 0 66
0.2318 7.6385 -1.3035 -0.379 -0.906 -0.188 131 130 126 32 127
0.2719 7.6388 -1.3068 -0.235 -0.965 -0.114 134 132 130 215 48
0.2997 7.6411 -1.3096 -0.030 -0.998 0.055 34 29 28 22 87
0.3086 7.6322 -1.3083 -0.237 -0.969 0.066 41 36 36 161 8
0.3213 7.6310 -1.3091 -0.166 -0.973 0.160 77 73 72 63 66
0.3332 7.6280 -1.3094 -0.021 -0.859 0.512 118 113 112 0 127
0.3976 7.6756 -1.3255 -0.516 -0.856 0.030 44 38 40 4 48
0.4233 7.6469 -1.3210 -0.164 -0.975 0.149 58 53 54 0 8
0.4961 7.6567 -1.3292 -0.253 -0.943 -0.215 55 50 50 214 168
0.5097 7.6567 -1.3303 -0.456 -0.869 -0.195 78 72 72 51 16
0.5837 7.6174 -1.3274 -0.407 -0.867 -0.288 72 66 66 0 32
0.5957 7.6144 -1.3277 -0.193 -0.934 -0.302 75 69 69 0 17
0.6039 7.6046 -1.3261 -0.073 -0.993 -0.091 72 68 67 0 87
0.6166 7.6030 -1.3268 0.172 -0.967 -0.188 84 81 80 0 8
0.6322 7.6066 -1.3289 -0.163 -0.963 -0.215 99 96 94 0 66
2.0913 9.3496 -1.8452 -0.812 -0.169 0.558 118 110 104 0 0
2.1081 9.3478 -1.8461 -0.320 -0.513 0.796 120 111 104 0 19
2.1315 9.3278 -1.8435 0.395 -0.848 0.353 116 104 96 0 8
2.1517 9.3314 -1.8460 0.355 -0.824 0.442 109 96 87 16 66
2.1640 9.3224 -1.8449 0.289 -0.802 0.522 98 86 77 0 127
2.3209 9.2584 -1.8431 0.571 -0.784 0.243 108 85 80 0 240
2.4209 9.3008 -1.8610 -0.171 -0.464 0.869 97 68 65 0 66
2.4360 9.2960 -1.8611 -0.152 -0.482 0.863 111 83 79 0 127
2.4820 9.2560 -1.8558 0.031 -0.378 0.925 100 89 78 51 20
2.4962 9.2500 -1.8555 0.304 -0.493 0.815 96 85 74 22 87
2.5675 9.1946 -1.8487 0.065 -0.793 0.606 116 106 91 0 224
2.5924 9.2044 -1.8530 0.330 -0.842 0.427 115 105 91 0 20
3.2356 9.3963 -1.9493 0.092 -0.447 0.890 92 84 74 63 66
3.2561 9.3980 -1.9513 0.233 -0.492 0.839 79 77 65 0 127
4.9708 10.7344 -2.3958 0.089 -0.914 -0.396 90 65 55 63 66
5.0098 10.7534 -2.4033 0.070 -0.774 -0.629 95 67 55 0 127
4.2927 9.7910 -2.1255 -0.021 -0.942 0.335 110 78 57 2 24
5.3399 10.6216 -2.4002 0.348 -0.546 0.762 123 81 64 0 144
5.3721 10.6315 -2.4051 -0.032 -0.240 0.970 123 81 64 32 25
-2.9160 8.6354 -1.2857 -0.651 -0.757 -0.058 130 129 130 9 208
-2.8923 8.6647 -1.2943 0.101 -0.941 -0.324 116 114 115 22 87
-2.8804 8.6872 -1.3005 0.776 -0.597 -0.202 114 112 113 161 8
-2.8684 8.7132 -1.3074 0.490 -0.857 -0.161 112 110 113 63 66
-1.8336 9.8597 -1.6555 0.227 -0.920 0.320 99 49 58 0 66
-1.9588 7.6264 -1.1327 0.739 -0.672 0.049 106 63 72 32 42
-1.4922 9.3036 -1.5559 -0.258 -0.689 -0.678 93 59 63 0 43
-1.4779 9.3038 -1.5572 -0.454 -0.637 -0.623 86 57 59 0 87
-1.4645 9.2984 -1.5570 -0.093 -0.763 -0.640 87 64 61 0 8
-1.3919 9.3038 -1.5642 -0.213 -0.776 -0.593 86 83 67 19 96
-1.3789 9.2965 -1.5636 -0.079 -0.695 -0.715 87 82 63 52 44
-1.3646 9.2959 -1.5646 -0.079 -0.695 -0.715 90 82 63 22 87
-1.3574 9.2581 -1.5566 -0.736 -0.369 -0.568 97 86 64 161 8
-1.3478 9.2333 -1.5517 -0.717 -0.404 -0.568 104 92 65 63 66
-1.3330 9.2359 -1.5535 -0.287 -0.739 -0.609 112 98 69 0 127
-0.9272 9.8136 -1.7194 -0.999 0.047 0.025 153 156 165 0 200
-0.7170 10.1633 -1.8169 -0.872 -0.346 -0.347 150 146 160 21 64
-0.7115 10.1188 -1.8071 0.273 -0.945 -0.182 142 137 149 52 46
-0.6937 10.1245 -1.8099 0.273 -0.945 -0.182 151 148 159 22 87
-0.2954 10.2454 -1.8703 0.841 -0.464 -0.278 96 47 30 0 48
0.0688 8.6654 -1.5376 -0.956 -0.290 -0.052 88 47 40 52 51
0.0846 8.6679 -1.5395 -0.995 0.057 0.088 120 94 89 22 87
0.0793 8.6180 -1.5276 -0.987 -0.160 0.015 109 96 90 161 8
0.0851 8.5960 -1.5231 -0.998 -0.066 0.025 80 71 71 63 66
0.0874 8.5656 -1.5163 -0.994 -0.106 0.011 92 88 89 0 127
0.1012 8.4227 -1.4846 -0.998 -0.063 -0.026 103 98 97 0 87
0.1023 8.3566 -1.4695 -1.000 -0.013 -0.014 113 112 112 0 66
0.1043 8.3275 -1.4630 -0.999 -0.032 0.018 69 67 68 0 127
-0.1023 7.5949 -1.2779 -0.205 -0.897 -0.392 41 27 27 0 127
0.0012 7.7113 -1.3131 0.021 -0.999 -0.027 85 84 84 0 52
0.0165 7.7160 -1.3155 0.065 -0.998 -0.027 136 136 136 0 87
0.0301 7.7171 -1.3168 0.178 -0.977 -0.113 89 90 89 0 8
0.0437 7.7178 -1.3181 0.065 -0.998 -0.027 130 129 129 0 66
0.0573 7.7188 -1.3195 0.065 -0.998 -0.027 133 130 131 1 127
0.0696 7.6309 -1.3003 -0.035 -0.978 -0.204 154 150 149 52 53
0.1273 7.6420 -1.3076 0.081 -0.992 -0.091 110 108 109 0 127
0.1669 7.6420 -1.3108 -0.078 -0.995 0.059 130 128 129 8 208
0.1828 7.6475 -1.3134 -0.035 -0.987 -0.156 111 109 110 0 53
0.2206 7.6436 -1.3156 0.116 -0.993 0.022 121 121 117 128 66
0.2722 7.6404 -1.3191 -0.291 -0.946 -0.145 129 126 124 40 72
0.2848 7.6388 -1.3198 0.047 -0.992 -0.121 81 76 76 52 54
0.2960 7.6345 -1.3197 -0.237 -0.969 0.066 53 48 48 22 87
0.3078 7.6316 -1.3200 -0.237 -0.969 0.066 70 65 65 161 8
0.3200 7.6293 -1.3205 -0.166 -0.973 0.160 97 92 91 63 66
0.3309 7.6244 -1.3203 -0.013 -0.930 0.368 117 112 111 0 127
0.4231 7.6472 -1.3331 -0.293 -0.956 0.002 29 23 25 0 8
0.4924 7.6506 -1.3395 -0.477 -0.780 -0.405 66 60 60 44 56
0.5852 7.6210 -1.3404 -0.407 -0.867 -0.288 57 51 51 0 176
0.5977 7.6190 -1.3410 -0.264 -0.920 -0.289 70 64 64 0 55
0.6095 7.6157 -1.3412 -0.264 -0.920 -0.289 82 77 77 0 87
0.6189 7.6080 -1.3402 0.074 -0.956 -0.283 101 97 96 4 8
2.1184 9.3078 -1.8534 0.227 -0.456 0.860 109 96 88 0 8
2.1486 9.2989 -1.8538 0.242 -0.512 0.824 90 76 67 2 127
2.3366 9.2838 -1.8658 0.323 -0.856 0.403 99 68 66 0 128
2.3956 9.2909 -1.8723 -0.024 -0.459 0.888 89 58 56 4 8
2.5042 9.2093 -1.8625 -0.162 -0.224 0.961 87 77 65 63 66
2.5597 9.1843 -1.8613 0.065 -0.793 0.606 98 89 74 0 112
2.5833 9.1922 -1.8650 0.380 -0.811 0.445 97 88 74 32 59
2.6008 9.1913 -1.8662 0.472 -0.765 0.438 97 88 75 0 87
3.0413 9.3154 -1.9309 0.432 -0.679 0.594 121 128 112 0 127
3.2302 9.2645 -1.9347 -0.296 -0.198 0.935 50 84 63 0 61
5.3418 10.5985 -2.4143 -0.018 -0.292 0.956 121 79 63 0 64
5.3597 10.5923 -2.4143 -0.074 -0.272 0.959 121 79 63 1 87
5.1706 9.8142 -2.2202 0.319 -0.945 -0.076 124 88 69 52 66
5.2005 9.8225 -2.2246 -0.215 -0.817 -0.535 125 88 69 22 87
-3.0067 8.4312 -1.2431 0.777 -0.575 -0.258 19 18 25 0 232
-2.9955 8.4485 -1.2480 0.777 -0.575 -0.258 26 24 30 2 75
-2.9160 8.6363 -1.2980 -0.651 -0.757 -0.058 129 127 128 129 96
-2.9040 8.6283 -1.2971 0.142 -0.916 -0.375 120 120 120 52 76
-2.8923 8.6650 -1.3066 0.347 -0.918 -0.193 116 114 115 22 87
-2.8804 8.7007 -1.3158 0.502 -0.841 -0.202 114 112 113 161 8
-2.8684 8.7215 -1.3216 0.522 -0.839 -0.155 113 111 114 63 66
-2.6363 8.0245 -1.1797 -0.956 -0.290 0.054 116 114 117 0 77
-1.5047 9.3151 -1.5714 -0.011 -0.805 -0.593 103 64 69 8 0
-1.4895 9.3202 -1.5738 -0.258 -0.689 -0.678 95 60 64 0 83
-1.4764 9.3132 -1.5733 -0.239 -0.699 -0.674 87 58 58 16 87
-1.3905 9.3124 -1.5802 -0.248 -0.666 -0.704 87 84 69 136 120
-1.3644 9.2980 -1.5790 -0.483 -0.590 -0.647 89 81 63 22 87
-1.3532 9.2811 -1.5761 -0.627 -0.485 -0.610 95 84 62 161 8
-1.3442 9.2530 -1.5703 -0.684 -0.451 -0.573 102 90 64 63 66
-1.3306 9.2490 -1.5705 -0.287 -0.739 -0.609 110 96 68 0 127
-0.6920 10.1325 -1.8275 0.439 -0.896 -0.064 150 145 157 22 87
-0.6733 10.1419 -1.8312 0.429 -0.862 -0.269 153 148 160 161 8
-0.2031 10.9488 -2.0565 -0.107 -0.421 0.901 92 48 36 22 87
0.5204 10.9539 -2.1174 -0.454 -0.471 0.756 106 55 36 0 88
0.0706 8.6710 -1.5526 -0.961 -0.227 0.156 81 38 32 52 90
0.0827 8.6274 -1.5435 -0.995 0.007 0.102 121 106 100 161 8
0.0846 8.5957 -1.5364 -0.997 -0.060 0.048 100 90 90 63 66
0.0872 8.5661 -1.5297 -0.994 -0.106 0.011 84 80 81 0 127
0.0955 8.4797 -1.5105 -0.991 -0.135 0.005 104 98 102 0 128
0.0997 8.4548 -1.5050 -0.998 -0.063 -0.026 62 56 58 2 90
0.1005 8.4220 -1.4975 -0.996 -0.039 -0.075 81 75 75 0 87
0.1020 8.3568 -1.4826 -0.996 -0.039 -0.075 112 110 111 0 66
0.1027 8.3247 -1.4752 -0.996 -0.039 -0.075 60 57 58 0 127
0.0023 7.8960 -1.3678 -0.984 0.172 -0.042 58 42 42 161 8
-0.1004 7.6001 -1.2910 -0.205 -0.897 -0.392 38 24 24 0 127
0.0016 7.7132 -1.3255 0.277 -0.961 0.000 78 76 77 0 91
0.0189 7.7223 -1.3290 0.004 -0.999 -0.051 137 137 137 0 87
0.0321 7.7224 -1.3302 0.004 -0.999 -0.051 121 121 121 0 8
0.0434 7.7182 -1.3301 0.065 -0.998 -0.027 127 125 126 0 66
0.0567 7.7182 -1.3312 0.193 -0.978 0.074 132 128 129 0 127
0.0985 7.6375 -1.3160 -0.118 -0.974 0.192 79 76 77 161 8
0.1266 7.6413 -1.3192 0.090 -0.991 0.096 119 115 116 0 127
0.1786 7.6396 -1.3231 -0.040 -0.951 0.307 123 119 119 0 92
0.2035 7.6365 -1.3245 -0.013 -0.939 0.343 75 69 69 0 8
0.2234 7.6502 -1.3293 0.131 -0.971 -0.202 131 125 124 0 66
0.2310 7.6385 -1.3272 -0.382 -0.924 0.029 139 133 132 2 127
0.2727 7.6421 -1.3315 -0.291 -0.946 -0.145 112 104 104 192 216
0.2851 7.6403 -1.3321 0.047 -0.992 -0.121 64 56 56 52 92
0.2952 7.6339 -1.3314 -0.237 -0.969 0.066 75 67 67 22 87
0.3071 7.6310 -1.3317 -0.237 -0.969 0.066 95 87 87 161 8
0.3190 7.6280 -1.3320 -0.237 -0.969 0.066 96 88 89 63 66
0.3284 7.6203 -1.3310 -0.046 -0.931 0.363 91 83 84 0 127
0.3926 7.6675 -1.3473 -0.773 -0.621 -0.124 54 47 49 0 80
0.4216 7.6453 -1.3445 -0.246 -0.919 -0.307 42 37 39 4 8
0.4394 7.6536 -1.3479 0.244 -0.919 -0.310 38 34 35 0 66
0.4940 7.6545 -1.3526 -0.579 -0.805 -0.129 82 78 78 193 200
0.5867 7.6246 -1.3534 -0.407 -0.867 -0.288 22 17 16 0 64
0.5913 7.6082 -1.3500 0.075 -0.957 -0.281 32 27 26 32 94
0.6058 7.6098 -1.3515 0.075 -0.957 -0.281 59 53 53 0 87
0.6209 7.6126 -1.3534 0.067 -0.927 -0.369 96 90 90 0 8
2.1234 9.2882 -1.8648 0.233 -0.496 0.837 94 84 74 64 66
2.1369 9.2814 -1.8643 0.126 -0.566 0.815 86 76 66 0 127
2.3304 9.2753 -1.8789 0.323 -0.856 0.403 99 69 67 0 152
2.3487 9.2758 -1.8805 0.353 -0.786 0.508 112 85 82 1 97
2.3912 9.2853 -1.8862 0.203 -0.653 0.730 105 76 73 2 8
2.5845 9.1689 -1.8753 0.302 -0.712 0.633 82 75 63 0 87
2.6071 9.1753 -1.8786 0.153 -0.825 0.545 91 84 72 32 8
2.6330 9.1864 -1.8833 -0.477 -0.627 0.616 96 89 78 0 66
2.6468 9.1800 -1.8830 -0.484 -0.633 0.605 102 95 84 64 127
2.7277 9.1911 -1.8922 0.224 -0.954 0.200 136 135 123 52 99
3.1555 9.3684 -1.9685 0.050 -0.604 0.795 103 99 86 52 99
3.1747 9.3684 -1.9701 0.081 -0.614 0.785 96 97 83 22 87
-3.0067 8.4373 -1.2562 0.779 -0.570 -0.262 18 17 24 0 136
-2.9956 8.4549 -1.2613 0.779 -0.570 -0.262 28 26 31 0 114
-2.9159 8.6373 -1.3103 -0.651 -0.757 -0.058 127 126 126 14 0
-2.8923 8.6694 -1.3198 0.317 -0.936 -0.151 115 113 114 22 87
-2.8804 8.7063 -1.3293 0.173 -0.984 -0.039 113 111 113 161 8
-2.8684 8.7238 -1.3344 0.522 -0.839 -0.155 112 110 113 63 66
-2.6366 8.0180 -1.1894 -0.902 -0.312 0.297 115 114 116 0 116
-2.5368 8.4917 -1.3079 -0.706 -0.693 -0.145 133 131 137 19 224
-2.5155 8.4358 -1.2967 -0.942 -0.319 -0.107 116 107 114 22 87
-2.4957 8.3592 -1.2805 -0.951 -0.286 -0.116 85 61 69 63 66
-1.9581 8.7206 -1.4093 -0.109 -0.515 0.850 99 52 60 16 127
-1.4870 9.3356 -1.5915 -0.286 -0.700 -0.655 97 62 66 0 121
-1.3504 9.2969 -1.5938 -0.712 -0.465 -0.526 93 84 63 161 8
-1.3419 9.2662 -1.5874 -0.611 -0.553 -0.566 100 88 63 63 66
-1.3285 9.2613 -1.5874 -0.629 -0.560 -0.540 107 93 66 0 127
-0.6911 10.1375 -1.8443 0.448 -0.894 -0.020 148 142 154 22 87
0.5358 10.9452 -2.1342 -0.314 -0.405 0.859 108 59 39 0 87
0.0705 8.7089 -1.5749 -0.974 -0.061 0.216 96 44 35 53 168
0.0708 8.6723 -1.5664 -0.932 -0.146 0.331 78 33 27 53 128
0.0813 8.6249 -1.5563 -0.996 0.006 0.094 121 102 98 161 8
0.0840 8.5952 -1.5496 -0.997 -0.060 0.048 119 107 107 63 66
0.0870 8.5665 -1.5432 -0.994 -0.106 0.011 93 87 88 0 127
0.0954 8.4803 -1.5238 -0.991 -0.135 0.005 115 110 112 16 32
0.0982 8.4521 -1.5175 -0.996 -0.094 0.008 89 83 85 32 129
0.1017 8.4258 -1.5116 -0.998 -0.022 -0.060 62 56 56 0 87
0.1023 8.3927 -1.5040 -0.999 -0.016 -0.036 89 85 84 128 8
0.1026 8.3591 -1.4962 -0.999 -0.016 -0.036 109 106 106 0 66
0.1026 8.3253 -1.4883 -0.998 -0.022 -0.060 56 51 52 1 127
0.0010 7.8938 -1.3794 -0.985 0.172 -0.001 53 37 37 161 8
-0.0985 7.6053 -1.3040 -0.288 -0.848 -0.444 35 21 21 0 127
-0.0104 7.7164 -1.3372 -0.833 -0.497 0.243 18 11 13 0 16
0.0019 7.7147 -1.3378 0.144 -0.974 0.175 64 60 61 0 130
0.0159 7.7165 -1.3394 0.144 -0.974 0.175 130 128 129 32 87
0.0320 7.7230 -1.3422 0.004 -0.999 -0.051 134 132 133 64 8
0.0425 7.7170 -1.3417 0.123 -0.992 0.003 109 106 107 0 66
0.0554 7.7163 -1.3426 0.249 -0.955 0.159 130 125 127 0 127
0.1269 7.6428 -1.3315 -0.075 -0.997 -0.016 122 116 118 0 127
0.1987 7.6548 -1.3402 0.007 -0.942 -0.335 109 100 100 16 87
0.2204 7.6449 -1.3397 0.134 -0.989 -0.064 113 102 104 64 66
0.2318 7.6409 -1.3397 -0.401 -0.903 -0.153 116 105 107 128 127
0.2731 7.6439 -1.3438 -0.291 -0.946 -0.145 100 89 90 62 120
0.2849 7.6407 -1.3441 -0.138 -0.984 -0.112 52 40 42 53 131
0.2963 7.6368 -1.3441 -0.291 -0.946 -0.145 70 60 61 22 87
0.3072 7.6321 -1.3439 -0.407 -0.902 -0.144 78 68 69 161 8
0.3182 7.6274 -1.3438 -0.237 -0.969 0.066 58 48 49 63 66
0.3303 7.6249 -1.3442 -0.165 -0.966 0.199 45 36 37 0 127
0.3923 7.6678 -1.3593 -0.593 -0.623 0.511 70 64 65 2 240
0.4227 7.6484 -1.3573 -0.183 -0.972 0.149 70 66 67 2 8
0.4426 7.6606 -1.3618 0.341 -0.935 -0.093 64 60 61 2 66
0.4584 7.6649 -1.3641 0.323 -0.944 0.074 58 54 55 2 127
0.5855 7.6233 -1.3650 -0.246 -0.969 0.015 12 8 7 0 224
0.5956 7.6170 -1.3644 0.005 -0.991 0.136 17 11 11 2 132
0.6235 7.6182 -1.3670 0.067 -0.927 -0.369 92 85 85 0 8
2.1122 9.2715 -1.8754 0.338 -0.564 0.754 94 85 76 0 66
2.1279 9.2680 -1.8759 0.181 -0.584 0.791 91 84 73 0 127
2.1910 9.2832 -1.8847 0.081 -0.547 0.833 89 82 69 114 56
2.2027 9.2735 -1.8834 -0.279 -0.521 0.807 88 81 68 53 135
2.2161 9.2663 -1.8828 -0.336 -0.541 0.771 90 79 68 22 87
2.2342 9.2667 -1.8844 -0.195 -0.604 0.773 90 73 66 161 8
2.2489 9.2617 -1.8845 -0.399 -0.424 0.813 87 64 59 63 66
2.3404 9.2642 -1.8927 0.353 -0.786 0.508 113 92 87 0 135
2.3614 9.2687 -1.8955 0.208 -0.730 0.651 123 102 96 32 87
2.3801 9.2696 -1.8972 0.203 -0.653 0.730 120 96 91 16 8
2.3988 9.2706 -1.8990 -0.069 -0.457 0.887 103 75 72 8 66
2.5578 9.1576 -1.8859 0.076 -0.642 0.763 63 58 47 0 136
2.7356 9.1776 -1.9053 0.014 -0.997 -0.081 139 137 126 22 87
3.0202 9.2891 -1.9549 0.419 -0.733 0.536 93 106 88 32 127
3.1295 9.2588 -1.9569 -0.160 -0.501 0.850 71 98 76 63 66
5.2922 10.5714 -2.4421 -0.995 -0.050 0.087 116 77 60 1 80
5.2863 10.5384 -2.4339 0.050 -0.360 0.932 117 78 61 0 141
-2.9957 8.4609 -1.2744 0.779 -0.570 -0.262 30 27 33 0 153
-2.9159 8.6382 -1.3226 -0.651 -0.757 -0.058 126 124 125 156 144
-2.9040 8.6384 -1.3237 -0.036 -0.914 -0.405 118 117 117 53 153
-2.8683 8.7171 -1.3451 -0.824 -0.559 0.092 112 110 113 63 66
-2.7597 8.6947 -1.3489 -0.949 -0.287 -0.131 116 114 119 4 127
-2.5367 8.4943 -1.3206 -0.706 -0.693 -0.145 135 134 139 158 112
-2.5154 8.4397 -1.3095 -0.942 -0.319 -0.107 116 108 115 22 79
-1.4846 9.3506 -1.6091 -0.245 -0.664 -0.707 100 64 67 0 160
-1.4711 9.3455 -1.6091 -0.286 -0.700 -0.655 90 59 59 0 79
-1.3372 9.2915 -1.6076 -0.487 -0.704 -0.517 99 87 65 63 66
-1.3246 9.2822 -1.6065 -0.591 -0.661 -0.463 104 92 65 0 127
-0.9320 9.7956 -1.7596 -0.993 0.042 0.106 152 155 164 0 16
-0.7094 10.1305 -1.8567 0.284 -0.901 -0.328 131 126 141 53 162
-0.2007 10.8943 -2.0782 -0.907 -0.284 0.312 96 48 28 161 8
0.0685 8.7048 -1.5874 -0.982 -0.062 0.176 94 41 30 179 56
0.0664 8.6623 -1.5773 -0.893 -0.188 0.409 82 35 29 53 167
0.0793 8.6209 -1.5686 -0.992 -0.044 0.115 107 84 81 161 8
0.0835 8.5950 -1.5629 -0.998 -0.063 0.005 120 106 105 63 66
0.0868 8.5670 -1.5566 -0.994 -0.106 0.011 111 103 104 0 127
0.1007 8.4242 -1.5243 -0.999 0.009 0.037 75 70 70 0 79
0.1006 8.3897 -1.5162 -0.999 0.009 0.037 70 66 65 8 8
0.1014 8.3573 -1.5087 -0.999 0.028 0.041 100 96 95 32 66
0.1007 8.3218 -1.5003 -0.999 0.028 0.041 51 43 46 0 127
-0.0119 7.7140 -1.3484 -0.351 -0.825 0.443 17 11 13 8 160
0.0038 7.7196 -1.3510 0.138 -0.986 0.095 39 35 36 0 168
0.0135 7.7119 -1.3500 0.114 -0.950 0.292 98 94 95 0 79
0.0272 7.7131 -1.3514 0.114 -0.950 0.292 106 102 103 0 8
0.0421 7.7169 -1.3536 0.123 -0.992 0.003 70 66 67 0 66
0.1241 7.6658 -1.3485 0.119 -0.816 -0.566 101 92 96 63 66
0.1403 7.6720 -1.3513 0.037 -0.789 -0.614 96 86 89 0 127
0.1785 7.6688 -1.3537 -0.237 -0.703 -0.671 74 64 66 0 144
0.1893 7.6637 -1.3534 -0.353 -0.680 -0.642 69 59 60 2 169
0.2008 7.6599 -1.3535 -0.365 -0.659 -0.658 61 51 52 8 79
0.2149 7.6618 -1.3551 -0.069 -0.743 -0.666 43 33 34 0 8
0.2801 7.6589 -1.3599 -0.310 -0.809 -0.499 49 39 40 183 8
0.3073 7.6331 -1.3561 -0.460 -0.866 -0.196 35 26 27 161 8
0.3144 7.6206 -1.3537 -0.690 -0.670 0.275 28 19 20 63 66
0.3292 7.6236 -1.3557 -0.375 -0.884 0.281 20 13 13 0 127
0.5254 7.6387 -1.3756 -0.383 -0.872 0.305 64 57 57 161 8
0.5828 7.6192 -1.3758 -0.133 -0.977 0.164 26 22 21 0 112
0.5945 7.6158 -1.3760 0.044 -0.983 0.178 24 19 19 2 171
0.6219 7.6161 -1.3784 0.324 -0.924 -0.201 94 85 86 4 8
1.8397 9.3796 -1.8935 -0.083 -0.511 0.856 134 129 123 32 172
2.0986 9.2508 -1.8849 0.366 -0.554 0.747 99 91 82 4 66
2.1157 9.2496 -1.8860 0.227 -0.610 0.759 97 91 80 0 127
2.1992 9.2410 -1.8910 0.266 -0.489 0.831 91 79 68 22 79
2.2211 9.2473 -1.8943 0.266 -0.489 0.831 90 74 66 161 8
2.2330 9.2379 -1.8931 0.123 -0.622 0.773 96 76 70 63 66
2.3329 9.2537 -1.9051 0.357 -0.798 0.486 108 94 87 0 174
2.3544 9.2591 -1.9082 0.291 -0.798 0.528 113 98 91 32 79
2.3714 9.2575 -1.9092 0.048 -0.566 0.823 120 101 95 0 8
2.3868 9.2534 -1.9096 -0.120 -0.469 0.875 118 95 89 64 66
2.4288 9.1544 -1.8898 0.065 -0.602 0.796 104 92 82 22 79
2.4559 9.1415 -1.8891 0.169 -0.684 0.710 86 78 69 63 66
2.7552 9.1805 -1.9232 -0.284 -0.937 -0.201 143 137 128 161 8
2.9761 9.2556 -1.9593 -0.115 -0.747 0.655 56 62 48 0 66
5.1225 10.5374 -2.4389 0.689 -0.717 0.105 96 67 55 22 79
-2.9159 8.6429 -1.3358 -0.525 -0.820 -0.226 125 124 124 232 168
-2.9040 8.6444 -1.3372 -0.036 -0.914 -0.405 117 116 117 53 192
-2.8922 8.6755 -1.3455 0.272 -0.896 -0.351 114 112 113 22 79
-2.8803 8.7110 -1.3549 0.002 -0.978 -0.210 113 111 112 161 8
-2.8683 8.7276 -1.3599 -0.801 -0.591 -0.094 112 110 113 63 66
-2.7835 8.7345 -1.3686 -0.748 -0.642 -0.170 111 112 117 64 8
-2.5366 8.4977 -1.3334 -0.756 -0.633 -0.166 137 136 142 238 136
-1.8362 10.3631 -1.8326 -0.366 -0.928 0.070 99 50 56 0 224
-1.4973 9.3611 -1.6245 -0.195 -0.817 -0.542 109 69 72 0 192
-1.3599 9.3248 -1.6274 0.445 -0.860 -0.250 87 84 68 22 79
-1.3446 9.3294 -1.6298 0.487 -0.807 -0.335 91 86 67 161 8
-1.3269 9.3464 -1.6353 0.662 -0.713 -0.231 97 88 66 63 66
-1.3222 9.2958 -1.6238 -0.723 -0.523 -0.450 102 91 66 0 127
-0.9347 9.7850 -1.7718 -0.985 0.057 0.164 155 156 166 0 160
-0.8813 9.7464 -1.7672 -0.030 -0.903 -0.428 145 148 163 0 66
-0.7080 10.1372 -1.8740 0.284 -0.901 -0.328 124 121 137 54 201
-0.6892 10.1474 -1.8780 0.519 -0.795 -0.313 137 133 148 22 79
-0.6474 10.1833 -1.8899 0.619 -0.784 -0.033 130 123 134 63 66
0.0697 8.7087 -1.6020 -0.999 -0.038 0.038 91 39 27 15 200
0.0693 8.6704 -1.5929 -0.981 -0.087 0.173 85 38 31 54 205
0.0828 8.5943 -1.5761 -0.996 -0.082 -0.033 109 93 91 63 66
0.0861 8.5661 -1.5697 -0.991 -0.129 -0.029 118 107 107 0 127
0.0993 8.4567 -1.5450 -0.996 -0.020 0.091 113 109 108 0 206
0.1006 8.4250 -1.5376 -0.994 0.001 0.112 98 94 93 16 79
0.1007 8.3908 -1.5295 -0.996 0.026 0.085 63 59 58 0 8
0.1005 8.3561 -1.5213 -0.996 0.026 0.085 76 71 71 32 66
0.0997 8.3203 -1.5128 -0.997 0.042 0.069 44 36 37 0 127
-0.0131 7.7121 -1.3598 -0.063 -0.908 0.413 19 13 15 0 48
0.0021 7.7167 -1.3621 0.224 -0.957 0.185 19 15 16 0 207
0.0166 7.7197 -1.3640 0.224 -0.957 0.185 37 33 34 0 79
0.0318 7.7241 -1.3664 0.060 -0.994 0.097 40 36 37 0 8
0.0448 7.7237 -1.3673 0.151 -0.914 -0.376 33 27 29 0 66
0.0538 7.7145 -1.3659 0.340 -0.930 -0.140 87 81 83 0 127
0.1303 7.6797 -1.3641 0.018 -0.864 -0.504 45 34 38 63 66
0.1440 7.6808 -1.3656 0.018 -0.864 -0.504 41 30 34 0 127
0.1959 7.6784 -1.3693 -0.145 -0.909 -0.390 34 24 25 128 208
0.2110 7.6820 -1.3715 0.183 -0.955 -0.234 29 19 20 0 79
0.2168 7.6664 -1.3683 0.149 -0.837 -0.527 24 14 15 2 8
0.2310 7.6684 -1.3699 0.013 -0.812 -0.584 30 21 22 0 66
0.2435 7.6668 -1.3706 -0.118 -0.790 -0.601 32 22 23 0 127
0.2826 7.6648 -1.3734 -0.389 -0.798 -0.460 25 18 18 26 32
0.2932 7.6593 -1.3730 -0.389 -0.798 -0.460 21 14 15 74 209
0.3039 7.6539 -1.3726 -0.389 -0.798 -0.460 22 15 15 22 79
0.3081 7.6355 -1.3686 -0.460 -0.866 -0.196 20 13 14 161 8
0.3117 7.6162 -1.3644 -0.572 -0.762 0.302 20 13 14 63 66
0.3253 7.6167 -1.3656 -0.206 -0.841 0.501 18 12 12 0 127
0.4220 7.6486 -1.3813 -0.114 -0.901 0.419 39 32 34 0 8
0.4408 7.6590 -1.3853 0.320 -0.916 0.242 48 40 43 0 66
0.5306 7.6239 -1.3846 -0.227 -0.795 0.563 88 79 80 63 66
0.5845 7.6232 -1.3889 0.014 -0.898 0.441 49 45 44 128 136
0.5907 7.6097 -1.3863 0.215 -0.907 0.361 45 39 39 0 210
0.6087 7.6178 -1.3897 0.178 -0.984 0.019 78 69 70 0 79
0.6272 7.6267 -1.3933 0.377 -0.926 -0.018 94 84 85 0 8
0.6377 7.6208 -1.3928 0.015 -0.914 -0.405 51 39 41 0 66
1.7213 9.3279 -1.8868 0.134 -0.549 0.825 76 73 69 63 66
2.0666 9.2290 -1.8924 0.171 -0.824 0.540 103 93 86 0 8
2.0865 9.2324 -1.8949 0.411 -0.594 0.692 104 96 86 0 66
2.0990 9.2242 -1.8940 0.416 -0.814 0.406 102 95 83 0 127
2.1801 9.2121 -1.8980 0.186 -0.421 0.888 91 77 67 22 79
2.3454 9.2465 -1.9200 0.238 -0.773 0.588 98 87 78 0 79
2.3570 9.2368 -1.9187 -0.019 -0.574 0.819 106 92 84 0 8
2.4701 9.1369 -1.9046 0.316 -0.734 0.601 67 62 57 0 127
2.7386 9.1840 -1.9382 0.268 -0.963 0.012 153 150 141 22 79
2.7566 9.1836 -1.9396 -0.284 -0.937 -0.201 155 148 140 161 8
2.7749 9.1836 -1.9412 -0.025 -0.974 -0.223 158 149 141 63 66
2.9657 9.2427 -1.9711 -0.080 -0.775 0.627 49 52 38 0 66
2.9874 9.2467 -1.9739 -0.138 -0.931 0.338 51 59 44 8 127
-2.9159 8.6483 -1.3493 -0.294 -0.920 -0.258 123 122 122 211 56
-2.9040 8.6492 -1.3505 0.005 -0.917 -0.399 116 115 115 74 231
-2.8922 8.6808 -1.3590 0.272 -0.896 -0.351 113 111 112 22 79
-2.8803 8.7171 -1.3686 0.065 -0.926 -0.371 112 110 112 161 8
-2.8683 8.7225 -1.3709 -0.654 -0.639 -0.405 113 111 114 63 66
-2.5364 8.5009 -1.3462 -0.756 -0.633 -0.166 138 137 143 213 24
-2.5151 8.4450 -1.3347 -0.948 -0.309 -0.073 117 111 117 22 79
-2.2671 10.6340 -1.8761 -0.614 -0.348 0.708 86 59 71 2 8
-2.1299 9.5161 -1.6219 -0.866 -0.234 -0.443 90 60 70 2 79
-2.1211 9.4591 -1.6091 -0.866 -0.234 -0.443 90 60 70 129 8
-1.8369 10.3581 -1.8468 -0.645 -0.764 0.017 96 49 56 4 112
-1.4263 9.3568 -1.6434 -0.443 -0.667 -0.599 88 70 64 0 127
-1.3592 9.3295 -1.6426 0.445 -0.860 -0.250 87 85 71 22 79
-1.3444 9.3315 -1.6443 0.480 -0.850 -0.216 88 85 67 161 8
-1.3191 9.3125 -1.6419 -0.730 -0.547 -0.411 101 93 69 0 127
-0.9327 10.0052 -1.8392 -0.896 -0.359 -0.261 135 133 138 0 127
-0.7074 10.1409 -1.8905 0.381 -0.840 -0.386 121 119 137 74 240
-0.6878 10.1540 -1.8952 0.496 -0.810 -0.313 129 127 141 22 79
-0.6475 10.1838 -1.9057 0.619 -0.784 -0.033 128 118 127 63 66
-0.5600 10.2028 -1.9176 0.491 -0.304 0.817 96 60 52 0 240
0.0609 8.6875 -1.6098 -0.973 -0.223 -0.062 89 37 25 225 224
0.0845 8.5631 -1.5822 -0.987 -0.154 -0.041 110 99 97 0 127
0.1009 8.4266 -1.5511 -0.989 0.030 0.147 108 104 103 0 79
0.0998 8.3896 -1.5423 -0.986 0.058 0.154 79 75 72 64 8
0.0991 8.3536 -1.5336 -0.985 0.075 0.156 51 44 42 0 66
-0.0925 7.6216 -1.3434 -0.314 -0.832 -0.457 26 13 13 0 127
-0.0152 7.7083 -1.3706 0.069 -0.889 0.453 20 13 15 1 72
0.0002 7.7133 -1.3731 0.277 -0.938 0.206 15 11 12 0 246
0.0151 7.7172 -1.3752 0.224 -0.957 0.185 17 13 14 2 79
0.0296 7.7202 -1.3772 0.224 -0.957 0.185 18 14 15 0 8
0.0471 7.7296 -1.3809 0.151 -0.914 -0.376 20 14 16 4 66
0.1309 7.6820 -1.3766 0.294 -0.885 -0.361 30 21 23 63 66
0.1457 7.6851 -1.3786 0.086 -0.924 -0.372 35 25 27 0 127
0.2350 7.6775 -1.3844 -0.368 -0.896 -0.247 36 29 29 64 66
0.2461 7.6729 -1.3842 -0.368 -0.896 -0.247 41 34 34 0 127
0.2961 7.6659 -1.3868 -0.389 -0.798 -0.460 27 23 23 74 247
0.3067 7.6604 -1.3864 -0.480 -0.738 -0.474 29 24 25 22 79
0.3100 7.6402 -1.3818 -0.477 -0.819 -0.320 28 23 24 161 8
0.4120 7.6302 -1.3881 -0.548 -0.634 0.546 17 10 12 2 8
0.5156 7.6220 -1.3949 -0.244 -0.603 0.760 71 65 65 161 8
0.5444 7.6254 -1.3981 -0.618 -0.767 0.170 54 47 47 0 127
0.5782 7.6126 -1.3979 0.225 -0.660 0.717 70 67 66 0 24
0.5906 7.6103 -1.3984 0.289 -0.942 0.172 71 66 65 16 249
0.6077 7.6167 -1.4014 0.395 -0.899 0.189 91 83 84 0 79
1.7079 9.3055 -1.8957 -0.071 -0.463 0.884 94 92 87 63 66
1.7258 9.3064 -1.8974 0.066 -0.499 0.864 87 85 80 0 127
1.7825 9.3137 -1.9039 0.033 -0.490 0.871 110 106 100 0 8
2.0618 9.2224 -1.9058 0.072 -0.872 0.484 106 95 87 0 8
2.0798 9.2229 -1.9075 0.276 -0.865 0.418 102 91 82 32 66
2.0958 9.2201 -1.9081 0.208 -0.801 0.561 102 92 81 0 127
2.3161 9.2303 -1.9292 0.326 -0.663 0.674 114 103 94 2 251
2.3348 9.2315 -1.9310 0.073 -0.669 0.740 97 84 76 0 79
2.3484 9.2248 -1.9306 -0.040 -0.510 0.859 92 77 70 4 8
2.3895 9.1248 -1.9103 -0.086 -0.429 0.899 90 79 66 74 252
2.4247 9.1241 -1.9131 -0.011 -0.602 0.798 86 77 69 161 8
2.4376 9.1166 -1.9124 0.316 -0.734 0.601 73 66 61 63 66
2.4592 9.1222 -1.9155 0.462 -0.751 0.471 58 53 50 0 127
2.5467 9.1448 -1.9283 0.260 -0.935 0.242 60 58 58 32 252
2.7579 9.1865 -1.9560 0.032 -0.993 -0.114 160 151 144 161 8
2.7741 9.1836 -1.9567 -0.098 -0.994 -0.056 158 148 141 63 66
3.5093 9.2364 -2.0313 -0.080 -0.299 0.951 85 91 81 1 0
4.6341 9.9745 -2.3017 0.483 -0.862 0.152 97 68 55 22 80
5.2989 10.5568 -2.4962 0.100 -0.749 0.655 117 78 62 0 2
5.3137 10.5473 -2.4952 -0.647 -0.507 0.569 117 78 63 1 80
-3.0124 8.7300 -1.3727 -0.513 -0.829 -0.220 21 19 25 0 80
-2.9159 8.6520 -1.3622 -0.294 -0.920 -0.258 122 122 122 26 200
-2.9041 8.6551 -1.3640 0.005 -0.917 -0.399 116 115 115 75 13
-2.8922 8.6868 -1.3726 0.226 -0.883 -0.411 113 111 112 22 80
-2.8803 8.7226 -1.3822 0.065 -0.926 -0.371 113 111 112 161 8
-2.8683 8.7376 -1.3868 -0.696 -0.696 -0.177 112 110 113 63 66
-2.5700 8.5593 -1.3694 -0.926 -0.317 0.206 118 116 119 2 127
-2.5363 8.5041 -1.3591 -0.756 -0.633 -0.166 140 140 145 28 48
-2.1184 9.4895 -1.6304 -0.866 -0.234 -0.443 92 61 71 2 8
-2.1096 9.4329 -1.6176 -0.866 -0.234 -0.443 92 60 71 0 66
-1.9266 7.6229 -1.1998 0.394 -0.759 -0.518 110 65 75 128 66
-1.3624 9.3908 -1.6709 -0.338 -0.665 -0.666 91 89 79 75 20
-1.3441 9.3342 -1.6589 0.179 -0.849 -0.498 88 86 70 161 8
-1.3290 9.3372 -1.6609 -0.723 -0.523 -0.450 91 88 67 63 66
-0.7251 10.1363 -1.9034 0.363 -0.849 -0.383 109 108 126 36 192
-0.7050 10.1518 -1.9089 0.438 -0.818 -0.373 117 115 133 75 22
-0.6859 10.1629 -1.9131 0.538 -0.781 -0.318 123 120 134 22 80
-0.6473 10.1860 -1.9219 0.619 -0.785 -0.011 130 114 122 63 66
0.1639 10.7247 -2.1197 0.010 -0.602 -0.798 97 41 24 0 80
0.0555 8.6749 -1.6199 -0.861 -0.449 -0.239 87 35 24 50 112
0.0842 8.5633 -1.5956 -0.985 -0.172 -0.002 86 72 69 0 127
0.0951 8.4833 -1.5773 -0.994 -0.106 -0.006 77 71 71 128 232
0.0974 8.4538 -1.5705 -0.990 0.020 0.137 76 70 70 0 27
0.0995 8.4241 -1.5635 -0.992 0.026 0.123 103 98 96 1 80
0.0996 8.3899 -1.5554 -0.992 0.026 0.123 100 95 92 2 8
0.0957 8.3466 -1.5447 -0.985 0.071 0.160 46 37 36 0 66
-0.0900 7.6281 -1.3569 -0.314 -0.832 -0.457 22 12 11 0 127
-0.0146 7.7106 -1.3831 0.391 -0.911 0.131 17 12 13 64 216
0.0019 7.7180 -1.3862 0.440 -0.898 -0.015 15 11 12 128 28
0.0136 7.7147 -1.3864 0.224 -0.957 0.185 17 13 14 0 80
0.0281 7.7177 -1.3884 0.224 -0.957 0.185 16 12 13 1 8
0.0503 7.7377 -1.3951 0.127 -0.884 -0.450 17 11 13 0 66
0.1512 7.6977 -1.3940 -0.323 -0.615 0.719 56 49 49 0 127
0.1884 7.6921 -1.3959 0.088 -0.831 0.549 55 46 47 2 200
0.2170 7.6962 -1.3992 0.417 -0.767 0.487 33 24 25 2 80
0.5713 7.6007 -1.4065 0.241 -0.654 0.717 62 59 57 0 48
0.5887 7.6077 -1.4096 0.289 -0.942 0.172 72 66 66 32 32
0.6254 7.6251 -1.4169 0.410 -0.902 -0.135 78 68 69 64 8
1.7102 9.2801 -1.9051 -0.095 -0.437 0.894 106 105 101 0 127
2.0160 9.2063 -1.9134 -0.603 -0.376 0.703 112 101 94 0 177
2.0276 9.1967 -1.9121 -0.774 -0.237 0.587 106 95 88 32 86
2.0552 9.2129 -1.9183 0.021 -0.916 0.401 99 87 79 0 8
2.0733 9.2135 -1.9200 0.303 -0.953 -0.011 95 82 73 64 66
2.0888 9.2101 -1.9205 0.251 -0.917 0.310 96 84 73 0 127
2.5351 9.1290 -1.9389 0.346 -0.932 0.111 64 63 62 0 35
2.5616 9.1414 -1.9442 -0.019 -0.805 0.593 64 64 61 0 80
2.5912 9.1320 -1.9444 0.332 -0.792 0.512 66 66 60 0 66
2.6880 9.1664 -1.9609 0.152 -0.967 0.202 137 134 126 94 240
2.9271 9.2176 -1.9934 0.258 -0.700 0.666 66 56 46 0 8
3.2790 9.1150 -1.9987 0.260 -0.954 0.152 63 99 81 22 80
5.2500 10.5290 -2.5044 0.019 -0.379 0.925 115 76 59 64 40
5.2822 10.5392 -2.5096 0.073 -0.482 0.873 116 77 61 128 40
-2.9639 8.6902 -1.3795 -0.734 -0.643 -0.218 128 124 125 0 66
-2.9041 8.6630 -1.3780 0.000 -0.922 -0.388 117 116 116 75 52
-2.8922 8.6933 -1.3864 0.205 -0.859 -0.469 113 111 112 22 80
-2.8803 8.7280 -1.3957 0.065 -0.926 -0.371 112 110 112 161 8
-2.8683 8.7144 -1.3935 0.003 -0.999 0.041 112 110 113 63 66
-2.6166 8.6076 -1.3892 -0.899 -0.046 0.435 113 113 115 0 53
-2.5701 8.5575 -1.3811 -0.909 -0.406 0.093 119 117 120 0 127
-2.5362 8.5077 -1.3720 -0.821 -0.560 -0.112 141 142 147 156 72
-1.7374 8.3932 -1.4125 0.019 -0.808 -0.588 115 69 79 22 80
-1.4462 9.4099 -1.6824 -0.621 -0.567 -0.542 91 61 59 0 8
-1.4346 9.3934 -1.6794 -0.638 -0.529 -0.560 80 53 51 0 66
-1.4230 9.3774 -1.6766 -0.605 -0.545 -0.581 87 64 61 0 127
-1.3358 9.3788 -1.6843 -0.571 -0.737 -0.361 89 87 73 161 8
-1.3265 9.3515 -1.6786 -0.782 -0.504 -0.367 90 87 67 63 66
-0.8853 9.7323 -1.8080 0.659 -0.752 0.017 134 134 148 0 66
-0.7245 10.1400 -1.9200 0.587 -0.731 -0.348 104 101 118 188 216
-0.7022 10.1642 -1.9277 0.562 -0.774 -0.293 114 110 126 75 60
-0.6825 10.1779 -1.9327 0.597 -0.748 -0.291 123 113 128 22 80
-0.6624 10.1926 -1.9379 0.545 -0.771 -0.329 126 113 122 161 8
0.1561 10.7016 -2.1304 -0.589 -0.757 -0.282 97 43 26 0 80
0.3623 10.7732 -2.1653 0.603 -0.795 0.056 105 54 34 63 66
0.0571 8.6798 -1.6347 -0.861 -0.449 -0.239 85 33 21 201 16
0.0977 8.4555 -1.5841 -0.998 0.006 0.069 62 57 55 0 66
0.0980 8.4216 -1.5759 -0.998 0.006 0.069 84 79 76 64 80
0.0970 8.3847 -1.5669 -0.997 0.037 0.065 105 98 96 32 8
0.0954 8.3468 -1.5577 -0.988 0.081 0.135 54 43 42 0 66
-0.0156 7.7090 -1.3945 0.457 -0.747 0.483 17 12 13 0 120
0.0003 7.7152 -1.3973 0.300 -0.777 0.554 16 12 13 0 67
0.0171 7.7235 -1.4008 0.083 -0.987 0.138 17 13 14 16 80
0.0315 7.7261 -1.4026 0.144 -0.987 -0.073 17 13 14 8 8
0.0591 7.7580 -1.4127 0.149 -0.896 -0.418 18 13 15 4 66
0.0693 7.6644 -1.3910 -0.047 -0.896 -0.441 31 28 29 205 240
0.1348 7.6919 -1.4032 0.110 -0.712 0.694 71 65 65 63 66
0.1484 7.6927 -1.4045 0.110 -0.712 0.694 75 69 69 0 127
0.2953 7.6932 -1.4172 -0.365 -0.880 -0.304 53 45 48 206 224
0.3070 7.6896 -1.4173 -0.331 -0.856 -0.397 50 42 44 75 68
0.3136 7.6760 -1.4146 -0.703 -0.638 -0.315 51 43 46 22 80
0.3243 7.6438 -1.4077 -0.205 -0.561 -0.802 46 41 42 63 66
0.4555 7.6637 -1.4237 -0.004 -0.990 -0.139 24 22 23 0 127
0.5870 7.6055 -1.4209 0.291 -0.950 -0.117 34 29 30 0 70
1.8708 9.2282 -1.9216 0.062 -0.411 0.910 89 79 75 210 176
1.8883 9.2281 -1.9230 0.063 -0.413 0.908 66 56 53 75 71
2.0183 9.2112 -1.9300 -0.057 -0.657 0.751 98 88 80 0 72
2.0337 9.2076 -1.9305 -0.145 -0.678 0.720 93 84 75 2 80
2.0581 9.2186 -1.9352 0.212 -0.831 0.514 91 81 71 0 8
2.0726 9.2135 -1.9352 0.303 -0.953 -0.011 91 79 68 4 66
2.0872 9.2087 -1.9353 0.120 -0.757 0.642 92 80 68 0 127
2.5529 9.1299 -1.9561 -0.134 -0.832 0.538 80 80 76 0 80
2.5750 9.1358 -1.9594 -0.012 -0.871 0.491 77 78 71 2 8
2.5731 9.1071 -1.9523 0.504 -0.847 0.167 74 74 67 0 66
2.6043 9.1259 -1.9595 0.524 -0.847 0.087 72 71 66 4 127
2.6847 9.1629 -1.9752 0.152 -0.967 0.202 117 114 107 213 128
2.7088 9.1712 -1.9793 0.263 -0.940 0.219 141 138 130 75 74
4.6182 9.9587 -2.3320 0.503 -0.856 0.120 100 68 54 22 80
5.1985 10.3680 -2.4801 0.374 -0.343 0.861 116 79 63 0 66
-2.9640 8.6946 -1.3927 -0.736 -0.613 -0.286 129 125 126 4 66
-2.9041 8.6687 -1.3915 0.000 -0.922 -0.388 116 115 115 76 90
-2.5366 8.4986 -1.3818 -0.567 -0.807 -0.166 141 142 147 5 216
-1.7351 8.4086 -1.4287 -0.208 -0.630 -0.748 115 69 79 22 80
-1.4636 9.3935 -1.6910 -0.596 -0.793 -0.127 103 65 65 0 80
-1.4443 9.4215 -1.6994 -0.541 -0.617 -0.572 96 63 61 0 8
-1.4319 9.4093 -1.6975 -0.638 -0.529 -0.560 80 51 50 2 66
-1.4207 9.3911 -1.6941 -0.619 -0.562 -0.548 84 60 58 0 127
-0.7211 10.1549 -1.9394 0.647 -0.745 -0.163 104 97 112 17 96
-0.6830 10.1768 -1.9480 0.600 -0.800 -0.025 123 108 119 22 86
0.0584 8.6840 -1.6493 -0.821 -0.491 -0.290 82 30 19 33 176
0.0811 8.5576 -1.6206 -0.979 -0.194 0.060 38 20 15 0 127
0.0954 8.4162 -1.5875 -1.000 0.025 0.000 67 62 59 0 80
0.0963 8.3840 -1.5798 -1.000 0.027 -0.000 91 84 82 64 8
0.0912 8.3377 -1.5681 -0.996 0.084 -0.014 50 38 38 0 66
0.0875 8.2950 -1.5574 -0.996 0.084 -0.014 26 13 12 128 127
-0.0087 7.7254 -1.4109 0.582 -0.775 -0.245 17 13 14 1 24
0.0136 7.7460 -1.4178 0.566 -0.792 -0.228 16 12 13 0 105
0.0341 7.7623 -1.4236 0.566 -0.792 -0.228 16 12 13 2 80
0.1013 7.8522 -1.4511 0.447 -0.634 0.631 21 16 17 4 66
0.0941 7.8066 -1.4394 -0.482 -0.421 0.769 22 16 18 0 127
0.0751 7.6780 -1.4066 -0.454 -0.890 -0.045 35 32 33 35 144
0.1313 7.6854 -1.4132 0.275 -0.930 0.244 72 64 65 63 66
0.1460 7.6885 -1.4152 0.129 -0.956 0.264 78 69 70 0 127
0.1858 7.6884 -1.4186 -0.155 -0.986 -0.053 63 52 54 16 8
0.2144 7.6926 -1.4221 0.243 -0.965 -0.101 35 23 25 32 80
0.2434 7.6973 -1.4257 0.142 -0.989 -0.032 60 49 51 64 66
0.2561 7.6959 -1.4265 -0.012 -0.982 -0.190 61 50 52 0 127
0.2979 7.6993 -1.4309 -0.322 -0.933 -0.164 48 38 41 36 128
0.3081 7.6928 -1.4302 -0.398 -0.881 -0.254 45 36 39 76 106
0.5989 7.6532 -1.4455 -0.648 -0.700 -0.300 11 7 8 0 232
0.5974 7.6254 -1.4386 0.226 -0.825 -0.518 13 9 10 16 107
0.6482 7.6434 -1.4473 0.461 -0.858 -0.225 17 11 13 0 66
1.8754 9.2077 -1.9322 0.118 -0.457 0.882 74 61 60 76 109
2.0011 9.2129 -1.9443 -0.150 -0.962 0.229 100 85 79 8 200
2.0128 9.2033 -1.9429 -0.235 -0.885 0.401 94 84 75 0 109
2.0283 9.2000 -1.9435 -0.277 -0.896 0.346 88 79 69 16 80
2.0516 9.2092 -1.9477 0.186 -0.979 0.080 86 78 67 0 8
2.0716 9.2129 -1.9503 0.148 -0.971 0.190 89 79 67 32 66
2.0725 9.1861 -1.9439 -0.089 -0.716 0.692 89 79 66 0 127
2.5663 9.1244 -1.9712 -0.104 -0.769 0.631 102 102 94 64 8
2.5686 9.1017 -1.9659 0.504 -0.847 0.167 96 96 88 0 66
2.6010 9.1223 -1.9737 0.500 -0.866 -0.017 88 88 82 128 127
2.6774 9.1536 -1.9879 -0.051 -0.938 -0.344 98 95 90 50 168
2.7007 9.1609 -1.9916 0.248 -0.967 -0.060 125 121 115 76 112
2.7235 9.1674 -1.9952 0.168 -0.977 0.129 137 128 122 22 80
2.9655 9.1213 -2.0047 -0.435 -0.892 0.125 46 90 63 76 113
3.4341 9.1698 -2.0567 -0.142 -0.278 0.950 98 92 83 0 0
3.4482 9.1636 -2.0564 -0.201 -0.259 0.945 109 99 90 1 115
4.1979 9.8648 -2.2908 -0.462 -0.874 0.151 98 67 56 22 80
4.2404 9.8401 -2.2885 0.188 -0.875 -0.445 98 69 55 0 127
4.3367 9.8548 -2.3003 -0.208 -0.832 -0.514 46 21 14 16 115
5.1414 10.3050 -2.4786 0.145 -0.292 0.945 115 78 62 0 66
5.2024 10.3481 -2.4943 0.407 -0.349 0.844 114 76 60 0 127
-3.0020 8.8254 -1.4335 -0.982 -0.186 0.014 41 38 43 0 128
-2.9639 8.6946 -1.4049 -0.620 -0.738 -0.268 129 125 126 0 66
-2.9160 8.6648 -1.4017 -0.052 -0.954 -0.295 119 119 119 156 32
-2.9041 8.6751 -1.4052 0.313 -0.903 -0.293 115 114 115 76 129
-2.8562 8.6571 -1.4050 0.412 -0.909 -0.056 111 109 113 0 127
-2.7834 8.7367 -1.4307 -0.834 -0.489 -0.257 112 112 116 0 8
-2.6190 8.5369 -1.3961 -0.943 -0.058 0.327 115 114 117 2 130
-2.5365 8.5012 -1.3945 -0.567 -0.807 -0.166 143 144 149 167 0
-2.2236 8.7558 -1.4837 -0.555 -0.448 0.701 93 66 75 0 104
-2.2119 8.7444 -1.4819 -0.547 -0.414 0.727 93 66 75 0 132
-1.7631 10.3234 -1.9064 0.297 -0.833 0.467 98 52 62 0 127
-1.9407 7.6816 -1.2456 0.426 -0.628 -0.651 108 59 69 32 80
-1.4419 9.4359 -1.7172 -0.541 -0.617 -0.572 98 64 63 2 8
-1.4300 9.4214 -1.7147 -0.619 -0.562 -0.548 84 55 55 0 66
-1.4183 9.4057 -1.7119 -0.619 -0.562 -0.548 84 59 58 4 127
-1.3101 9.3631 -1.7108 -0.726 -0.675 -0.132 93 89 64 0 127
-0.9318 9.6013 -1.8016 0.229 -0.959 -0.169 131 129 144 0 8
-0.7104 10.1330 -1.9506 0.444 -0.493 0.748 111 94 102 76 137
-0.1394 10.6150 -2.1176 -0.998 -0.063 0.010 100 54 36 0 8
0.0591 8.6867 -1.6636 -0.734 -0.585 -0.345 80 30 20 251 64
0.0803 8.5567 -1.6336 -0.980 -0.192 0.057 33 14 10 0 127
0.0943 8.4493 -1.6086 -1.000 -0.020 0.020 107 98 98 0 142
0.0954 8.4172 -1.6008 -1.000 0.025 0.000 69 63 62 0 80
0.0925 8.3758 -1.5905 -0.996 0.077 0.045 66 58 56 8 8
0.0906 8.3371 -1.5808 -0.997 0.079 0.023 40 28 27 0 66
0.0878 8.2967 -1.5707 -0.997 0.079 -0.019 26 12 12 0 127
-0.0056 7.7333 -1.4250 0.538 -0.790 -0.295 17 13 14 0 48
0.0156 7.7513 -1.4312 0.566 -0.792 -0.228 15 12 13 0 144
0.0805 7.8368 -1.4577 0.375 -0.534 0.758 17 13 14 0 8
0.0998 7.8497 -1.4626 0.284 -0.432 0.856 22 17 18 32 66
0.0757 7.6802 -1.4190 -0.106 -0.920 -0.378 44 37 39 1 168
0.1185 7.6870 -1.4244 0.344 -0.934 -0.095 41 31 32 161 8
0.1346 7.6933 -1.4273 0.344 -0.934 -0.095 61 50 51 63 66
0.1510 7.6999 -1.4304 0.139 -0.982 -0.129 67 55 57 0 127
0.1860 7.6897 -1.4309 -0.097 -0.953 -0.286 60 46 48 0 32
0.2146 7.6939 -1.4344 0.243 -0.965 -0.101 34 21 24 0 80
0.2288 7.6956 -1.4360 0.142 -0.989 -0.032 43 31 33 0 8
0.2431 7.6977 -1.4378 0.142 -0.989 -0.032 51 39 42 0 66
0.2570 7.6987 -1.4392 -0.017 -0.968 -0.251 56 46 49 8 127
0.2986 7.7016 -1.4435 -0.281 -0.959 -0.030 34 28 30 32 152
0.3090 7.6954 -1.4429 -0.365 -0.908 -0.208 36 32 33 77 145
0.6030 7.6365 -1.4538 0.226 -0.825 -0.518 13 9 10 0 147
0.6236 7.6492 -1.4587 0.378 -0.888 -0.262 11 8 9 0 80
1.8422 9.1823 -1.9383 0.114 -0.433 0.894 77 63 62 73 104
1.9891 9.1945 -1.9540 0.305 -0.947 0.105 104 88 80 0 224
2.0053 9.1924 -1.9549 -0.446 -0.893 -0.059 98 87 76 8 148
2.0219 9.1908 -1.9559 -0.503 -0.864 0.027 89 81 69 0 80
2.0479 9.2044 -1.9615 0.239 -0.967 -0.092 86 79 66 0 8
2.0690 9.2099 -1.9647 0.239 -0.967 -0.092 87 79 66 0 66
2.0504 9.1520 -1.9489 -0.284 -0.479 0.831 87 80 67 0 127
2.3372 9.0776 -1.9555 0.239 -0.862 0.447 74 67 58 78 72
2.3543 9.0503 -1.9503 -0.194 -0.821 0.536 59 54 51 22 80
2.5556 9.1101 -1.9822 0.079 -0.482 0.872 132 131 120 0 8
2.5663 9.0995 -1.9806 0.396 -0.785 0.477 129 128 118 1 66
2.5971 9.1179 -1.9877 0.526 -0.772 0.357 118 116 109 0 127
2.6670 9.1401 -1.9991 -0.378 -0.835 -0.401 89 85 81 89 56
2.6933 9.1516 -2.0042 0.071 -0.987 -0.142 109 105 99 77 151
2.7211 9.1650 -2.0099 0.168 -0.977 0.129 127 117 112 22 80
2.7406 9.1667 -2.0120 -0.154 -0.818 0.554 142 127 121 161 8
4.1807 9.8452 -2.3019 0.223 -0.975 -0.015 95 65 54 22 80
4.3335 9.8523 -2.3168 -0.443 -0.777 -0.446 44 21 15 0 154
4.3474 9.8437 -2.3159 -0.456 -0.785 -0.421 44 26 20 2 80
4.5900 9.9786 -2.3698 0.597 -0.802 -0.028 89 57 48 97 248
5.1556 10.3224 -2.5026 0.609 -0.453 0.651 115 78 62 0 66
-2.8562 8.6640 -1.4188 0.178 -0.977 -0.117 110 108 112 0 127
-2.5363 8.5068 -1.4079 -0.754 -0.650 -0.095 146 146 151 126 48
-2.1897 10.4080 -1.9056 -0.478 -0.649 0.592 93 66 75 77 174
-2.1750 10.3982 -1.9044 -0.478 -0.649 0.592 94 67 76 22 33
-2.2248 8.7428 -1.4929 -0.555 -0.448 0.701 95 68 77 0 144
-2.2132 8.7302 -1.4908 -0.602 -0.377 0.704 95 68 77 0 169
-1.8404 10.3315 -1.9170 0.111 -0.566 0.817 88 51 60 2 128
-1.8247 10.3325 -1.9186 0.053 -0.608 0.792 88 50 59 128 170
-1.8113 10.3132 -1.9151 -0.186 -0.802 0.568 90 49 58 64 80
-1.7802 10.3127 -1.9176 -0.001 -0.666 0.746 93 51 60 0 66
-1.7645 10.3128 -1.9190 0.134 -0.745 0.653 96 52 61 0 127
-1.7343 10.1812 -1.8893 -0.711 -0.648 -0.273 100 53 63 130 248
-1.4439 9.4258 -1.7286 0.367 -0.818 -0.444 99 64 64 8 8
-1.4158 9.4203 -1.7297 -0.719 -0.508 -0.474 85 59 58 2 127
-1.3098 9.3656 -1.7254 -0.726 -0.675 -0.132 93 88 63 0 127
-0.9789 9.8021 -1.8615 0.753 -0.644 0.132 124 116 118 0 127
-0.9314 9.6041 -1.8169 0.229 -0.959 -0.169 129 127 140 2 8
-0.8528 9.8072 -1.8736 -0.748 -0.381 -0.543 118 111 120 64 127
-0.4105 10.5855 -2.1034 0.037 -0.766 0.642 99 49 34 64 66
-0.1332 10.5771 -2.1254 0.386 -0.917 -0.102 101 54 34 0 66
-0.1184 10.5674 -2.1243 -0.864 -0.463 0.199 101 54 34 0 127
0.0612 8.6931 -1.6788 -0.734 -0.585 -0.345 77 27 17 149 240
0.0616 8.6568 -1.6699 -0.824 -0.566 0.023 74 25 19 77 179
0.0941 8.4496 -1.6218 -1.000 -0.020 0.020 108 98 100 2 180
0.0955 8.4182 -1.6142 -1.000 0.025 0.000 89 81 81 0 80
0.0903 8.3374 -1.5938 -0.997 0.079 0.023 35 21 23 0 66
0.0882 8.2986 -1.5841 -0.997 0.079 -0.019 26 12 12 0 127
-0.0315 7.7651 -1.4425 -0.750 -0.640 -0.165 19 11 12 0 127
0.0218 7.7660 -1.4474 0.394 -0.896 -0.203 15 13 14 0 181
0.0381 7.7728 -1.4504 0.261 -0.957 -0.127 19 15 16 0 80
0.0907 7.8304 -1.4692 0.272 -0.411 0.870 24 20 21 8 66
0.1214 7.6941 -1.4383 0.077 -0.900 -0.430 46 35 37 161 8
0.1356 7.6962 -1.4400 0.077 -0.900 -0.430 56 44 46 63 66
0.1490 7.6965 -1.4413 -0.030 -0.965 -0.262 52 38 40 0 127
0.1865 7.6915 -1.4433 -0.052 -0.904 -0.423 62 47 50 0 72
0.1993 7.6906 -1.4442 0.084 -0.930 -0.358 61 47 50 8 182
0.2135 7.6923 -1.4458 0.048 -0.942 -0.333 40 28 30 32 80
0.2274 7.6936 -1.4474 0.048 -0.942 -0.333 45 34 35 0 8
0.2377 7.6874 -1.4467 0.282 -0.958 -0.057 49 39 42 0 66
0.2576 7.7008 -1.4518 -0.012 -0.982 -0.190 53 44 47 2 127
0.2985 7.7023 -1.4557 -0.127 -0.992 -0.002 27 23 24 152 192
0.3097 7.6978 -1.4555 -0.234 -0.948 -0.214 38 35 36 77 182
0.3307 7.6860 -1.4545 -0.149 -0.892 -0.427 41 37 38 161 8
0.3562 7.6832 -1.4560 -0.273 -0.882 -0.385 38 34 35 0 127
0.3885 7.6673 -1.4549 0.213 -0.964 -0.157 23 19 20 0 56
0.4058 7.6747 -1.4582 -0.081 -0.982 0.169 26 22 23 0 183
0.4187 7.6736 -1.4590 -0.702 -0.696 -0.152 26 21 23 0 80
0.5643 7.6667 -1.4699 -0.743 -0.656 0.133 10 8 9 0 127
0.6080 7.6466 -1.4688 0.418 -0.875 -0.244 12 8 9 2 184
1.8276 9.1591 -1.9465 -0.127 -0.365 0.922 73 59 59 178 144
1.8428 9.1555 -1.9470 -0.160 -0.406 0.900 85 67 69 77 185
2.1413 9.0754 -1.9531 0.024 -0.563 0.826 97 77 72 0 127
2.2115 9.1025 -1.9659 0.175 -0.547 0.819 106 90 83 0 248
2.2291 9.1024 -1.9674 0.127 -0.541 0.831 101 84 77 2 186
2.3363 9.0775 -1.9705 0.175 -0.861 0.477 67 61 51 185 112
2.3382 9.0539 -1.9649 0.081 -0.839 0.538 59 54 50 77 187
2.3483 9.0426 -1.9630 -0.299 -0.809 0.506 57 53 51 22 80
2.5415 9.0908 -1.9916 0.079 -0.482 0.872 146 144 131 64 8
2.5578 9.0884 -1.9924 0.321 -0.669 0.671 153 151 139 0 66
2.6759 9.1538 -2.0187 -0.333 -0.940 0.076 89 86 81 186 96
2.6930 9.1523 -2.0198 -0.058 -0.949 0.310 101 97 91 77 188
2.7104 9.1511 -2.0211 -0.166 -0.885 0.436 120 113 106 22 80
2.7320 9.1559 -2.0241 -0.189 -0.865 0.464 131 119 112 161 8
2.9531 9.1070 -2.0312 -0.115 -0.493 0.862 44 86 62 77 189
4.1811 9.8470 -2.3197 0.080 -0.994 -0.077 95 65 54 22 80
4.1899 9.8070 -2.3106 0.207 -0.974 -0.093 94 65 51 63 66
-2.5362 8.5086 -1.4204 -0.754 -0.650 -0.095 147 146 152 206 200
-2.2988 10.3817 -1.9049 0.012 -0.977 -0.211 93 65 77 1 80
-2.1905 10.3974 -1.9182 -0.473 -0.604 0.642 93 67 77 77 206
-2.1761 10.3847 -1.9163 -0.473 -0.607 0.639 93 67 77 22 80
-2.2261 8.7280 -1.5017 -0.558 -0.422 0.714 95 68 77 8 48
-2.2149 8.7115 -1.4986 -0.645 -0.383 0.661 95 68 77 0 207
-2.2043 8.6890 -1.4940 -0.729 -0.334 0.597 95 68 76 16 80
-2.1932 8.6717 -1.4906 -0.637 -0.296 0.712 95 68 75 0 8
-2.1569 8.9282 -1.5573 -0.216 -0.263 0.940 95 67 75 32 66
-1.9741 10.2380 -1.8976 -0.870 -0.356 0.343 95 65 73 208 48
-1.8280 10.3048 -1.9269 0.067 -0.612 0.788 90 53 63 2 208
-1.8125 10.3043 -1.9281 -0.186 -0.802 0.568 90 52 60 4 80
-1.7658 10.3038 -1.9320 0.218 -0.755 0.619 93 52 60 32 127
-1.7323 8.4286 -1.4706 0.613 -0.660 -0.434 113 69 78 22 80
-1.4744 9.4174 -1.7379 0.014 -0.838 -0.545 112 68 73 0 210
-1.4630 9.4001 -1.7346 -0.041 -0.851 -0.524 109 68 70 1 80
-1.4425 9.4347 -1.7450 0.432 -0.854 -0.292 101 66 66 0 8
-1.4262 9.4446 -1.7489 -0.578 -0.674 -0.459 91 59 60 4 66
-1.4140 9.4315 -1.7467 -0.607 -0.648 -0.461 86 58 58 8 127
-1.3097 9.3670 -1.7398 -0.741 -0.637 -0.214 93 88 62 0 127
-0.9310 9.6069 -1.8322 0.229 -0.959 -0.169 122 120 131 0 8
-0.9146 9.6117 -1.8348 0.367 -0.333 0.869 113 109 116 0 66
-0.9026 9.5976 -1.8324 0.823 -0.482 0.302 108 99 107 2 127
-0.0993 10.6332 -2.1588 0.107 -0.716 0.690 102 54 34 0 127
0.0635 8.6999 -1.6942 -0.745 -0.556 -0.368 72 23 15 242 144
0.0630 8.6613 -1.6846 -0.862 -0.506 0.028 72 23 18 77 217
0.0956 8.4196 -1.6276 -0.999 0.033 -0.002 105 96 98 2 80
0.0936 8.3803 -1.6177 -0.999 0.048 0.012 59 50 51 0 8
0.0902 8.3380 -1.6069 -0.995 0.087 0.042 29 15 17 4 66
-0.0244 7.9364 -1.4975 -0.922 0.160 0.353 32 17 17 243 128
-0.0313 7.7665 -1.4548 -0.799 -0.562 -0.215 17 11 11 0 127
0.0227 7.7689 -1.4601 0.319 -0.928 -0.194 14 12 14 0 218
0.0385 7.7746 -1.4629 0.261 -0.957 -0.127 21 19 20 32 80
0.0638 7.8013 -1.4717 0.173 -0.485 0.857 30 27 28 0 8
0.0793 7.8060 -1.4742 0.185 -0.457 0.870 33 30 31 64 66
0.1232 7.6989 -1.4515 0.052 -0.843 -0.535 61 54 54 161 8
0.1374 7.7008 -1.4533 0.052 -0.843 -0.535 66 56 58 63 66
0.1520 7.7037 -1.4553 0.064 -0.848 -0.526 48 37 39 0 127
0.1890 7.6978 -1.4570 -0.052 -0.904 -0.423 68 56 58 0 232
0.2025 7.6981 -1.4583 0.046 -0.932 -0.360 68 57 59 1 219
0.2165 7.6994 -1.4598 0.046 -0.932 -0.360 45 35 36 0 80
0.2293 7.6984 -1.4607 0.048 -0.942 -0.333 51 40 41 2 8
0.2448 7.7028 -1.4631 0.235 -0.967 -0.100 53 43 46 0 66
0.2575 7.7014 -1.4639 0.076 -0.989 -0.126 54 45 48 4 127
0.2989 7.7038 -1.4681 -0.109 -0.978 -0.176 29 23 25 245 96
0.3117 7.7026 -1.4689 -0.109 -0.978 -0.176 44 39 41 77 220
0.3334 7.6921 -1.4682 -0.149 -0.892 -0.427 46 40 42 161 8
0.3898 7.6707 -1.4678 0.271 -0.961 -0.054 23 19 20 0 216
0.4044 7.6729 -1.4696 -0.081 -0.982 0.169 27 23 24 16 220
0.4210 7.6790 -1.4726 -0.616 -0.700 0.360 27 22 24 0 80
0.5503 7.6667 -1.4808 -0.188 -0.892 -0.411 10 10 12 63 66
0.5636 7.6662 -1.4818 -0.311 -0.600 -0.737 10 9 11 0 127
0.6079 7.6723 -1.4872 0.429 -0.815 -0.389 13 9 11 0 200
0.6208 7.6709 -1.4880 -0.025 -0.979 -0.203 9 7 9 0 221
0.6352 7.6722 -1.4895 0.065 -0.967 -0.246 9 9 10 1 80
0.6581 7.6640 -1.4895 -0.961 0.029 0.276 12 15 15 2 66
1.8306 9.1361 -1.9562 -0.295 -0.347 0.890 76 60 62 78 223
2.1021 9.0699 -1.9635 -0.266 -0.603 0.752 94 77 69 161 8
2.1102 9.0552 -1.9605 -0.380 -0.397 0.835 93 75 68 63 66
2.1255 9.0520 -1.9611 0.134 -0.714 0.688 97 81 74 0 127
2.1993 9.0848 -1.9756 0.165 -0.551 0.818 103 88 80 0 32
2.3240 9.0602 -1.9804 0.187 -0.834 0.519 64 59 49 10 152
2.3317 9.0453 -1.9773 0.081 -0.839 0.538 57 54 48 78 225
2.3446 9.0381 -1.9767 -0.601 -0.760 0.247 58 55 52 22 80
2.6726 9.1503 -2.0331 -0.149 -0.808 0.570 101 97 91 11 136
2.7025 9.1411 -2.0334 -0.253 -0.789 0.560 109 104 97 22 80
2.7157 9.1341 -2.0328 -0.531 -0.680 0.506 112 105 97 161 8
2.7483 9.1287 -2.0343 -0.345 -0.768 0.540 110 102 92 0 127
2.8350 9.1223 -2.0403 0.329 -0.660 0.676 67 73 54 0 80
2.8440 9.1094 -2.0379 -0.285 -0.526 0.801 67 84 62 0 8
2.8584 9.1041 -2.0378 -0.511 -0.454 0.730 63 90 66 0 66
4.1988 9.8190 -2.3316 0.357 -0.933 0.041 95 65 51 63 66
5.1893 10.3375 -2.5463 0.588 -0.469 0.659 115 76 59 0 127
-4.3526 10.8511 -1.8573 0.170 -0.686 0.708 7 7 5 28 216
-2.1895 10.4127 -1.9374 -0.251 -0.737 -0.627 92 66 77 78 245
-2.1772 10.3711 -1.9281 -0.691 -0.668 0.276 92 66 77 22 80
-2.1625 10.3630 -1.9274 -0.653 -0.625 0.428 92 66 76 161 8
-2.2273 8.7148 -1.5109 -0.438 -0.417 0.797 96 69 78 0 72
-2.2162 8.6969 -1.5074 -0.559 -0.382 0.736 96 69 77 0 246
-2.2059 8.6714 -1.5019 -0.906 -0.422 0.026 96 69 76 32 80
-1.8298 10.2900 -1.9383 -0.043 -0.711 0.702 93 59 69 0 247
-1.8137 10.2953 -1.9411 -0.186 -0.802 0.568 92 56 65 0 80
-1.7673 10.2925 -1.9444 0.238 -0.621 0.746 90 52 59 128 127
-1.4769 9.4036 -1.7483 -0.034 -0.813 -0.582 114 70 74 32 249
-1.4616 9.4087 -1.7509 -0.245 -0.754 -0.610 112 70 74 0 80
-1.4394 9.4534 -1.7640 -0.107 -0.862 -0.496 105 68 70 130 8
