ply
format ascii 1.0
element vertex 836
property float x
property float y
property float z
property float nx
property float ny
property float nz
property uchar diffuse_red
property uchar diffuse_green
property uchar diffuse_blue
property uchar class
property uchar detection
end_header
0.5554 7.9903 -1.9511 0.398 -0.812 -0.427 35 28 29 0 0
0.6014 7.9183 -1.9383 -0.681 -0.644 -0.350 40 39 40 0 0
0.6052 7.9045 -1.9353 -0.795 -0.605 -0.048 48 46 47 0 0
1.3560 8.6477 -2.1803 -0.495 -0.781 0.381 144 134 132 0 0
1.6127 8.8642 -2.2551 0.053 -0.514 -0.856 133 128 124 0 0
1.7090 8.6767 -2.2196 -0.035 -0.933 0.358 114 116 112 0 0
1.8417 8.6948 -2.2361 0.167 -0.902 0.398 169 161 151 0 161
1.8780 8.6978 -2.2401 0.061 -0.918 0.392 140 132 121 0 0
1.9729 8.7290 -2.2562 0.319 -0.946 0.058 131 126 107 0 0
1.9947 8.7345 -2.2595 0.285 -0.955 0.078 134 129 109 0 0
2.0104 8.7329 -2.2606 0.247 -0.969 -0.018 132 127 106 0 0
2.1438 8.7673 -2.2810 0.197 -0.877 0.438 132 124 109 0 64
2.1445 8.7488 -2.2767 -0.616 -0.577 -0.537 128 120 104 0 21
-5.3842 8.3595 -1.5029 -0.927 -0.291 0.238 24 29 32 0 0
-5.3663 8.3174 -1.4945 -0.910 -0.342 0.236 24 29 32 0 0
-5.3486 8.2760 -1.4862 -0.910 -0.342 0.236 26 31 36 0 0
-5.2032 8.2805 -1.5008 0.880 -0.378 -0.287 27 29 34 0 0
-4.7527 9.4776 -1.8277 -0.962 -0.179 -0.206 19 21 20 0 64
-4.7268 9.4583 -1.8255 -0.958 -0.195 0.212 13 14 13 0 161
-4.5252 9.1342 -1.7669 0.567 -0.307 0.765 21 21 23 0 21
-4.5135 9.1366 -1.7685 0.624 -0.328 0.709 20 20 21 0 161
-4.5042 9.1818 -1.7802 0.610 -0.318 0.726 18 18 18 0 63
-4.3686 9.7648 -1.9316 0.616 -0.357 0.702 13 13 15 0 64
-2.5603 8.4094 -1.7756 0.863 -0.342 -0.372 140 135 141 0 0
-1.8725 9.9819 -2.2139 0.279 -0.351 -0.894 127 110 118 0 92
-1.8211 9.6787 -2.1464 0.872 -0.412 -0.263 128 111 119 0 0
-1.7738 9.7898 -2.1772 0.906 -0.422 -0.022 130 110 119 0 0
-1.6118 10.1812 -2.2855 -0.542 -0.243 -0.805 131 110 119 0 0
-1.4906 9.7663 -2.1978 -0.482 -0.237 0.844 130 111 117 0 0
-1.1900 8.4366 -1.9086 0.714 -0.484 0.506 117 72 53 0 0
-0.4016 9.9306 -2.3375 -0.557 -0.352 0.752 120 75 54 0 0
0.0442 8.7487 -2.0970 -0.999 0.043 0.023 38 17 17 0 102
0.0575 8.6456 -2.0736 -0.993 -0.088 -0.081 58 21 15 0 0
0.0973 8.5644 -2.0579 0.791 -0.533 0.299 75 23 18 0 0
0.1434 8.5191 -2.0514 -0.983 0.139 -0.119 71 43 38 0 103
0.0576 8.0312 -1.9272 0.062 -0.347 0.936 58 53 57 0 120
0.0638 8.0195 -1.9249 0.358 -0.815 -0.455 64 61 65 0 64
0.4970 7.9517 -1.9488 0.571 -0.748 0.338 35 26 29 0 161
0.5300 7.9767 -1.9578 0.695 -0.690 0.202 36 28 31 0 63
0.5538 7.9892 -1.9630 0.599 -0.704 0.382 39 30 33 0 0
1.3507 8.6422 -2.1922 -0.464 -0.873 0.154 129 112 112 0 0
1.5909 8.8803 -2.2712 -0.247 -0.616 -0.748 142 138 129 0 0
1.7930 9.0032 -2.3191 0.511 -0.375 0.774 132 131 125 0 64
1.7789 8.9650 -2.3087 0.533 -0.388 0.752 129 128 122 0 21
1.8273 9.0030 -2.3223 0.567 -0.398 0.721 120 117 110 0 161
1.5621 8.6606 -2.2162 0.558 -0.673 0.485 108 103 97 0 63
1.8742 8.6947 -2.2531 0.241 -0.934 0.264 143 132 122 0 0
1.9637 8.7197 -2.2673 0.262 -0.753 0.604 123 118 99 0 0
1.9827 8.7219 -2.2696 0.164 -0.745 0.647 127 122 101 0 0
2.0219 8.7278 -2.2746 0.276 -0.840 0.468 121 115 94 0 0
2.1158 8.7564 -2.2901 0.369 -0.892 0.262 117 111 98 0 126
2.1286 8.7516 -2.2902 0.135 -0.743 0.655 132 125 110 0 64
2.1654 8.7733 -2.2987 0.055 -0.891 -0.451 132 124 108 0 21
2.1934 8.6902 -2.2815 -0.365 -0.582 0.727 64 93 70 0 0
-5.4014 8.3968 -1.5207 -0.927 -0.315 0.203 25 30 31 0 0
-5.3831 8.3534 -1.5120 -0.948 -0.300 0.110 24 30 30 0 0
-4.7575 9.5326 -1.8531 -0.962 -0.179 -0.206 19 21 20 0 64
-4.7273 9.3160 -1.8039 -0.942 -0.201 -0.268 18 20 19 0 21
-4.5238 9.1079 -1.7728 0.601 -0.322 0.732 21 21 23 0 21
-4.5128 9.1202 -1.7767 0.624 -0.328 0.709 21 21 23 0 161
-4.5034 9.1637 -1.7881 0.621 -0.322 0.715 19 19 19 0 63
-3.1067 8.4431 -1.7447 0.700 -0.634 0.329 20 24 36 0 0
-2.1725 9.6366 -2.1178 0.839 -0.407 -0.362 126 106 115 0 21
-1.7840 9.8086 -2.1952 0.476 -0.382 -0.792 128 111 119 0 0
-1.5984 10.2282 -2.3131 -0.446 -0.330 -0.832 131 111 120 0 0
-1.3824 8.9098 -2.0167 0.673 -0.468 -0.573 91 66 46 0 150
-0.7133 10.1376 -2.3735 -0.592 -0.666 -0.453 109 63 47 0 0
-0.1144 9.7334 -2.3320 0.529 -0.574 0.625 122 77 58 0 63
0.1867 9.7647 -2.3674 0.058 -0.322 0.945 125 82 65 0 0
0.0565 8.6452 -2.0866 -1.000 -0.014 -0.004 55 21 15 0 0
0.1214 8.5564 -2.0713 -0.179 -0.118 0.977 60 23 17 0 0
0.0431 8.0106 -1.9331 0.033 -0.332 0.943 54 48 53 0 229
0.3394 7.9514 -1.9463 -0.606 -0.225 -0.763 53 46 49 0 8
0.4295 7.9775 -1.9610 0.612 -0.727 0.312 40 36 37 0 0
0.4959 7.9514 -1.9609 0.151 -0.542 0.827 41 32 35 0 161
0.5273 7.9741 -1.9692 0.661 -0.629 0.409 39 30 33 0 63
0.6078 7.9286 -1.9658 -0.708 -0.239 -0.664 48 48 48 0 0
0.6130 7.9168 -1.9634 -0.704 -0.274 -0.655 53 51 52 0 0
1.7981 8.9897 -2.3309 0.508 -0.360 0.783 134 131 124 0 22
1.5481 8.6449 -2.2250 0.394 -0.714 0.579 111 104 96 0 63
1.8645 8.6847 -2.2639 0.251 -0.860 0.444 145 134 125 0 0
1.9899 8.7120 -2.2820 0.261 -0.742 0.618 124 119 97 0 0
2.0102 8.7158 -2.2848 0.332 -0.825 0.458 121 117 95 0 4
2.0353 8.7249 -2.2894 0.387 -0.830 0.401 113 108 88 0 0
2.1082 8.7491 -2.3019 0.421 -0.856 0.299 122 116 104 0 235
2.1174 8.7402 -2.3007 0.135 -0.743 0.655 129 122 110 0 51
2.1374 8.7433 -2.3032 0.096 -0.679 0.728 123 116 102 0 22
2.1575 8.7275 -2.3013 -0.671 0.005 0.742 90 96 78 0 63
2.1597 8.7109 -2.2975 -0.652 -0.005 0.758 77 91 71 0 0
2.1743 8.6705 -2.2892 -0.165 -0.419 0.893 62 95 71 0 16
2.2392 8.6664 -2.2942 -0.072 -0.657 0.751 71 106 82 0 0
-5.3893 8.3353 -1.5174 -0.784 -0.433 -0.445 23 28 31 0 8
-5.3765 8.3196 -1.5148 -0.891 -0.364 -0.270 23 28 31 0 0
-4.7075 9.2171 -1.7941 -0.807 -0.269 -0.526 16 18 17 0 161
-4.5224 9.0796 -1.7781 0.876 -0.405 0.263 22 22 24 0 22
-4.5138 9.1354 -1.7924 0.915 -0.370 0.160 23 23 24 0 161
-4.5024 9.1424 -1.7952 0.839 -0.395 0.374 21 21 21 0 63
-3.1079 8.4369 -1.7546 0.182 -0.287 0.940 20 24 35 0 0
-2.7545 8.8526 -1.8880 0.723 -0.679 0.127 128 129 133 0 63
-1.9182 10.2852 -2.3122 0.797 -0.563 0.218 127 112 119 0 0
-1.7784 10.6354 -2.4099 -0.116 -0.397 0.910 129 112 120 0 0
-1.5264 10.0477 -2.2913 -0.475 -0.117 -0.872 133 113 122 0 0
-1.4402 10.0202 -2.2927 -0.994 -0.025 -0.110 132 112 121 0 8
-1.3881 9.8912 -2.2664 -0.842 -0.117 0.526 134 114 121 0 52
0.1756 9.7455 -2.3769 -0.110 -0.260 0.959 124 81 64 0 0
0.0574 8.6478 -2.1006 -0.991 0.118 -0.063 52 19 14 0 0
0.0365 8.3521 -2.0271 -0.972 0.137 0.192 73 43 39 0 57
0.0269 8.3142 -2.0171 -0.985 0.153 0.077 74 45 40 0 52
0.0002 8.2494 -1.9989 -0.972 0.128 -0.197 75 45 41 0 22
0.0699 8.1586 -1.9835 -0.934 0.137 -0.330 66 32 30 0 64
0.0711 8.1174 -1.9736 -0.989 0.113 -0.091 54 30 32 0 128
0.0739 8.0578 -1.9595 0.324 -0.622 -0.713 72 66 70 0 58
0.2500 8.1499 -1.9982 -0.728 -0.069 -0.682 92 81 81 0 1
0.4253 7.9729 -1.9717 0.615 -0.702 0.359 39 35 36 0 0
0.4692 7.9743 -1.9761 -0.465 -0.123 0.877 49 44 46 0 60
0.4877 7.9799 -1.9792 -0.817 -0.010 0.576 53 44 47 0 52
0.5024 7.9612 -1.9761 -0.795 -0.228 0.562 52 43 46 0 161
0.5315 7.9617 -1.9789 0.622 -0.614 0.486 44 35 38 0 0
0.6199 7.9454 -1.9832 -0.871 -0.308 -0.384 31 31 31 0 0
0.6162 7.9220 -1.9772 -0.542 -0.304 -0.783 38 36 37 0 0
1.5083 8.6376 -2.2333 -0.452 -0.861 0.234 142 135 129 0 22
1.5480 8.6459 -2.2390 0.096 -0.769 0.632 115 106 101 0 63
1.5582 8.6384 -2.2381 -0.015 -0.627 0.779 99 89 87 0 0
1.8550 8.6748 -2.2746 0.256 -0.816 0.519 147 137 128 0 0
1.9794 8.7013 -2.2926 0.290 -0.764 0.576 126 121 100 0 0
2.0020 8.7076 -2.2962 0.303 -0.783 0.542 126 123 102 0 32
2.0999 8.7410 -2.3134 0.421 -0.856 0.299 132 125 115 0 64
2.1056 8.7282 -2.3109 0.177 -0.632 0.754 124 119 107 0 52
2.1435 8.7322 -2.3154 -0.652 0.002 0.758 95 100 81 0 161
2.1453 8.7152 -2.3114 -0.648 0.001 0.762 82 93 74 0 63
2.1491 8.7004 -2.3082 -0.648 0.001 0.762 75 93 72 0 0
2.1718 8.6502 -2.2982 0.080 -0.453 0.888 62 100 75 0 2
2.2274 8.6548 -2.3045 0.072 -0.567 0.820 68 103 79 0 128
-5.6057 8.1096 -1.4527 0.297 -0.243 -0.923 26 29 33 0 2
-5.3950 8.3642 -1.5343 -0.843 -0.424 -0.330 22 26 29 0 64
-5.3808 8.3415 -1.5301 -0.915 -0.371 -0.158 21 26 29 0 128
-4.6965 9.2245 -1.8091 -0.741 -0.290 -0.606 14 16 15 0 63
-4.5257 8.9358 -1.7548 0.510 -0.386 -0.769 19 19 20 0 52
-3.9506 10.4861 -2.1860 -0.789 -0.609 -0.085 33 33 33 0 131
-3.1117 8.4137 -1.7601 0.103 -0.245 0.964 22 24 36 0 0
-2.6044 8.2252 -1.7617 0.894 -0.332 -0.302 153 150 157 0 0
-1.0264 9.3705 -2.1882 -0.835 -0.022 -0.549 109 63 47 0 0
-0.0911 9.7828 -2.3761 0.729 -0.670 -0.136 117 73 54 0 63
-0.0052 9.9199 -2.4175 0.293 -0.551 -0.782 117 74 55 0 0
-0.5189 8.2772 -1.9696 -0.678 -0.596 0.430 120 81 66 0 4
0.0603 8.6539 -2.1155 -0.989 0.113 -0.098 48 17 13 0 0
0.0079 8.3081 -2.0265 -0.982 0.169 -0.087 70 40 36 0 197
0.0813 8.1339 -1.9909 -0.901 0.066 0.429 50 27 28 0 64
0.0925 8.0868 -1.9805 -0.581 -0.744 -0.329 84 78 81 0 198
0.1054 8.0849 -1.9813 -0.473 -0.881 -0.021 84 77 80 0 52
0.3160 8.0806 -1.9999 -0.121 -0.698 -0.706 59 48 47 0 199
0.4227 7.9704 -1.9831 0.633 -0.667 0.392 39 35 36 0 0
0.5126 7.9567 -1.9882 0.599 -0.555 0.577 47 38 41 0 63
0.6295 7.9403 -1.9951 -0.576 -0.432 0.694 26 24 25 0 0
0.6229 7.8761 -1.9789 -0.546 -0.038 -0.837 39 36 37 0 211
1.6697 8.6349 -2.2615 0.472 -0.849 0.237 165 172 161 0 8
1.9684 8.6900 -2.3029 0.365 -0.763 0.534 121 117 96 0 0
1.9914 8.6969 -2.3068 0.386 -0.767 0.512 127 125 105 0 0
2.1542 8.6322 -2.3063 0.024 -0.408 0.913 61 99 74 0 0
2.2087 8.6357 -2.3122 0.274 -0.622 0.734 65 100 76 0 0
-5.6504 8.1803 -1.4757 -0.847 -0.158 0.507 29 30 34 0 0
-5.6210 8.1739 -1.4769 -0.549 -0.466 -0.694 25 29 32 0 0
-5.3994 8.3863 -1.5498 -0.131 -0.525 -0.841 22 26 29 0 0
-5.3876 8.3758 -1.5483 -0.610 -0.519 -0.598 22 26 29 0 0
-5.1196 11.4748 -2.3330 0.342 -0.264 0.902 23 26 31 0 63
-4.6955 9.2097 -1.8178 -0.836 -0.263 -0.481 15 17 16 0 63
-4.6805 9.1691 -1.8092 0.826 -0.413 0.382 10 12 11 0 0
-4.5340 9.0742 -1.7997 -0.549 -0.416 -0.725 17 17 17 0 53
-4.5005 9.1014 -1.8096 0.508 -0.372 -0.776 22 22 24 0 63
-3.1162 8.3859 -1.7644 0.038 -0.343 0.939 23 25 37 0 32
-1.5954 8.9851 -2.0542 0.616 -0.543 -0.571 75 38 31 0 0
-1.5104 9.1462 -2.1017 0.475 -0.634 -0.610 84 38 25 0 0
-1.2553 9.5671 -2.2288 -0.503 -0.315 -0.805 91 63 47 0 53
-0.9275 9.0402 -2.1305 -0.624 0.007 -0.782 115 70 51 0 0
-0.1741 9.6847 -2.3593 0.476 -0.559 -0.679 118 75 56 0 22
-0.0988 9.8022 -2.3952 0.698 -0.562 -0.445 115 72 53 0 161
0.0623 8.6583 -2.1300 -0.989 0.113 -0.098 44 16 12 0 0
0.0088 8.3106 -2.0398 -0.986 0.164 -0.040 67 36 33 0 115
-0.0174 8.2465 -2.0216 -0.941 0.168 -0.293 72 42 38 0 53
0.0722 8.0574 -1.9837 -0.326 -0.503 -0.801 92 85 88 0 118
0.3344 8.1079 -2.0207 -0.159 -0.644 -0.748 45 33 33 0 119
0.3788 7.9309 -1.9815 -0.143 -0.446 -0.883 27 23 26 0 0
1.4925 8.8041 -2.3002 0.295 -0.302 0.907 146 137 128 0 32
1.6633 8.6284 -2.2732 0.482 -0.840 0.249 166 170 159 0 4
1.7740 8.6415 -2.2869 0.104 -0.700 0.706 129 122 115 0 22
1.8259 8.6437 -2.2923 0.066 -0.607 0.792 146 140 130 0 0
1.9296 8.6663 -2.3075 0.338 -0.660 0.671 108 100 81 0 32
1.9791 8.6842 -2.3166 0.386 -0.767 0.512 113 111 92 0 64
2.0046 8.6938 -2.3214 0.294 -0.658 0.693 124 123 105 0 0
2.1696 8.6130 -2.3170 0.262 -0.639 0.723 60 99 73 0 2
2.1910 8.6178 -2.3202 0.288 -0.678 0.677 61 99 74 0 0
-5.3990 8.3838 -1.5597 0.905 -0.396 0.155 23 27 30 0 2
-5.0948 11.3801 -2.3277 -0.530 -0.624 0.574 24 28 32 0 0
-4.7300 9.4891 -1.8956 -0.960 -0.248 -0.133 19 21 21 0 161
-4.6950 9.2016 -1.8280 -0.922 -0.336 -0.191 16 17 18 0 63
-4.6482 9.2048 -1.8332 0.460 -0.320 0.829 3 4 5 0 1
-4.5031 9.1470 -1.8326 0.327 -0.396 -0.858 23 23 25 0 63
-3.7719 10.2393 -2.1712 -0.818 -0.561 -0.127 10 15 16 0 0
-3.1209 8.3564 -1.7681 0.300 -0.935 0.190 24 26 36 0 0
-1.5869 9.0108 -2.0744 -0.322 -0.266 -0.909 74 43 37 0 2
-1.5433 9.0545 -2.0893 -0.213 -0.364 -0.907 83 40 28 0 0
0.1086 9.7505 -2.4171 0.428 -0.540 -0.725 119 76 59 0 53
-0.0664 8.5693 -2.1091 -0.498 -0.415 -0.761 35 13 10 0 187
-0.0438 8.5825 -2.1145 -0.675 0.002 -0.738 35 15 12 0 53
-0.0380 8.5674 -2.1113 -0.216 -0.247 -0.944 37 17 14 0 22
0.0612 8.6826 -2.1491 -0.981 -0.178 0.083 38 15 11 0 63
0.0642 8.6628 -2.1445 -0.989 0.113 -0.098 40 16 11 0 0
0.0222 8.3330 -2.0592 -0.985 0.166 -0.054 63 32 29 0 188
0.0924 8.0888 -2.0056 0.672 -0.416 0.612 89 82 84 0 189
0.2896 8.1066 -2.0286 0.195 -0.775 -0.601 56 44 44 0 64
0.3504 8.1318 -2.0405 -0.933 -0.357 0.052 56 43 43 0 190
0.4421 7.9409 -2.0021 0.426 -0.827 -0.366 29 25 26 0 191
0.6190 7.9475 -2.0204 0.262 -0.701 -0.663 33 31 32 0 32
0.6252 7.9369 -2.0184 0.143 -0.858 -0.493 40 38 39 0 0
1.5233 8.6195 -2.2716 -0.406 -0.825 0.393 89 83 79 0 63
1.5326 8.6110 -2.2704 -0.586 -0.630 0.510 78 74 70 0 0
1.6475 8.6109 -2.2813 0.481 -0.801 0.355 177 178 166 0 0
1.9388 8.6588 -2.3206 0.408 -0.676 0.613 101 98 80 0 0
1.9644 8.6686 -2.3254 0.307 -0.670 0.676 102 102 84 0 4
1.9849 8.6728 -2.3284 0.130 -0.553 0.823 114 114 98 0 0
2.1542 8.5975 -2.3258 0.291 -0.747 0.598 61 101 75 0 0
2.1766 8.6033 -2.3294 0.291 -0.747 0.598 61 99 74 0 64
-5.6693 8.2583 -1.5133 -0.288 -0.587 0.757 25 29 32 0 16
-5.6629 8.2707 -1.5170 -0.866 -0.459 0.197 25 29 32 0 0
-5.6468 8.2426 -1.5116 -0.866 -0.459 0.197 24 28 31 0 32
-5.3979 8.3782 -1.5689 0.883 -0.394 0.255 23 27 30 0 8
-5.0949 11.3795 -2.3432 -0.650 -0.719 -0.246 25 28 33 0 0
-4.7043 9.3170 -1.8679 -0.900 -0.131 0.416 16 17 19 0 63
-4.4238 8.7037 -1.7421 -0.955 -0.060 0.290 16 17 19 0 0
-3.7721 10.2425 -2.1862 -0.834 -0.528 -0.161 13 17 18 0 0
-3.1212 8.3566 -1.7795 -0.124 -0.990 0.072 24 27 36 0 0
-2.7919 7.8053 -1.6738 0.548 -0.827 0.128 127 126 134 0 161
-2.8030 7.4679 -1.5889 -0.993 0.116 0.023 141 143 148 0 0
-1.9085 9.7510 -2.2409 -0.185 -0.406 0.895 131 116 123 0 22
-1.5632 9.6470 -2.2478 -0.806 -0.228 0.546 134 119 126 0 32
-1.3577 9.0189 -2.1113 -0.696 0.008 -0.718 104 78 61 0 8
0.1236 9.7171 -2.4253 -0.920 -0.374 -0.122 119 78 61 0 161
0.1073 9.6552 -2.4084 -0.789 -0.397 -0.469 121 79 63 0 63
0.0636 8.6878 -2.1639 -0.966 -0.183 0.182 36 15 11 0 63
0.0665 8.6677 -2.1592 -0.976 -0.209 0.058 36 15 9 0 0
-0.0758 7.9829 -1.9756 -0.277 -0.136 0.951 69 37 34 0 0
0.0460 8.0204 -1.9964 0.665 -0.412 0.623 74 68 69 0 102
0.3909 8.0283 -2.0311 -0.650 -0.406 -0.642 53 46 47 0 0
0.4418 7.9415 -2.0144 0.481 -0.875 -0.046 35 31 32 0 131
0.6279 7.9602 -2.0367 0.083 -0.904 -0.420 31 29 30 0 0
0.6330 7.9480 -2.0342 -0.018 -0.789 -0.615 41 37 38 0 0
1.3538 8.5722 -2.2576 -0.136 -0.735 0.665 140 131 123 0 2
1.5339 8.6137 -2.2850 -0.557 -0.590 0.585 77 75 71 0 0
1.7221 8.6221 -2.3049 -0.007 -0.735 0.678 186 180 171 0 162
1.7377 8.6209 -2.3061 -0.007 -0.735 0.678 172 164 157 0 74
1.9218 8.6407 -2.3285 0.370 -0.611 0.700 109 105 92 0 0
1.9466 8.6497 -2.3331 0.254 -0.604 0.756 115 114 100 0 4
1.9647 8.6511 -2.3351 0.021 -0.525 0.851 126 127 113 0 8
2.1422 8.5855 -2.3357 0.281 -0.840 0.464 68 108 81 0 0
2.1587 8.5851 -2.3371 0.327 -0.902 0.281 67 106 79 0 0
-5.6471 8.2440 -1.5220 -0.851 -0.507 0.136 24 27 31 0 0
-5.3989 8.3829 -1.5804 0.735 -0.388 0.556 22 25 29 0 0
-5.3881 8.3780 -1.5802 -0.816 -0.434 0.382 24 27 32 0 0
-5.1243 11.3733 -2.3544 0.541 -0.335 0.772 26 29 34 0 161
-5.1112 11.3909 -2.3601 0.537 -0.332 0.776 26 29 34 0 63
-4.7026 9.2939 -1.8746 -0.907 -0.109 0.408 18 19 21 0 63
-3.1216 8.3559 -1.7907 -0.373 -0.921 -0.115 22 25 34 0 0
-2.1286 8.9551 -2.0351 -0.915 -0.144 -0.377 133 118 124 0 22
-1.6412 9.5459 -2.2293 -0.449 -0.391 0.803 134 120 128 0 4
-1.6306 9.5324 -2.2269 -0.507 -0.390 0.769 134 120 128 0 8
-1.6072 9.5127 -2.2242 -0.501 -0.350 0.791 133 120 127 0 32
-1.2858 9.2096 -2.1791 -0.838 0.062 -0.542 103 74 56 0 0
-1.1676 9.3628 -2.2287 0.886 -0.459 -0.060 103 68 54 0 0
-0.4289 9.7383 -2.3929 -0.828 0.125 -0.547 119 74 53 0 74
-0.4187 9.7251 -2.3906 -0.846 0.106 -0.522 119 74 53 0 22
-0.4991 9.4840 -2.3227 -0.897 0.112 -0.428 118 74 54 0 63
0.4916 9.8902 -2.5187 0.629 -0.650 -0.427 116 78 62 0 161
0.4738 9.8284 -2.5015 -0.787 -0.348 -0.510 115 77 61 0 63
0.0615 8.6856 -2.1764 -0.923 -0.263 0.282 37 15 12 0 63
0.0663 8.6687 -2.1726 -0.954 -0.252 0.163 33 14 8 0 0
0.0016 8.2800 -2.0693 -0.676 0.113 -0.728 60 31 27 0 74
0.0182 8.2834 -2.0717 -0.394 -0.219 -0.893 68 39 35 0 22
-0.0759 7.9419 -1.9773 0.507 -0.301 0.808 48 23 22 0 64
0.0802 8.0727 -2.0249 0.382 -0.783 -0.492 66 60 61 0 234
0.1035 8.0866 -2.0306 0.317 -0.756 -0.573 68 59 60 0 74
0.3985 7.9612 -2.0274 -0.422 -0.292 0.858 43 39 40 0 64
1.3172 8.5680 -2.2667 -0.309 -0.804 0.507 128 114 106 0 0
1.3379 8.5737 -2.2701 -0.496 -0.672 0.549 136 125 117 0 32
1.3484 8.5668 -2.2693 -0.294 -0.796 0.529 136 127 120 0 0
1.5497 8.5749 -2.2905 -0.188 -0.574 0.797 143 145 137 0 0
1.7127 8.6123 -2.3154 -0.021 -0.701 0.713 184 177 169 0 239
1.7280 8.6107 -2.3165 -0.021 -0.701 0.713 174 167 158 0 74
2.0181 8.5616 -2.3319 0.059 -0.742 0.668 83 119 94 0 0
2.0809 8.5752 -2.3412 0.177 -0.975 0.134 85 126 100 0 0
2.1311 8.5747 -2.3459 0.256 -0.915 0.311 75 115 89 0 4
2.1520 8.5789 -2.3489 0.327 -0.902 0.281 73 112 85 0 0
-5.6916 8.1594 -1.5066 -0.110 -0.571 -0.814 25 25 33 0 63
-5.6775 8.2533 -1.5316 0.906 -0.404 -0.123 23 25 31 0 1
-5.6418 8.2609 -1.5369 0.388 -0.377 0.841 21 25 30 0 4
-5.3976 8.3763 -1.5893 0.779 -0.392 0.490 22 25 30 0 0
-5.3848 8.3608 -1.5867 -0.671 -0.397 0.626 24 27 32 0 1
-4.6997 9.2563 -1.8777 -0.780 -0.019 0.625 21 22 24 0 63
-4.6475 9.1892 -1.8658 -0.422 -0.115 0.900 4 5 7 0 0
-4.6346 9.1738 -1.8631 0.218 -0.255 0.942 3 4 5 0 2
-4.5489 9.1179 -1.8573 -0.493 -0.114 0.862 12 12 12 0 25
-4.5042 9.1580 -1.8716 -0.604 -0.109 0.790 22 22 24 0 63
-4.4952 9.2106 -1.8857 -0.775 0.001 0.632 22 22 24 0 0
-2.1970 9.4344 -2.1620 -0.585 -0.562 0.585 132 117 124 0 63
-1.9167 8.8509 -2.0420 0.339 -0.580 -0.741 136 125 133 0 63
-1.5988 9.4946 -2.2345 -0.189 -0.705 0.683 135 122 129 0 16
-1.5851 9.4912 -2.2349 -0.126 -0.693 0.710 135 122 129 0 32
0.0587 8.6822 -2.1885 -0.938 -0.224 0.265 39 17 14 0 63
0.0650 8.6677 -2.1855 -0.937 -0.238 0.256 34 14 10 0 0
0.1118 8.4785 -2.1424 -0.914 0.113 -0.390 51 22 18 0 93
0.0561 8.3443 -2.1033 -0.510 -0.173 -0.843 67 38 34 0 22
0.1255 8.1418 -2.0589 -0.244 -0.550 -0.799 76 71 72 0 94
0.1347 8.1343 -2.0579 -0.404 -0.542 -0.737 79 72 71 0 75
0.4937 8.1730 -2.1020 -0.135 -0.338 -0.931 41 35 35 0 8
0.4820 8.1366 -2.0917 -0.417 -0.150 -0.896 38 33 34 0 0
0.4664 8.0749 -2.0747 -0.604 -0.008 -0.797 40 36 37 0 0
1.2219 8.5703 -2.2717 -0.009 -0.833 0.552 103 85 81 0 63
1.4973 8.7942 -2.3544 -0.596 -0.154 0.788 119 103 97 0 1
1.5858 8.8419 -2.3749 -0.454 -0.106 0.885 114 104 100 0 8
1.7612 8.5927 -2.3290 -0.016 -0.668 0.744 118 110 101 0 63
1.8640 8.5963 -2.3397 0.324 -0.625 0.710 119 115 111 0 0
2.0055 8.5488 -2.3413 0.006 -0.814 0.581 77 113 89 0 0
2.0594 8.5528 -2.3475 0.317 -0.777 0.544 82 120 95 0 0
2.1453 8.5728 -2.3607 0.327 -0.902 0.281 75 114 87 0 0
-5.6604 8.2993 -1.5550 -0.672 -0.098 0.734 24 27 33 0 0
-5.4393 7.9816 -1.4958 -0.156 -0.298 -0.942 25 26 31 0 0
-5.3985 8.3804 -1.6008 0.469 -0.811 -0.350 22 25 30 0 0
-4.6965 9.2139 -1.8795 -0.741 0.010 0.672 21 23 26 0 63
-4.6416 9.1068 -1.8576 0.497 -0.354 0.792 5 6 8 0 0
-4.6338 9.1605 -1.8720 0.814 -0.412 0.409 3 4 5 0 2
-4.6048 9.2517 -1.8979 0.892 -0.411 -0.186 4 4 4 0 0
-4.4920 9.1480 -1.8824 -0.704 -0.014 0.710 22 22 24 0 0
-4.2528 9.7180 -2.0499 -0.172 -0.256 0.951 8 8 8 0 2
-2.8293 9.0195 -2.0097 0.910 -0.284 -0.304 113 116 121 0 2
-2.7848 7.5056 -1.6303 -0.967 0.010 0.255 148 150 157 0 0
-2.1912 9.5168 -2.1970 0.826 -0.493 -0.272 132 119 126 0 161
-2.1875 9.4744 -2.1866 -0.578 -0.313 0.754 132 119 126 0 63
-1.8554 9.6270 -2.2572 0.099 -0.314 -0.944 135 123 132 0 0
-1.2097 9.2955 -2.2353 0.241 -0.424 -0.873 108 72 56 0 32
-0.5813 9.8374 -2.4330 -0.595 -0.051 -0.802 111 68 49 0 0
-0.4567 9.9330 -2.4692 0.433 -0.257 0.864 113 68 49 0 4
-0.3902 9.6846 -2.4127 0.764 -0.561 0.320 118 75 56 0 0
0.0566 8.7552 -2.2201 0.661 -0.413 0.626 54 19 17 0 75
0.0599 8.6854 -2.2027 -0.952 -0.305 0.006 43 18 16 0 63
0.0651 8.6692 -2.1991 -0.952 -0.305 0.006 36 16 12 0 0
0.1408 8.1659 -2.0789 -0.195 -0.510 -0.838 84 81 82 0 213
0.1512 8.1600 -2.0784 -0.247 -0.493 -0.834 86 80 79 0 75
0.5114 8.1379 -2.1074 -0.520 -0.052 -0.853 20 17 18 0 0
0.4996 8.1018 -2.0971 -0.559 0.013 -0.829 25 22 23 0 2
0.4766 8.0505 -2.0819 -0.622 0.021 -0.783 33 30 31 0 0
0.6174 7.9497 -2.0699 0.505 -0.861 -0.064 27 25 25 0 32
0.6419 7.9628 -2.0755 0.440 -0.845 -0.306 33 29 29 0 0
1.5423 8.8307 -2.3820 -0.431 -0.164 0.888 123 112 108 0 0
1.5606 8.8326 -2.3843 -0.434 -0.105 0.895 116 108 103 0 16
1.5721 8.8262 -2.3838 -0.454 -0.106 0.885 106 99 95 0 0
1.5795 8.5349 -2.3106 -0.142 -0.677 0.722 178 172 158 0 0
1.7094 8.6107 -2.3424 0.502 -0.837 0.217 184 179 169 0 218
1.8497 8.5811 -2.3484 0.283 -0.668 0.688 93 89 89 0 0
2.0476 8.5409 -2.3572 0.231 -0.726 0.647 79 117 92 0 64
2.0726 8.5499 -2.3619 0.380 -0.780 0.497 81 119 94 0 128
2.1150 8.5595 -2.3684 0.327 -0.902 0.281 85 123 98 0 0
2.1386 8.5668 -2.3725 0.327 -0.902 0.281 80 119 92 0 0
-5.7116 8.3929 -1.5842 -0.589 -0.058 0.806 22 25 32 0 8
-5.6680 8.2916 -1.5625 -0.646 -0.077 0.759 26 29 37 0 0
-5.6437 8.2297 -1.5491 -0.672 -0.098 0.734 24 28 36 0 0
-5.6339 8.4739 -1.6124 0.300 -0.353 0.886 20 25 28 0 22
-5.6249 8.4774 -1.6141 -0.494 -0.119 0.861 21 24 29 0 161
-5.3942 8.3582 -1.6060 0.486 -0.554 -0.676 23 26 31 0 0
-5.3777 8.3743 -1.6117 0.818 -0.496 -0.290 28 31 38 0 32
-5.3273 8.4751 -1.6423 -0.409 -0.504 -0.761 21 22 27 0 75
-4.6993 9.2476 -1.8999 -0.722 0.023 0.691 20 24 27 0 63
-4.6389 9.0688 -1.8602 0.908 -0.399 -0.126 6 7 9 0 0
-4.6336 9.1554 -1.8828 0.908 -0.336 -0.249 3 5 5 0 0
-4.5303 8.9952 -1.8519 -0.502 -0.110 0.858 13 13 13 0 76
-3.8449 9.0345 -1.9281 -0.323 -0.256 0.911 64 64 66 0 32
-3.7275 9.4392 -2.0426 0.853 -0.374 0.363 14 15 20 0 161
-3.0402 8.6614 -1.9106 0.943 -0.292 -0.158 115 115 116 218 14
-2.8989 8.9166 -1.9893 -0.852 -0.021 0.523 123 124 128 192 0
-2.8911 8.7421 -1.9455 0.848 -0.335 -0.411 112 116 119 191 2
-2.6711 8.8995 -2.0070 -0.985 -0.135 0.107 125 126 130 178 0
-2.1863 9.4808 -2.2020 -0.725 -0.255 -0.640 134 121 128 216 63
-0.5114 9.4621 -2.3590 0.319 -0.775 -0.546 116 73 54 0 63
-1.0679 7.5573 -1.8193 -0.959 -0.176 0.222 118 75 61 0 38
0.3470 9.6696 -2.4948 0.180 -0.336 0.925 115 77 63 0 22
0.3389 9.6255 -2.4827 0.093 -0.292 0.952 115 78 62 0 161
0.1535 8.5470 -2.1897 -0.795 -0.052 0.605 46 17 15 0 49
0.1770 8.5135 -2.1834 -0.072 -0.462 -0.884 57 29 25 0 161
0.1347 8.1579 -2.0886 -0.038 -0.418 -0.908 82 80 81 68 50
0.1502 8.1598 -2.0906 -0.069 -0.430 -0.900 85 81 80 76 76
0.6062 7.9175 -2.0728 0.604 -0.774 -0.189 33 29 28 0 4
1.5700 8.5248 -2.3208 -0.140 -0.665 0.734 166 162 150 0 0
1.7075 8.6096 -2.3557 0.084 -0.951 -0.298 184 181 171 0 93
1.7243 8.6100 -2.3574 0.054 -0.991 -0.119 184 181 168 0 76
1.7386 8.6073 -2.3581 -0.068 -0.956 -0.286 181 176 162 0 22
1.7557 8.6079 -2.3599 -0.898 -0.192 -0.396 171 163 151 0 161
1.7383 8.5686 -2.3482 -0.014 -0.619 0.785 153 144 134 0 63
1.7534 8.5669 -2.3492 -0.014 -0.619 0.785 130 119 112 0 0
1.7885 8.5503 -2.3484 -0.412 -0.450 0.793 75 70 70 0 0
1.7991 8.5435 -2.3477 -0.364 -0.487 0.794 69 65 66 0 2
1.8381 8.5691 -2.3580 0.183 -0.580 0.794 69 66 67 0 0
1.8716 8.5694 -2.3613 0.312 -0.650 0.693 82 82 79 0 0
2.0605 8.5379 -2.3715 0.380 -0.780 0.497 80 115 91 0 0
-5.6222 7.9163 -1.4808 -0.772 -0.134 0.622 22 25 32 66 0
-5.6823 8.2726 -1.5665 -0.566 -0.059 0.822 22 25 33 41 128
-5.6480 8.2085 -1.5534 -0.658 -0.084 0.748 25 29 38 37 1
-5.6086 8.4056 -1.6078 -0.444 -0.133 0.886 21 24 29 191 161
-5.4580 8.4320 -1.6292 0.885 -0.465 0.002 22 26 29 192 161
-5.3929 8.3515 -1.6148 0.675 -0.646 -0.358 24 27 32 7 32
-4.6932 9.1694 -1.8927 -0.738 0.029 0.675 20 24 27 0 63
-4.6385 9.0609 -1.8701 0.881 -0.340 -0.328 6 9 10 0 1
-4.6343 9.1626 -1.8966 0.871 -0.318 -0.375 3 5 5 0 0
-4.5195 9.0052 -1.8673 -0.974 -0.139 0.177 13 13 13 0 22
-4.4873 9.0523 -1.8826 0.100 -0.300 0.949 23 23 25 0 0
-4.4495 9.2428 -1.9351 -0.976 -0.130 -0.173 20 21 24 0 0
-4.2241 8.7737 -1.8365 -0.942 0.036 0.335 8 8 9 0 0
-4.2084 8.4945 -1.7664 -0.930 0.040 0.365 8 8 9 0 2
-3.8357 8.9637 -1.9230 -0.038 -0.174 0.984 61 60 62 0 0
-3.8226 8.9898 -1.9310 -0.163 -0.388 0.907 72 71 74 0 4
-3.6174 9.5467 -2.0938 -0.912 -0.156 -0.380 14 16 21 0 4
-2.8323 9.0065 -2.0313 0.838 -0.334 -0.432 113 115 120 100 0
-2.8071 9.0754 -2.0514 0.877 -0.331 -0.349 119 121 126 29 64
-2.6648 8.8061 -1.9960 -0.926 -0.289 -0.242 126 125 131 218 2
-2.1982 9.4351 -2.2028 -0.861 -0.248 0.443 137 124 131 0 63
-2.2549 8.8899 -2.0573 -0.807 -0.221 0.548 135 122 129 0 8
-1.9027 9.4156 -2.2264 -0.384 -0.532 0.755 136 126 135 0 0
-1.1983 9.6080 -2.3441 0.387 -0.227 0.894 99 57 39 0 63
-1.2110 9.3340 -2.2726 0.039 -0.437 -0.899 104 65 49 0 0
-1.1294 9.4674 -2.3147 0.846 -0.533 -0.029 107 68 54 0 0
0.3271 9.6359 -2.4992 -0.023 -0.344 0.939 115 76 62 0 22
0.3023 9.5625 -2.4779 -0.832 -0.002 0.555 114 77 61 0 161
0.0631 8.7432 -2.2444 0.687 -0.726 -0.026 63 23 19 0 22
0.0881 8.1966 -2.1065 -0.997 0.067 0.036 51 34 33 0 0
0.1605 8.1977 -2.1138 -0.772 -0.087 0.630 93 93 95 0 89
0.1885 8.2181 -2.1217 -0.781 -0.217 -0.586 101 99 100 0 77
0.3649 8.1591 -2.1237 -0.176 -0.282 0.943 19 13 14 0 90
0.4636 8.1144 -2.1218 -0.631 -0.046 0.775 14 10 11 0 32
0.6171 7.9328 -2.0900 0.555 -0.771 0.312 45 42 41 0 32
1.2734 8.4981 -2.2988 0.535 -0.822 0.194 72 63 60 0 32
1.5409 8.7285 -2.3839 0.424 -0.297 0.856 106 102 96 0 97
1.7255 8.6319 -2.3770 0.024 -0.927 -0.374 181 178 168 0 98
1.7366 8.6255 -2.3764 -0.156 -0.916 -0.369 181 178 166 0 77
1.7378 8.5500 -2.3571 -0.962 -0.122 -0.243 149 138 131 0 0
1.7816 8.5435 -2.3597 -0.040 -0.656 0.754 73 68 69 0 128
1.8010 8.5468 -2.3625 0.116 -0.640 0.760 67 63 64 0 0
1.8236 8.5537 -2.3664 0.188 -0.596 0.781 68 65 66 0 0
2.0422 8.5374 -2.3834 0.457 -0.862 0.219 73 108 84 0 64
2.0504 8.5280 -2.3818 0.386 -0.848 0.363 78 113 89 0 0
-5.6624 8.1910 -1.5575 -0.478 -0.102 0.872 22 26 33 0 0
-5.6287 8.1283 -1.5446 -0.639 -0.099 0.763 25 29 37 0 0
-5.5910 8.0472 -1.5273 -0.528 -0.124 0.840 24 28 37 0 0
-5.5920 8.0899 -1.5382 -0.005 -0.263 0.965 23 27 35 0 0
-5.3912 8.3428 -1.6231 -0.527 -0.802 0.282 25 28 33 0 4
-4.6395 9.0727 -1.8849 0.881 -0.340 -0.328 6 10 11 0 2
-4.6320 9.1290 -1.9002 0.868 -0.298 -0.397 2 5 5 0 2
-4.5377 9.1155 -1.9059 -0.965 -0.106 0.241 10 10 10 0 77
-4.5016 8.8890 -1.8509 -0.518 -0.273 0.811 15 15 16 0 161
-3.8243 8.9535 -1.9335 -0.032 -0.176 0.984 57 55 58 0 0
-3.7857 9.0084 -1.9515 0.834 -0.371 0.409 74 74 78 0 128
-3.6410 9.5966 -2.1176 -0.861 -0.145 -0.488 12 15 20 0 0
-3.6313 9.5398 -2.1039 -0.924 -0.101 -0.370 13 16 21 0 128
-3.1265 8.3327 -1.8410 0.851 -0.484 0.206 24 26 31 0 2
-2.8556 8.9497 -2.0269 0.833 -0.327 -0.447 111 112 116 0 4
-2.7869 9.1907 -2.0958 0.825 -0.343 -0.449 119 120 125 0 129
-2.6666 8.7992 -2.0064 -0.975 -0.204 -0.086 127 126 132 0 129
-2.7895 7.4444 -1.6443 0.946 -0.324 -0.022 154 157 166 0 129
-2.0670 9.1865 -2.1649 -0.991 -0.032 0.130 138 125 133 0 22
-1.9195 9.4090 -2.2367 -0.497 -0.471 0.728 136 126 135 0 0
-1.9056 9.3575 -2.2248 -0.916 -0.401 0.027 136 128 137 0 0
-1.1744 9.3915 -2.3048 -0.086 -0.421 -0.903 107 68 53 0 0
-1.1676 9.3317 -2.2900 -0.490 -0.347 -0.800 110 71 56 0 0
-1.0777 9.2942 -2.2890 -0.849 0.025 -0.528 113 70 54 0 63
-0.4729 9.5472 -2.4133 0.812 -0.577 0.082 114 71 54 0 63
0.0673 8.7768 -2.2668 0.404 -0.623 -0.670 65 25 18 0 77
0.0630 8.7443 -2.2580 0.218 -0.650 -0.728 65 25 18 0 22
0.4674 8.1409 -2.1414 -0.699 -0.005 -0.715 15 13 14 0 16
0.4779 8.1152 -2.1358 -0.796 -0.052 -0.603 14 12 13 0 32
0.4602 8.0314 -2.1124 -0.446 -0.144 0.883 15 13 14 0 0
0.4902 7.9173 -2.0859 -0.154 -0.439 -0.885 29 24 25 0 0
0.6201 7.9377 -2.1038 0.582 -0.791 0.186 43 42 40 0 4
1.2753 8.5215 -2.3185 0.074 -0.760 0.646 82 67 66 0 0
1.2671 8.4913 -2.3099 0.535 -0.822 0.194 71 62 60 0 0
1.3221 8.5200 -2.3227 0.472 -0.842 0.262 65 61 58 0 64
1.5415 8.7101 -2.3931 0.634 -0.765 -0.110 144 133 125 0 77
1.7274 8.6353 -2.3919 0.207 -0.969 0.137 177 174 162 0 191
1.7444 8.6358 -2.3937 0.113 -0.990 -0.079 180 176 165 0 77
1.7393 8.5530 -2.3718 -0.812 -0.024 -0.584 160 151 143 0 0
1.7661 8.5269 -2.3677 -0.502 -0.621 0.602 84 76 75 236 8
1.7880 8.5330 -2.3714 0.302 -0.738 0.604 70 64 65 18 0
1.8096 8.5389 -2.3750 0.233 -0.718 0.656 65 62 63 234 16
1.8364 8.5506 -2.3807 0.414 -0.908 0.068 58 57 57 187 0
1.8884 8.4788 -2.3671 -0.187 -0.205 0.961 78 113 87 116 22
1.9272 8.4851 -2.3725 0.311 -0.723 0.617 75 111 85 216 63
2.0129 8.5064 -2.3864 0.367 -0.865 0.342 72 108 82 23 0
2.0414 8.5193 -2.3925 0.386 -0.848 0.363 76 112 86 146 2
-5.3926 8.3497 -1.6352 -0.772 -0.635 -0.031 26 29 34 85 0
-5.3913 8.3933 -1.6466 -0.291 -0.957 0.003 29 32 39 207 1
-4.6861 8.9354 -1.8566 -0.140 -0.286 0.948 21 24 28 188 161
-4.6321 9.1288 -1.9122 0.876 -0.302 -0.376 3 6 7 56 0
-4.5184 8.9812 -1.8849 -0.984 -0.176 -0.003 11 11 11 126 22
-4.4987 8.8338 -1.8485 -0.939 -0.312 0.143 14 14 15 189 161
-4.4896 8.8738 -1.8598 0.579 -0.607 0.544 19 19 21 205 63
-3.7879 8.9656 -1.9523 0.767 -0.327 0.553 76 77 80 192 207
-3.6128 9.6284 -2.1418 -0.855 -0.221 -0.469 12 16 21 59 0
-3.1431 8.3009 -1.8425 0.858 -0.446 0.254 20 23 28 168 4
-3.1281 8.3243 -1.8500 0.841 -0.475 0.259 25 27 32 26 8
-2.9259 8.7636 -1.9841 -0.899 -0.425 -0.107 123 124 126 69 0
-2.8447 9.0137 -2.0571 0.887 -0.316 -0.336 109 110 114 60 1
-2.8094 9.1405 -2.0935 0.874 -0.332 -0.354 111 112 117 189 0
-2.6632 8.7560 -2.0078 -0.969 -0.099 0.227 127 126 132 110 2
-2.6972 7.9393 -1.7920 -0.988 0.100 0.114 139 142 147 64 0
-1.2025 9.3202 -2.2974 0.392 -0.688 -0.612 110 69 54 188 0
-1.1637 9.3432 -2.3072 -0.846 -0.120 -0.520 110 71 56 150 0
-0.5236 9.4405 -2.3951 0.780 -0.597 0.188 114 71 55 181 63
0.0568 8.7861 -2.2816 0.335 -0.593 -0.732 64 25 18 0 9
0.0970 8.8279 -2.2964 0.404 -0.623 -0.670 63 23 15 0 78
0.0533 8.6546 -2.2471 -0.528 -0.060 -0.847 52 17 16 0 0
0.0455 8.4964 -2.2052 -0.766 -0.640 -0.059 28 12 8 63 0
0.1570 8.5090 -2.2193 -0.988 0.113 0.108 47 20 16 162 22
0.1311 8.1559 -2.1250 -0.511 -0.213 0.833 144 145 147 175 11
0.1582 8.1750 -2.1326 -0.355 -0.136 0.925 150 150 152 183 78
0.3840 8.1886 -2.1582 -0.257 -0.281 -0.925 23 19 23 120 16
0.4260 8.1860 -2.1616 -0.148 -0.333 -0.931 20 16 19 191 161
0.4443 8.1913 -2.1648 -0.106 -0.309 -0.945 20 18 20 79 63
0.4570 8.1886 -2.1653 -0.106 -0.309 -0.945 17 15 17 109 0
0.5813 7.9256 -2.1091 0.129 -0.947 -0.295 36 34 33 191 64
0.5996 7.9308 -2.1122 0.454 -0.887 -0.084 37 36 34 147 0
0.6595 7.9900 -2.1335 0.650 -0.651 0.393 39 38 36 233 128
1.1486 8.5233 -2.3200 -0.122 -0.491 0.862 99 92 84 0 22
1.1898 8.5152 -2.3220 -0.007 -0.656 0.755 100 71 67 0 0
1.2679 8.5133 -2.3291 0.158 -0.803 0.574 85 67 69 0 2
1.2590 8.4824 -2.3202 0.552 -0.798 0.242 74 63 64 0 0
1.2978 8.5108 -2.3314 0.371 -0.878 0.302 64 59 59 0 4
1.5315 8.4827 -2.3469 -0.467 -0.523 0.713 126 122 118 0 64
1.7328 8.6429 -2.4083 0.249 -0.907 -0.340 171 164 154 0 20
1.7461 8.5619 -2.3885 -0.694 -0.008 -0.720 161 153 144 0 0
1.7764 8.5209 -2.3808 0.406 -0.746 0.527 76 69 68 0 1
1.7977 8.5265 -2.3843 0.233 -0.718 0.656 58 54 53 0 0
1.8271 8.5412 -2.3911 0.422 -0.852 0.309 52 52 49 0 2
1.8712 8.4792 -2.3792 -0.237 -0.116 0.964 78 116 90 0 78
1.8775 8.4678 -2.3769 -0.231 -0.192 0.954 81 117 91 0 22
1.8933 8.4671 -2.3782 0.183 -0.632 0.753 82 118 92 0 161
1.9148 8.4726 -2.3818 0.299 -0.762 0.574 82 118 92 0 63
2.0048 8.4986 -2.3973 0.367 -0.865 0.342 74 110 84 0 0
2.0578 8.5201 -2.4081 0.386 -0.848 0.363 75 111 85 0 0
-5.6043 8.0268 -1.5403 -0.344 -0.159 0.925 26 32 38 0 16
-5.5954 8.0655 -1.5513 0.691 -0.402 0.601 26 33 39 0 32
-5.3924 8.3483 -1.6452 -0.734 -0.674 0.086 26 29 35 0 2
-5.2504 8.2118 -1.6235 -0.790 -0.082 0.607 25 26 30 0 63
-4.6916 8.8635 -1.8489 -0.935 -0.203 -0.292 23 27 31 0 22
-4.6638 8.7952 -1.8338 -0.913 -0.163 0.373 22 26 29 0 63
-4.6516 8.7818 -1.8315 0.323 -0.394 0.861 21 25 28 0 0
-4.6266 9.0491 -1.9039 0.945 -0.320 0.063 5 7 9 0 0
-4.5185 8.9801 -1.8965 -0.987 -0.159 0.024 11 11 11 0 22
-4.4986 8.8303 -1.8592 -0.719 -0.266 0.642 14 14 15 0 161
-4.4495 9.2323 -1.9692 -0.864 0.019 0.503 22 23 26 0 0
-4.1597 9.2520 -2.0029 -0.549 -0.260 -0.795 6 8 7 0 78
-3.6699 9.3353 -2.0728 0.010 -0.284 0.959 15 20 23 69 0
-3.6234 9.4644 -2.1111 0.842 -0.469 -0.267 11 16 20 188 64
-3.6099 9.4710 -2.1142 -0.644 -0.240 -0.726 12 17 23 241 0
-3.6039 9.3653 -2.0871 -0.489 -0.277 -0.827 11 16 22 69 0
-3.1441 8.2961 -1.8524 0.815 -0.508 0.279 21 24 29 61 0
-3.1298 8.3151 -1.8588 0.841 -0.495 0.217 28 30 34 255 0
-2.7845 9.2083 -2.1265 0.912 -0.342 -0.226 117 118 123 27 0
-2.6635 8.7562 -2.0200 -0.906 -0.123 0.405 126 125 130 159 0
-1.8358 9.6523 -2.3359 -0.402 -0.203 -0.893 137 130 138 207 0
-2.0519 8.2633 -1.9511 -0.381 -0.915 0.135 140 129 133 54 2
-2.0415 8.2572 -1.9505 -0.620 -0.775 0.121 140 129 133 87 0
-1.1996 9.2906 -2.3037 0.435 -0.858 0.272 110 71 56 14 0
-1.0985 9.2828 -2.3116 -0.978 0.107 -0.177 114 72 58 188 161
0.1149 8.8850 -2.3266 0.624 -0.727 -0.288 62 24 18 147 149
0.1255 8.8768 -2.3255 0.309 -0.384 0.870 61 22 14 200 78
0.1103 8.8258 -2.3107 0.431 -0.387 0.815 62 20 13 47 22
0.0462 8.1144 -2.1182 0.467 -0.644 0.606 103 98 96 194 0
0.0620 8.1169 -2.1204 0.531 -0.652 0.541 131 131 130 3 0
0.1306 8.1562 -2.1374 0.655 -0.643 0.398 146 148 150 208 204
0.3924 8.2016 -2.1750 -0.905 -0.077 -0.419 39 36 41 114 205
0.4542 8.2063 -2.1823 0.518 -0.631 0.578 35 33 35 0 63
0.4834 8.2267 -2.1905 0.688 -0.696 0.207 31 29 32 0 0
0.4786 8.1587 -2.1722 -0.334 -0.135 -0.933 27 26 26 0 0
0.4543 8.1048 -2.1557 -0.334 -0.135 -0.933 24 24 24 0 0
0.5867 7.9337 -2.1239 0.087 -0.881 -0.465 19 18 16 0 2
0.6134 7.9498 -2.1308 0.137 -0.752 -0.645 20 19 17 0 32
1.2730 8.5010 -2.3398 0.088 -0.854 0.513 72 59 63 0 0
1.2932 8.5063 -2.3432 0.367 -0.861 0.353 68 60 62 0 0
1.4535 8.5258 -2.3641 -0.513 -0.599 0.614 142 136 123 0 0
1.5242 8.4751 -2.3577 -0.443 -0.547 0.710 96 90 88 0 2
1.7428 8.6558 -2.4265 0.320 -0.911 -0.260 142 132 123 0 244
1.7519 8.5129 -2.3900 -0.306 -0.839 0.450 111 102 96 0 32
1.7882 8.5169 -2.3946 0.338 -0.730 0.594 66 60 57 0 0
1.8147 8.5282 -2.4002 0.186 -0.736 0.651 54 54 50 0 0
1.9128 8.4715 -2.3950 0.025 -0.821 0.571 80 119 92 197 63
1.9274 8.4694 -2.3958 -0.046 -0.732 0.680 80 119 92 89 0
1.9994 8.4939 -2.4093 0.246 -0.961 0.128 76 115 88 236 0
2.0428 8.5049 -2.4165 0.395 -0.897 0.198 73 112 85 70 0
-5.5849 7.9835 -1.5405 -0.355 -0.175 0.918 28 34 40 188 0
-5.5852 8.0609 -1.5609 0.437 -0.325 0.839 26 33 38 54 0
-4.6163 9.0645 -1.9209 0.927 -0.334 0.171 3 4 6 0 0
-4.6067 9.0942 -1.9296 0.883 -0.339 0.324 4 5 6 0 0
-4.4751 8.8087 -1.8674 -0.822 -0.414 0.391 20 21 22 0 0
-4.1610 9.4008 -2.0544 0.037 -0.385 0.922 7 9 8 0 79
-3.6127 9.4324 -2.1168 0.672 -0.657 0.342 11 18 22 0 0
-3.5971 9.4710 -2.1285 0.400 -0.861 0.314 11 18 23 0 8
-3.1310 8.3088 -1.8683 0.841 -0.495 0.217 30 31 35 60 16
-2.9512 8.8413 -2.0263 -0.375 -0.085 0.923 127 127 128 40 0
-2.6833 8.8483 -2.0546 -0.314 -0.396 0.863 122 123 127 56 0
-2.1915 9.4123 -2.2516 -0.887 -0.181 0.424 144 133 139 248 0
-2.1039 9.4212 -2.2626 -0.357 -0.340 -0.870 143 132 138 187 0
-1.9624 9.2155 -2.2224 -0.601 -0.084 -0.795 138 131 138 7 1
-2.0425 8.2553 -1.9615 -0.627 -0.747 0.223 140 130 135 109 16
-0.2031 9.8441 -2.5615 0.200 -0.491 -0.848 115 71 55 198 0
-0.2981 9.6147 -2.4917 -0.815 -0.297 -0.498 115 70 55 30 0
-0.1502 9.4277 -2.4570 -0.213 -0.948 -0.237 115 74 57 0 2
-0.1141 9.4662 -2.4708 -0.711 -0.225 0.666 115 74 58 0 4
-1.0469 7.5794 -1.8817 -0.014 -0.183 0.983 115 77 58 0 79
0.1871 9.3079 -2.4587 -0.898 -0.028 -0.439 110 72 56 0 0
0.1098 8.8518 -2.3310 0.309 -0.384 0.870 60 22 15 0 79
0.0952 8.8018 -2.3163 0.254 -0.333 0.908 60 20 13 0 22
0.1101 8.8012 -2.3177 -0.298 -0.162 0.941 61 19 14 0 161
0.1212 8.7943 -2.3169 -0.202 -0.425 0.882 63 22 18 0 63
0.0830 8.3948 -2.2079 0.768 -0.641 -0.014 52 22 16 0 22
0.0609 8.1164 -2.1324 0.453 -0.508 0.732 134 134 135 0 0
0.1179 8.1383 -2.1438 0.645 -0.643 0.413 152 151 153 0 72
0.2096 8.0846 -2.1387 0.388 -0.596 -0.703 82 70 69 0 0
0.4009 8.2779 -2.2085 0.163 -0.564 -0.810 66 59 61 0 0
0.5325 8.2347 -2.2101 -0.689 -0.001 -0.725 46 43 44 0 0
0.4597 8.0340 -2.1500 -0.354 -0.164 -0.921 25 20 21 192 0
0.6284 7.9517 -2.1450 0.461 -0.723 -0.514 15 14 12 180 2
1.8102 8.6772 -2.4527 -0.001 -0.996 -0.086 121 113 109 0 161
1.7796 8.5082 -2.4051 0.260 -0.918 0.298 66 61 57 0 0
1.8034 8.5166 -2.4097 0.211 -0.810 0.547 52 54 48 0 0
1.8146 8.5105 -2.4092 -0.132 -0.378 0.916 50 61 52 0 0
1.8182 8.4959 -2.4057 -0.530 -0.177 0.830 54 73 62 0 0
1.8660 8.4390 -2.3954 0.284 -0.602 0.746 76 115 88 0 161
1.8877 8.4447 -2.3991 0.351 -0.694 0.628 77 115 88 0 63
1.9115 8.4529 -2.4036 0.225 -0.897 0.381 79 115 89 0 0
1.9850 8.4792 -2.4177 0.395 -0.897 0.198 82 118 92 0 0
2.0109 8.4894 -2.4230 0.395 -0.897 0.198 78 115 89 0 2
2.0370 8.4997 -2.4283 0.395 -0.897 0.198 79 116 90 0 0
-5.5939 7.9832 -1.5493 0.028 -0.347 0.937 29 32 39 0 2
-5.5809 7.9666 -1.5462 0.552 -0.468 0.691 29 34 40 0 0
-5.5833 8.0147 -1.5587 0.864 -0.366 -0.347 29 34 40 0 4
-5.5842 8.0568 -1.5698 0.414 -0.314 0.854 28 33 38 0 0
-5.4049 8.4115 -1.6816 -0.692 -0.487 -0.533 26 29 37 0 0
-5.3875 8.3729 -1.6730 -0.456 -0.850 -0.266 27 31 40 0 1
-5.3774 8.3713 -1.6736 0.713 -0.686 -0.145 28 32 40 0 0
-4.6134 9.0221 -1.9218 0.457 -0.278 0.845 5 5 7 0 2
-4.6031 9.0390 -1.9273 0.517 -0.299 0.802 4 4 5 0 2
-4.5920 9.0451 -1.9301 0.385 -0.277 0.881 5 5 5 0 2
-3.1296 8.3200 -1.8827 0.927 -0.331 -0.178 31 32 35 0 4
-2.9562 8.8125 -2.0304 -0.409 -0.076 0.909 125 125 127 0 0
-2.6782 8.8756 -2.0747 0.441 -0.811 0.384 120 121 126 0 8
-2.5905 8.3053 -1.9322 0.921 -0.322 -0.218 151 153 165 64 0
-2.3083 9.0566 -2.1593 0.777 -0.556 -0.296 145 138 142 190 161
-2.2145 9.3224 -2.2390 -0.724 -0.624 -0.296 146 137 142 195 0
-0.1642 9.4021 -2.4632 -0.469 -0.354 0.809 114 72 56 90 0
-0.1149 9.4661 -2.4851 -0.202 -0.422 0.884 116 74 58 124 0
-1.0774 7.5227 -1.8746 -0.876 -0.091 0.474 115 77 58 77 79
0.2415 9.4333 -2.5117 -0.914 -0.043 0.404 111 74 58 118 63
0.2319 9.3877 -2.4987 -0.965 0.005 0.261 110 71 56 135 0
0.0715 8.7635 -2.3173 -0.099 -0.221 0.970 60 21 14 217 22
0.0924 8.7479 -2.3152 0.161 -0.281 0.946 60 21 15 95 63
0.0432 8.5682 -2.2627 -0.759 0.127 -0.639 57 23 18 187 16
0.0091 8.4886 -2.2382 -0.788 0.132 -0.601 51 19 13 140 0
0.1084 8.1251 -2.1517 0.690 -0.684 0.236 146 143 143 98 189
0.4391 8.3339 -2.2398 0.163 -0.564 -0.810 64 55 56 212 64
0.3489 8.1419 -2.1800 -0.831 -0.206 -0.516 60 51 53 146 190
0.4276 8.1712 -2.1955 0.401 -0.586 0.704 47 38 39 129 63
0.4997 8.1496 -2.1970 -0.903 0.078 0.422 35 31 32 22 1
0.4894 8.1155 -2.1869 -0.958 0.107 0.267 41 36 37 189 0
0.6509 7.9820 -2.1675 0.461 -0.723 -0.514 16 15 13 223 0
1.1451 8.4819 -2.3490 -0.373 -0.386 0.844 109 93 85 250 63
1.2694 8.4791 -2.3605 -0.396 -0.340 0.853 70 64 60 255 0
1.8179 8.6679 -2.4649 -0.638 -0.486 0.597 78 73 69 161 63
1.7850 8.4968 -2.4163 -0.570 -0.487 0.662 52 54 49 189 0
1.7885 8.4821 -2.4128 -0.562 -0.143 0.815 52 60 53 181 0
1.7940 8.4697 -2.4100 -0.591 -0.139 0.795 56 72 60 147 2
1.8575 8.4306 -2.4059 0.285 -0.545 0.788 78 114 88 191 161
1.8687 8.4248 -2.4055 0.431 -0.678 0.595 79 113 88 161 63
1.8931 8.4337 -2.4103 0.412 -0.674 0.613 80 115 89 80 0
1.9859 8.4813 -2.4321 0.313 -0.886 0.343 84 119 94 239 2
2.0083 8.4877 -2.4360 0.313 -0.886 0.343 84 118 93 151 0
2.0286 8.4917 -2.4391 0.452 -0.876 0.168 87 120 93 87 0
2.0849 8.5166 -2.4513 0.526 -0.844 0.107 92 126 99 162 0
-5.5810 8.0048 -1.5660 0.814 -0.347 -0.466 29 33 40 239 0
-5.5813 8.0443 -1.5765 0.412 -0.307 0.858 27 32 37 151 2
-5.1573 11.6681 -2.5855 -0.731 -0.320 -0.603 28 31 35 189 161
-4.7616 9.0171 -1.9176 -0.735 -0.014 0.678 28 29 33 171 0
-4.6121 9.0019 -1.9284 0.479 -0.283 0.831 6 7 9 0 64
-4.5912 9.0314 -1.9383 0.486 -0.300 0.821 5 5 5 0 0
-4.4872 8.6182 -1.8385 -0.836 -0.220 0.503 14 14 14 0 161
-4.1514 9.8339 -2.1962 0.675 -0.300 -0.674 8 10 9 0 22
-2.4089 8.7033 -2.0679 0.916 -0.394 -0.077 146 141 148 0 22
-2.1319 9.3722 -2.2739 -0.116 -0.602 0.790 150 139 147 0 32
-2.0829 9.3965 -2.2853 -0.648 -0.335 0.684 146 138 146 0 0
-0.1152 9.4669 -2.4997 -0.168 -0.347 0.923 115 73 57 0 0
-1.0819 7.5153 -1.8829 -0.864 -0.079 0.497 115 77 59 0 123
0.2405 9.4910 -2.5416 -0.759 -0.096 0.644 113 76 60 0 174
0.2350 9.4232 -2.5229 0.581 -0.523 0.624 112 74 59 0 66
0.0719 8.6163 -2.2914 -0.755 0.145 -0.639 63 27 21 0 129
-0.0413 8.2461 -2.1814 -0.143 -0.451 0.881 48 19 17 0 128
0.0355 8.1663 -2.1678 -0.201 -0.159 0.967 39 20 22 0 237
-0.0192 8.0607 -2.1341 0.500 -0.363 0.786 50 37 40 0 113
-0.0089 8.0551 -2.1337 0.414 -0.384 0.825 75 69 72 0 3
0.1014 8.1157 -2.1608 0.607 -0.771 0.193 124 120 120 43 32
0.1285 8.1350 -2.1687 0.607 -0.771 0.193 121 117 116 47 0
0.1520 8.1489 -2.1747 0.443 -0.852 0.280 122 116 116 49 0
0.4091 8.3346 -2.2498 0.627 -0.776 0.077 65 55 54 189 0
0.4035 8.3051 -2.2414 0.731 -0.597 0.330 65 56 55 191 0
0.3938 8.1863 -2.2087 -0.476 -0.170 0.863 63 54 54 196 176
0.4218 8.1846 -2.2111 0.326 -0.294 0.898 63 54 53 189 3
0.4708 8.0513 -2.1804 -0.528 -0.062 0.847 45 38 38 182 127
0.5245 8.0653 -2.1895 -0.575 -0.455 -0.680 44 38 38 151 176
0.4731 7.8999 -2.1402 -0.387 -0.157 -0.909 19 15 12 68 127
0.6720 8.0105 -2.1895 0.611 -0.718 -0.333 16 14 13 0 127
1.0997 8.4854 -2.3587 -0.330 -0.377 0.865 65 59 54 0 0
1.4692 8.6276 -2.4334 0.502 -0.734 -0.458 121 109 97 0 238
1.5162 8.6650 -2.4481 0.658 -0.749 0.070 126 114 98 0 113
1.4425 8.4578 -2.3855 0.057 -0.648 0.760 122 119 104 0 240
1.4700 8.4524 -2.3868 -0.094 -0.461 0.882 130 128 115 0 135
1.8299 8.6830 -2.4841 0.039 -0.264 0.964 68 63 60 0 66
1.7772 8.4518 -2.4172 -0.107 -0.810 0.577 54 71 56 0 127
1.8265 8.4155 -2.4124 0.238 -0.555 0.797 77 113 87 0 13
1.8366 8.4085 -2.4115 0.296 -0.626 0.721 79 114 88 0 0
1.9719 8.4671 -2.4406 0.386 -0.848 0.363 87 121 96 0 80
-5.5781 8.0306 -1.5830 0.388 -0.314 0.866 27 32 36 212 215
-5.5392 8.3538 -1.6736 -0.303 -0.361 -0.882 28 33 39 90 51
-5.4441 8.2681 -1.6601 0.905 -0.414 -0.097 15 14 19 123 226
-5.4179 8.4775 -1.7189 -0.495 -0.554 -0.669 26 29 36 168 104
-5.3947 8.4094 -1.7030 -0.836 -0.546 -0.056 26 31 37 136 58
-5.2713 8.2734 -1.6788 -0.638 -0.413 -0.650 25 29 32 61 0
-5.2436 8.3949 -1.7142 0.726 -0.454 0.516 24 25 29 67 144
-4.6694 8.7218 -1.8593 -0.774 -0.354 -0.525 27 28 30 187 86
-4.6544 8.6708 -1.8471 -0.774 -0.354 -0.525 26 27 29 154 66
-3.6939 8.9365 -2.0144 0.131 -0.376 0.918 84 85 87 0 81
-2.9541 8.6062 -1.9996 -0.316 -0.272 0.909 118 119 123 0 224
-2.4915 8.6261 -2.0512 0.727 -0.474 -0.497 159 162 177 0 127
-2.3435 8.9176 -2.1442 0.787 -0.613 0.062 150 145 152 0 44
-2.1685 9.3415 -2.2755 0.491 -0.563 0.664 151 141 149 0 113
-2.0881 9.3785 -2.2934 0.575 -0.722 0.385 147 140 148 0 0
-1.9912 9.1689 -2.2468 -0.132 -0.664 0.736 141 134 141 0 144
-1.0047 10.7033 -2.7573 0.048 -0.777 -0.627 143 137 141 0 64
-1.3448 9.3852 -2.3695 0.573 -0.324 0.753 146 142 146 68 64
-0.0432 9.6069 -2.5590 -0.750 0.078 -0.656 115 72 56 39 127
0.1574 8.9354 -2.3988 -0.821 0.166 -0.546 56 23 17 0 204
0.1143 8.6867 -2.3277 -0.774 0.140 -0.618 63 26 20 0 96
-0.0503 8.2331 -2.1895 -0.064 -0.514 0.855 47 18 16 46 224
-0.0846 8.1562 -2.1654 0.434 -0.629 0.645 51 19 16 59 151
0.0210 8.1452 -2.1730 -0.333 -0.122 0.935 39 22 24 244 152
0.1207 8.1245 -2.1774 0.565 -0.680 0.468 117 111 111 34 66
0.1482 8.1443 -2.1855 0.295 -0.427 0.855 115 109 108 204 119
0.4394 8.3366 -2.2662 0.701 -0.708 -0.087 59 51 52 2 127
0.3817 8.1908 -2.2213 -0.519 -0.078 0.851 56 48 48 23 80
0.2672 7.9874 -2.1552 -0.185 -0.304 -0.934 57 50 48 51 0
0.2654 7.9650 -2.1491 -0.164 -0.298 -0.940 58 49 50 190 0
0.3373 8.0463 -2.1781 -0.152 -0.280 -0.948 51 43 44 67 0
0.4848 8.0126 -2.1837 0.368 -0.425 0.827 38 29 30 81 0
0.4997 7.9555 -2.1699 -0.209 -0.895 0.394 41 35 35 140 10
0.7132 8.0653 -2.2207 0.537 -0.685 -0.493 14 13 11 194 195
1.0422 8.4326 -2.3522 0.608 -0.684 -0.404 41 39 35 140 12
1.2496 8.4567 -2.3794 -0.457 -0.335 0.824 88 85 76 104 0
1.4612 8.6389 -2.4494 0.562 -0.751 -0.347 117 103 95 205 0
1.4777 8.6391 -2.4511 0.623 -0.560 0.546 125 109 99 127 0
1.4693 8.6088 -2.4421 0.610 -0.517 0.601 133 116 104 159 0
1.6068 8.5973 -2.4528 -0.974 -0.156 -0.166 130 125 114 189 42
1.8243 8.6971 -2.5013 -0.319 -0.414 0.852 74 69 65 0 255
1.7514 8.4981 -2.4406 -0.482 -0.271 0.833 42 47 41 0 0
1.7611 8.4905 -2.4395 -0.512 -0.227 0.829 43 51 43 0 0
1.7687 8.4805 -2.4376 -0.512 -0.227 0.829 48 60 50 0 0
1.7774 8.4718 -2.4361 -0.496 -0.259 0.829 52 67 55 0 0
1.7856 8.4625 -2.4345 -0.434 -0.294 0.852 52 74 57 0 0
1.7864 8.3900 -2.4151 -0.049 -0.613 0.789 68 103 79 0 4
1.8067 8.3945 -2.4183 0.176 -0.654 0.736 73 109 83 0 130
1.8543 8.3930 -2.4227 0.540 -0.794 0.280 82 114 90 0 0
1.9607 8.4560 -2.4502 0.415 -0.850 0.325 88 122 95 0 36
2.1116 8.5479 -2.4899 0.550 -0.821 0.153 101 136 106 0 0
-5.5725 8.0071 -1.5870 0.845 -0.534 0.021 27 32 36 251 127
-5.5791 8.5361 -1.7292 -0.597 -0.375 -0.709 28 33 39 139 184
-5.5525 8.4594 -1.7112 -0.698 -0.383 -0.605 28 33 39 208 189
-5.4392 8.1986 -1.6521 0.224 -0.909 -0.352 17 17 22 84 0
-5.4441 8.3147 -1.6829 0.922 -0.365 -0.133 17 17 21 40 0
-4.7460 8.8423 -1.8955 -0.748 -0.029 0.663 28 29 33 65 0
-4.6699 8.7261 -1.8717 -0.831 -0.324 -0.453 27 28 30 190 3
-4.6566 8.6976 -1.8654 -0.817 -0.371 -0.441 27 28 30 98 0
-4.6030 8.8676 -1.9167 0.896 -0.330 0.298 13 14 16 200 0
-4.5898 9.0064 -1.9555 0.936 -0.346 -0.068 3 3 4 6 0
-4.5801 9.0331 -1.9637 0.927 -0.372 0.050 5 5 6 0 0
-3.6964 8.8961 -2.0153 0.503 -0.357 0.787 82 82 83 16 96
-3.6840 8.9032 -2.0185 0.484 -0.357 0.799 85 85 86 25 0
-3.6717 8.9067 -2.0206 0.493 -0.428 0.757 82 83 85 190 0
-3.1494 8.2704 -1.9011 0.895 -0.324 -0.307 23 24 28 231 0
-2.9455 8.9624 -2.1085 0.943 -0.334 -0.009 124 124 127 16 103
-2.9538 8.6101 -2.0125 -0.789 -0.223 0.572 117 118 122 231 203
-2.4846 8.6567 -2.0722 0.814 -0.558 -0.163 158 161 176 176 0
-2.4537 8.5753 -2.0533 0.905 -0.397 0.155 155 153 165 213 154
-2.3194 9.0167 -2.1860 0.639 -0.523 0.564 152 148 158 188 3
-2.2865 9.0410 -2.1959 0.097 -0.715 0.693 153 147 154 25 0
-2.1593 9.3243 -2.2851 0.494 -0.845 0.204 150 144 151 176 48
-2.1225 9.3575 -2.2978 0.092 -0.924 0.371 150 144 150 60 3
-2.1084 9.3573 -2.2991 0.113 -0.819 0.562 150 144 151 183 0
-2.0900 9.3731 -2.3053 0.506 -0.824 0.257 149 142 152 213 0
-2.0682 9.2447 -2.2728 -0.968 -0.063 0.245 146 139 147 25 0
-2.0057 9.3691 -2.3126 -0.609 -0.090 -0.788 144 137 145 61 0
-1.6815 10.0868 -2.5390 -0.306 -0.242 -0.921 141 132 140 188 0
0.1979 9.0045 -2.4352 -0.798 0.162 -0.580 50 19 14 0 0
0.1118 8.6839 -2.3400 -0.790 0.142 -0.596 58 22 16 0 0
0.0803 8.6081 -2.3163 -0.782 0.139 -0.607 60 25 19 0 0
0.0351 8.5105 -2.2854 -0.804 0.129 -0.580 59 25 19 0 0
0.0187 8.4602 -2.2702 0.147 -0.961 -0.236 56 23 17 0 0
0.0281 8.3357 -2.2375 0.730 -0.677 -0.098 49 18 17 0 0
0.0076 8.1257 -2.1787 -0.381 -0.106 0.918 40 26 29 0 0
0.0693 8.0697 -2.1698 0.445 -0.795 0.412 116 110 109 0 0
0.1101 8.1098 -2.1847 0.508 -0.718 0.476 121 115 115 0 0
0.2804 8.1923 -2.2241 -0.938 -0.326 0.118 61 50 49 0 0
0.4319 8.3270 -2.2756 0.712 -0.693 0.112 61 55 55 0 0
0.4860 8.1341 -2.2290 -0.909 0.103 -0.404 36 30 32 0 0
0.4704 8.0926 -2.2162 -0.978 0.130 -0.164 40 33 35 0 0
0.4709 8.0733 -2.2110 -0.742 0.015 0.670 41 35 37 0 0
0.4815 8.0681 -2.2107 -0.566 -0.071 0.822 41 32 33 0 0
0.4828 8.0110 -2.1954 0.332 -0.421 0.844 35 27 28 0 0
0.7546 8.1202 -2.2522 0.592 -0.702 -0.397 21 19 20 0 0
1.1256 8.4606 -2.3813 -0.146 -0.671 0.727 48 34 29 0 0
1.2656 8.4976 -2.4053 0.607 -0.711 -0.355 66 65 58 0 0
1.4727 8.6543 -2.4684 0.371 -0.337 0.865 120 104 96 0 144
1.4924 8.6583 -2.4715 0.513 -0.345 0.786 119 101 91 0 231
1.5159 8.6470 -2.4708 0.635 -0.737 -0.230 123 107 94 0 75
1.7466 8.6272 -2.4886 0.143 -0.608 -0.781 100 92 88 0 138
1.7577 8.6208 -2.4880 -0.099 -0.514 -0.852 89 82 79 0 0
1.7779 8.6250 -2.4912 -0.569 -0.008 -0.822 78 73 69 0 0
1.7693 8.5958 -2.4824 -0.621 0.011 -0.784 67 63 58 0 0
1.7427 8.4894 -2.4510 -0.507 -0.368 0.780 44 53 44 0 159
1.7484 8.4772 -2.4483 -0.496 -0.305 0.813 46 59 48 0 129
1.7961 8.3838 -2.4278 0.220 -0.719 0.659 66 102 76 0 0
1.8026 8.3729 -2.4255 0.265 -0.717 0.644 69 105 79 0 0
1.8196 8.3738 -2.4275 0.442 -0.762 0.473 74 107 83 0 0
1.9522 8.4478 -2.4608 0.415 -0.850 0.325 89 125 97 0 33
2.1049 8.5418 -2.5015 0.587 -0.809 0.024 102 137 107 0 0
-5.5750 8.0174 -1.5993 0.672 -0.479 -0.564 28 33 37 0 0
