ply
format ascii 1.0
element vertex 711
property float x
property float y
property float z
property uchar red
property uchar green
property uchar blue
end_header
-4.10969561794285 9.090294521992572 2.531691438564284 126 123 124
-4.097260127662769 9.059531966939186 2.521475948824006 127 123 124
-4.084826274184858 9.062576197313525 2.5232539954350908 127 124 125
-4.072400519903857 9.059081899854556 2.522711914803633 127 124 125
-4.06000136113511 9.051492425584732 2.520715495812383 127 123 124
-4.047609142507475 9.044970181954804 2.519097308452162 126 122 123
-3.413879079903564 8.29330979503174 2.288008924992033 122 120 121
-3.407468920576503 8.244306700163554 2.2709839752502354 122 120 121
-3.3066451477488177 8.028165749928302 2.199964001384567 123 118 122
-3.297376396281922 8.012138573739017 2.1947983968256763 124 118 122
-3.2872259432510615 8.003174022098944 2.192187897886905 124 119 123
-3.2779372927345394 7.987924704929612 2.187299371403855 124 119 123
-3.2422389012867248 7.919834034518846 2.1651469876840355 128 120 125
-3.234012058110442 7.898837671413976 2.1581599719426707 128 122 126
-3.193749000438585 7.722845085567513 2.0979835053538523 128 122 124
-3.1656837702364853 7.833023575238095 2.138647113917945 128 122 124
-3.154823777967092 7.831231795169168 2.13862113212545 127 122 124
-3.1477354920423832 7.80573130204199 2.1299722674245354 128 122 125
-3.138521404260941 7.793952290227289 2.126310714651037 130 122 124
-3.1297903770623514 7.779415115991354 2.1216435296375726 130 122 125
-3.119508573881991 7.774556173413841 2.120496951107461 131 122 123
-3.1098919254295763 7.76575420232753 2.117914162675636 131 122 123
-3.1008902273730947 7.753437494335298 2.1140499277976206 131 122 123
-3.0915746171324994 7.743174148193648 2.110931787053411 134 122 124
-3.079464805307023 7.749301599330307 2.1137854755053707 134 120 123
-3.0705135408241593 7.7370949506323585 2.109957454969833 134 120 121
-3.0614415071088277 7.725776928115555 2.1064514722838763 135 120 123
-3.0526961929551435 7.712802823416924 2.102339619297801 137 120 122
-3.04564818344108 7.690595232282499 2.0948567158009554 138 118 121
-3.03963664859907 7.663079936951246 2.0854326104433163 137 114 117
-3.032449327026942 7.642483218899145 2.0785290172293895 134 109 113
-3.0257291429993054 7.619727761687029 2.070833343007602 134 105 110
-3.0167629602794066 7.609377770669723 2.0676648461620606 131 101 107
-3.008225402479371 7.596913420995037 2.063722175299357 130 98 103
-3.0024894038736907 7.569965366359231 2.0544838410369906 133 96 104
-2.9947253697057845 7.554012955972207 2.049260285222099 133 95 102
-2.984707828441204 7.549896898005189 2.0483624239013447 128 88 97
-2.977431755580309 7.531859454310542 2.042371766631928 123 83 91
-2.971692442937078 7.506369171749817 2.033650792004463 124 81 90
-2.9631259896580784 7.495426129305708 2.0302494572948064 125 80 88
-2.9551368341102506 7.48178372803038 2.0258580615449686 128 80 89
-2.946621707873897 7.470923957420332 2.022483387634515 128 80 86
-2.937133507654407 7.4649415974029125 2.020893701026678 127 79 85
-2.9293421035435814 7.450857197619287 2.0163343956242024 125 78 84
-2.9123516484102185 7.429959401152277 2.00987434381606 125 76 83
-2.9023284405295975 7.426877512479942 2.0093436927101953 125 77 83
-2.8580080551822324 7.38561896712679 1.997194582932312 125 75 80
-2.8464299604697905 7.389724432311154 1.99930108074829 125 75 80
-2.837938646474213 7.3801097594028064 1.9963667931281723 124 74 79
-2.8310131708937822 7.363767734483724 1.990957936543006 124 74 79
-2.8201163938881524 7.364872854865529 1.9919617528144253 124 75 80
-2.8102264589364045 7.361588948763617 1.99135194997726 124 75 79
-2.8003950479279665 7.358067911911288 1.9906547347228474 121 75 78
-2.7854764056552996 7.376083695490323 1.9978837348650098 121 74 77
-2.7781451449646895 7.361930239806224 1.9932740977292953 122 75 78
-2.7689102600914386 7.355886854068842 1.9916485397306045 123 77 79
-2.7625052730489332 7.338212674978153 1.985737854408045 123 77 79
-2.754998703630332 7.325290641929195 1.9815749308553592 126 77 80
-2.74739999623265 7.312906023011267 1.9776078383263198 127 78 81
-2.673169578547865 7.352888098119085 1.9959596220683398 130 81 85
-2.659781981753998 7.362987046290002 2.0002940136977223 131 82 86
-2.659185626914189 7.323975945959657 1.9864875312189503 131 82 86
-2.652390667038429 7.309035482325437 1.9815685790772626 130 81 85
-2.6427415634749973 7.305033369546508 1.9806904577171174 131 82 86
-2.6434145874223827 7.262434541142646 1.9655398936471402 131 83 89
-2.636819247066307 7.247411891360801 1.9605805775550422 134 86 92
-2.6307540350518903 7.2306142992411235 1.9549618036481196 137 90 96
-2.6159636077840513 7.245966373338122 1.961238601890815 144 99 104
-2.6237430154829826 7.179017232868499 1.937050323746147 156 111 116
-2.6089633645237673 7.119229414925288 1.916669148665596 163 135 131
-2.5998915079855105 7.114436557324828 1.915478087820543 156 138 128
-2.4435628372628804 7.394659055947807 2.023668985731914 129 148 126
-2.4402034543447564 7.368913264640181 2.014723753342294 134 153 133
-2.2563266094081893 7.5992227602531495 2.106753596854483 163 174 166
-2.194612096924457 7.755704975271701 2.165733466024934 165 171 167
-2.170519064753687 7.793545559132556 2.180510764447206 165 169 168
-2.146794262464583 7.829751546943468 2.194687484782033 165 166 168
-2.142660662519203 7.805467324638269 2.1863042381095052 169 171 170
-2.1363654110437693 7.576076886790114 2.105276846494487 184 186 185
-2.12806564004053 7.56632398345695 2.1022827655261063 185 187 186
-2.1201529829614247 7.555530151166966 2.098897661493001 186 188 187
-2.113342625838188 7.541649878895384 2.0943556976960136 186 188 187
-2.0912617731054173 7.538408634648438 2.094445436868048 185 187 186
-2.0866440840394422 7.5185545964632405 2.0876610630679484 185 187 186
-1.960624852144806 7.513074806265214 2.0927918087908064 185 189 190
-1.9349348921882483 7.519101150663584 2.0963720268779027 183 187 187
-1.9218369642633684 7.522686240582786 2.0983792357651683 183 187 186
-1.885544464108023 7.435325354760738 2.0694237142764007 173 177 176
-1.8707318355734552 7.443356674173464 2.073104575862638 172 176 175
-1.7770923266640446 7.443410943883861 2.07838081832122 167 168 170
-1.793063785324595 7.376474338423947 2.0537370796026173 166 167 169
-1.8358679903538937 7.164967928665968 1.9762979232664866 163 167 170
-1.6812181307192693 7.447017715323093 2.085042838223444 166 170 176
-1.5920713808862188 7.626409055349424 2.153690239751697 174 179 185
-1.407071194429847 7.763833953129724 2.212830493491893 223 226 238
-1.6640516220301287 7.145070233601094 1.9788847151134132 212 214 227
-1.6571613405237131 7.13532822104764 1.9758153681138986 201 204 216
0.34792280303514284 8.989191100311173 2.7460768884573015 177 179 192
0.3997170013025605 9.04615703786541 2.7691944491032103 177 179 193
0.41806440878121115 9.022546883560928 2.7618483147861754 179 181 197
0.42466765142134444 9.006738932245767 2.7566108410256924 182 184 200
0.11245666430183111 8.461011306331391 2.5454753834953356 191 192 210
0.17295654071296152 8.53221087216391 2.574131349346372 196 200 215
0.29850929433223766 8.704959830191545 2.642466093168006 200 205 219
0.5814144958181247 9.070110158311227 2.7878929217652995 205 210 227
0.9242570478367399 9.49199894794157 2.9568137717759027 204 199 213
0.9434156543862449 9.49404598280509 2.958615575945165 209 202 213
0.9931436725495112 9.542509403934721 2.9786007032693647 215 205 213
1.0152604523152458 9.548790722532212 2.982070777616099 219 205 211
1.0401749461611545 9.559223016915727 2.9871705587009907 223 205 210
1.0649797804844234 9.56939046582359 2.9921702242315766 224 203 207
1.098623971752905 9.592706570769248 3.002330884350565 218 195 199
1.134969623239221 9.619867827201952 3.0140073502057283 211 185 189
1.184208334330452 9.638764642642869 3.023475667173226 198 169 174
1.2548709545493841 9.716123302578733 3.054887237651591 195 168 173
1.269826765583918 9.71087511549732 3.0538649690604545 192 169 173
1.162002538752956 9.525421859857245 2.982018415673943 191 172 175
1.4805377592038171 9.936941474142774 3.1458959638574724 187 177 179
1.7170594124306655 10.252789633119464 3.2712278635620446 187 179 181
2.186963440293608 10.873444859436184 3.517798375179907 180 174 175
2.406424307059706 11.063964785107324 3.5977097913877745 171 166 169
2.4406263699434128 11.081403286075789 3.60581657412983 171 166 169
2.474992062922503 11.09892526581396 3.6139621589335427 170 166 168
2.5095226051984616 11.11653138377373 3.622146848199408 169 166 169
1.8336567052636852 10.05347804334195 3.2070639761332442 174 172 174
1.910638949959837 10.13293193509657 3.239573659944072 176 172 174
3.4192896489883413 11.79217081680563 3.9129183239083676 178 177 183
3.454303894760658 11.806573673295107 3.919993748039677 176 175 181
-5.06531681342402 10.374854242323103 2.9187810138691836 10 10 10
-5.0504224507948 10.365437005141928 2.916286463022866 11 9 10
-5.0379680719335305 10.378289099046945 2.9215165014069076 11 9 10
-5.024500458842058 10.382176476750177 2.923638664332542 17 14 15
-5.009212574444873 10.369036020410313 2.919851832977484 28 24 24
-4.994280377564046 10.35902175685363 2.917148654923477 45 35 35
-4.978668505074532 10.342155228882572 2.9120646638217553 67 50 49
-4.96338163467196 10.328089797019624 2.907951284549445 88 63 61
-4.948268032989731 10.315430020904294 2.904324414408645 104 72 69
-4.9192174557619435 10.159327341788591 2.850842225408109 114 78 74
-4.90325267260506 10.134720746753516 2.8430458530059375 118 80 75
-4.886738830211819 10.103549291014216 2.8329628391835864 119 83 78
-4.870210649314392 10.071246893613274 2.8224814319386735 121 87 84
-4.855673800472528 10.059827988627028 2.8192604360093725 122 92 90
-4.8407947245324525 10.04428191892647 2.814601721024218 123 99 98
-4.826115139039448 10.030562445095123 2.810576635385006 125 107 107
-4.811743267967156 10.020032407072748 2.807660197795774 126 113 113
-4.581879273419157 9.378176180747799 2.5939035665788994 42 36 38
-4.5273540875636735 9.531362102279655 2.6510106269485383 101 97 98
-4.5160422221644465 9.56069077822709 2.661992827438428 97 93 94
-4.505225258794716 9.601783492953723 2.6770998552406744 96 92 93
-4.4927221836930835 9.611878098170843 2.681359286322928 97 93 94
-4.479265614495286 9.603021975936748 2.6789827219511273 97 93 94
-4.465346661801786 9.583776574852143 2.6729647725090224 100 96 97
-4.449949901421096 9.530217629881026 2.6549173666708032 102 98 99
-4.43547851823012 9.494292676746674 2.6430427499342017 101 97 98
-4.421315388442222 9.463189229182658 2.632852827899893 103 99 100
-4.40762659417679 9.4417091185903 2.6260332684630523 104 100 101
-4.394111219629201 9.423190418311824 2.6202493492088053 100 96 97
-4.381109404659262 9.41742547388908 2.6189385616831995 96 92 93
-4.368666821293537 9.42759118101067 2.623219720984393 95 91 92
-4.356106144239697 9.435534847667581 2.6267231365905075 97 93 94
-4.343154393944001 9.432152432931046 2.626250529728685 100 96 97
-4.3297916085218775 9.414833053388096 2.6208814405689105 101 97 98
-4.316230970837715 9.388704370003355 2.612413922984348 103 98 100
-4.302430075406641 9.350439798327585 2.59967614385935 107 101 103
-4.288916746229024 9.319095750485383 2.589365108435729 112 106 108
-4.276250727076505 9.320774740716821 2.5906631285868724 116 112 113
-4.262896194724797 9.290591046737214 2.580752823288752 119 115 116
-4.249944159274039 9.276449754107011 2.5764826381832164 117 113 114
-4.237546922842087 9.291546255731108 2.5825017097302805 113 109 110
-4.225055042575238 9.304600731451009 2.5878052719306406 114 110 111
-4.173582063379729 9.253392505827215 2.5725967232745357 121 119 120
-4.160626190294493 9.21807513830673 2.5608521677958205 122 120 121
-4.147954796135426 9.21284636524031 2.559712232890637 124 122 123
-4.135179074242507 9.18054515649184 2.549022267443905 125 123 124
-4.122493498610257 9.144403514707383 2.5369717122459847 125 123 124
-4.109935481147574 9.129590002319635 2.532442308460548 126 124 125
-4.097436608947309 9.095688542500428 2.5211720794814205 125 123 124
-4.08504926828681 9.05946864647972 2.509077293676135 126 124 125
-4.072631334692994 9.055724457420709 2.508447261497528 126 124 125
-4.060216255681186 9.051869550281738 2.5077779898445 125 123 124
-4.047812839002706 9.046855961003017 2.5066990851176194 126 122 123
-4.035400807374322 9.043424875269386 2.5061792412942814 125 121 122
-3.4254700189914717 8.186835176281777 2.2377937339443688 121 119 120
-3.417612059134008 8.152996696047019 2.226287278545192 122 120 121
-3.2765398591659927 8.08649299525615 2.2106696990426333 121 119 122
-3.269909948490006 8.050190615281531 2.1982251622501203 121 119 122
-3.260921487975154 8.032225409316544 2.1923845037308025 122 120 123
-3.2516541162510437 8.016699301776706 2.187420314074736 122 120 123
-3.2864260954670357 7.684569007383233 2.068250783215409 123 121 124
-3.237065597355555 7.95861187705102 2.1677294651662407 125 120 124
-3.229993814660054 7.929021354003572 2.157678641340452 127 121 125
-3.187602821092724 7.693936283027895 2.0770607348673593 127 122 126
-3.175484135648429 7.701784622271909 2.080505887560159 129 124 128
-3.149013116421924 7.799556948798418 2.1164910799877754 129 124 128
-3.1388831696685373 7.793541860576521 2.114932061554737 129 125 126
-3.127627314655821 7.794515521067513 2.115902586014963 128 124 125
-3.11447665156016 7.806910132948371 2.121009922251436 128 122 124
-3.10450505562532 7.799885001745275 2.1190855671525597 128 122 124
-3.0952085059275456 7.7889478279362985 2.11574277245549 128 122 124
-3.0858823657067624 7.778364558228693 2.1125265442968177 131 122 125
-3.076182929535404 7.77012053929927 2.1101567978410514 132 121 125
-3.033158803138732 7.700457323122442 2.0879636104813484 135 121 124
-3.0268993755102835 7.6744203942712375 2.0791218689238864 135 121 124
-3.019888792601559 7.652911765143152 2.0719203277091562 137 120 122
-3.011196512912691 7.640770348916602 2.068118815541145 137 118 123
-3.0027086912791443 7.627735594463354 2.063990592589552 135 115 118
-2.997345519562147 7.598530860615685 2.053980787902627 135 114 119
-2.990650635836091 7.576754909973415 2.0466673078262625 136 113 116
-2.9804360124186524 7.573438353198347 2.046065514031954 133 107 113
-2.970654932643139 7.567928839728066 2.044665521158573 129 102 107
-2.9636357959097457 7.548549280484599 2.0382159606402785 129 100 106
-2.9578654741026456 7.523248404804296 2.0296067872915846 130 98 105
-2.9500001566164484 7.508737079456365 2.024922706776026 132 94 101
-2.9410801486025724 7.499616798986124 2.0222002565528343 130 91 97
-2.9318568857804457 7.492089676570912 2.020057036742798 127 88 94
-2.9237856684851726 7.479108086990275 2.0159243784949 124 85 91
-2.915857997472722 7.46562987313171 2.011608431033054 123 84 90
-2.907272452842447 7.45545680943963 2.008495750125549 124 82 89
-2.8981278582081766 7.448038142184049 2.0063864309647763 123 81 88
-2.888319384089907 7.443788051520543 2.0054325060369615 122 81 85
-2.8802267047310393 7.4316698782527615 2.0016058057341635 124 80 87
-2.8719389143424974 7.420608020076425 1.9981628221145622 124 80 85
-2.8629015908408193 7.413083550545572 1.9960101835758801 125 78 86
-2.8542383716589708 7.403966294268575 1.9932745000140535 127 79 85
-2.846710516943255 7.389911378876484 1.9887327263198202 127 79 85
-2.8402710911114344 7.371250517534532 1.9825045621905022 126 78 83
-2.8334089239269744 7.354707652042763 1.9770475363918496 126 77 83
-2.8273187281053302 7.335049320390155 1.9704478431795975 125 77 83
-2.8025649763972686 7.2171386346003334 1.9302071051689282 127 78 81
-2.795742149365674 7.202293028064586 1.9253469751810046 127 78 81
-2.750837444824699 7.343708985310009 1.9777637820399432 129 79 82
-2.744479818102867 7.326136620339752 1.971915272348166 130 80 83
-2.6904188475617987 7.32882945830778 1.9758764749350808 132 81 86
-2.6899221306236223 7.289173496152554 1.9619066509667265 133 82 87
-2.678777953199339 7.291109510403806 1.963210640961179 135 83 88
-2.6698207170635815 7.28461329199633 1.9614164872385285 135 83 89
-2.659562091680625 7.28311784699377 1.96145994735976 134 85 89
-2.6505770669396522 7.27680666393376 1.9597326537031767 134 85 89
-2.6364349401912794 7.289849827256618 1.9651241266196302 135 86 92
-2.6308594701052583 7.270841825795811 1.9587253169176195 138 89 95
-2.6236325240876885 7.2581622926433695 1.9546522582385804 138 91 99
-2.612647190931512 7.2593918125184045 1.9556980285685408 144 99 104
-2.6228424703682927 7.1835525166706855 1.9283610155996778 156 111 116
-2.6166951896407493 7.167752542948115 1.9231263979273203 162 122 123
-2.612327088079424 7.145760751152836 1.915607151178536 165 130 128
-2.6077594923902034 7.12475133581137 1.9084457668638968 164 135 131
-2.598349395957393 7.121120035190919 1.9076880721492162 157 137 128
-2.5884664733288996 7.119165344291663 1.9075485076189098 148 136 124
-2.579571963546727 7.113757188852634 1.906134917532817 136 135 117
-2.5733007912157895 7.099303429816892 1.9013823770199683 129 137 116
-2.4559003602069445 7.354333463639511 1.9979392440969583 132 150 128
-2.437883602157307 7.3779454336697246 2.007277002775637 136 153 134
-2.1936719094347557 7.7599533376424965 2.15571586951574 168 174 170
-2.17401934265024 7.78400719990625 2.165300703887914 168 172 171
-2.153431541889921 7.810614188292396 2.175838807025253 170 172 171
-2.15314475892351 7.7746605678056975 2.1631641185408177 172 174 173
-2.147913860870849 7.754167195561679 2.15622182343669 175 177 176
-2.145486002372589 7.654293064852141 2.1211041548265555 181 183 182
-2.126196409661948 7.641740731996274 2.1177477739000454 183 185 184
-2.1339537457339017 7.584407831657198 2.097078791331584 184 186 185
-2.1310582047634754 7.558826668224592 2.0882105848654793 184 186 185
-2.121687279972148 7.5523127471781875 2.0864332212755574 184 186 185
-2.099663223388719 7.582364312939258 2.0982671538107183 184 186 185
-2.094987084910506 7.562255364834905 2.091429655022231 184 186 185
-2.0901005333570954 7.542947574249537 2.084886661350562 184 186 185
-2.081842648627332 7.5333939270554895 2.0819743701139783 184 186 185
-2.0656209551767026 7.481351563960065 2.0645082180843097 184 185 187
-2.054930813828214 7.478983494685158 2.064267696846219 184 185 187
-2.0314973008674837 7.511750215761186 2.0771384999529205 184 185 187
-2.0331597913464514 7.3816637391066235 2.031128891786876 186 190 191
-1.9604465360978458 7.514743863348682 2.082152056915876 186 190 191
-1.9325971360792291 7.5264600375080395 2.0878385085817106 184 188 189
-1.9197108161380434 7.529455317300012 2.089613412241645 182 186 187
-1.9157236803475008 7.389072136305799 2.0402839774567876 177 179 178
-1.8832808429716072 7.412781599729447 2.0504595498070524 173 175 174
-1.854082031315396 7.203055205932552 1.978057889094841 166 167 171
-1.8396109398091434 7.210704866983247 1.981563921312708 165 166 170
-1.8370659228826665 7.189881020856356 1.9743553987308735 165 166 170
-1.6207256281239308 7.561062966326303 2.117420810870399 172 176 183
-0.9658644990814171 8.840289507166112 2.605423122024256 222 226 235
-1.4223328891567213 7.731239303646161 2.1885371418081263 222 224 236
-1.460794988406226 7.618824026773136 2.1467155884287914 217 219 232
-1.660929582073698 7.152969846746194 1.9711359371686328 210 212 225
-1.6538192758876962 7.143673109537066 1.968250418572201 198 202 213
0.38552743367609 9.078100456704208 2.764624195338178 176 178 192
0.38486086800841146 9.05021329862107 2.7547436579961913 176 178 193
0.40612946382954385 9.057821574151623 2.75861364127343 177 179 194
0.4215089968798841 9.055900819693898 2.7587921664936714 178 180 195
0.4929901670051349 8.959765944631352 2.7288399944758797 205 211 227
0.5503569819329379 9.023222581315666 2.754433286839965 203 209 227
0.5075804043007346 8.855561338507933 2.6928711183216354 201 203 215
0.9025675619770273 9.433147697733771 2.918740731319901 209 210 219
0.9149401044990676 9.425057418389233 2.916574118456135 222 221 227
0.9272988652731898 9.41697637807218 2.9144099992024897 235 232 235
0.939643325714823 9.408903741826672 2.9122480499615744 246 241 242
0.9782628194151209 9.440381377904265 2.9255095614951516 251 245 245
1.023685684543958 9.481810373531223 2.9426625207046717 248 240 241
1.0594978613564927 9.508569702030746 2.954102254779957 243 232 233
1.0882368193900354 9.524588498706043 2.961356956583448 235 222 223
1.1416122823490429 9.577013509503209 2.9828341002027825 228 211 214
1.2141578938362148 9.630313103457128 3.0056875506644776 213 197 200
1.1616401159471774 9.52629950001427 2.9660487885337474 206 193 195
1.445842110082198 9.915598141982292 3.1192881847127385 200 189 190
1.5483647541723307 10.037317636545652 3.1679614648002787 196 186 187
1.7156490668326194 10.25228065140099 3.2531538308522148 193 183 184
1.8124058667189606 10.363622129550714 3.297842845691707 191 180 182
1.8317572054348976 10.362468716655611 3.298513415190382 189 179 181
1.6593360288522032 9.919831713768803 3.1326721868781964 182 174 177
1.7425425552197615 10.009666368850448 3.169015245695902 183 176 179
1.7259687640795451 9.959164437107267 3.1502664148729584 183 176 180
1.819342673247839 10.062408307841789 3.191908796211207 184 180 182
1.8872123371008622 10.129467065762633 3.219358453309868 185 181 181
2.1107634516053113 10.327248436781405 3.3016197098554714 184 167 169
2.111967785795756 10.300996124261696 3.2924204210350334 185 167 170
2.06839196066338 10.186411015191057 3.2495481874089545 180 167 169
2.1292667275342665 10.241636791546838 3.2724315687108017 176 166 168
2.1932684083913236 10.300700091070377 3.2968436329419 175 168 170
2.20926517240603 10.294730935811073 3.295627555854884 177 170 174
2.2255757726230962 10.28919358202054 3.294581370872459 179 173 177
2.2417902643462853 10.283535571525048 3.293487244955756 181 176 181
3.426234240715676 11.67619739220045 3.8510220923271654 183 182 187
3.4557306980970828 11.683447672517563 3.8552239298307227 184 183 188
3.7936437098886135 11.713657397476979 3.8847058238847394 170 169 175
3.81111623045759 11.70499654193678 3.88262183528401 169 168 174
-5.065603924014755 10.37618602642289 2.9042517832053485 10 10 10
-5.051029256343443 10.369672451028098 2.9027694889227487 11 9 10
-5.038490275776352 10.381792964160164 2.9077185979446964 11 9 10
-5.02606090347852 10.39541044177518 2.9131873510693986 14 13 14
-5.010719064480906 10.381948659950625 2.9093073882748333 23 20 22
-4.995835001853894 10.37258550460772 2.9068414793521904 40 31 33
-4.980375204238542 10.35740853296316 2.902365698092401 60 45 45
-4.965146486339953 10.344153575627026 2.8985521182917737 81 59 56
-4.949923778056614 10.33064153297733 2.8946479241509784 100 70 66
-4.920446917074047 10.170427569812512 2.840012855100543 112 77 73
-4.904243334888731 10.14350407195209 2.8314530554945176 116 80 75
-4.888328102627553 10.118833409310879 2.8236684702586183 119 81 77
-4.873321670229858 10.103241181065913 2.819021816157026 121 85 83
-4.85627216707071 10.06473036269749 2.806439549665969 122 90 88
-4.842287006447306 10.059277156228106 2.805297067156216 123 97 96
-4.827002929485838 10.038922205900612 2.7989931936188497 125 106 106
-4.812962590017898 10.032391879193545 2.7974754997627964 125 112 112
-4.799699055345843 10.034953256005492 2.799107688406388 125 116 117
-4.527115627796104 9.523783202626555 2.6346545171847993 104 100 101
-4.515870962320503 9.554101328187873 2.645922703533857 102 98 99
-4.505034139031822 9.594545292180825 2.6607243183468605 98 94 95
-4.4933961069122965 9.621784881905377 2.6709331247837667 94 90 91
-4.4800138000180745 9.614793084227575 2.669217022617852 93 89 90
-4.466604940679656 9.606962423593126 2.6672077981469275 96 92 93
-4.452987649399226 9.594124401573774 2.6634516192420605 102 98 99
-4.43727054774983 9.531680717462919 2.642391085471499 104 100 101
-4.423407113574927 9.509329517330004 2.635307697653185 104 100 101
-4.409331572659365 9.480013726451238 2.6257902251283785 104 100 101
-4.395508487567427 9.455050063703268 2.6177871724810995 103 99 100
-4.381807105849964 9.431434423716937 2.6102507909326347 100 96 97
-4.368713705495768 9.423416430516586 2.6081583533201007 97 93 94
-4.355814762287932 9.420818166559805 2.6079584560931592 96 92 93
-4.342895376875225 9.417633922556368 2.607553905600635 97 93 94
-4.32970580023497 9.405312575287224 2.6039555433617187 99 95 96
-4.316294262587992 9.383928434617179 2.5971868009738612 101 96 97
-4.302525827803681 9.346576272591669 2.584830177564315 102 96 98
-4.28758597434666 9.25670292953411 2.55409405165778 105 100 102
-4.275522724494795 9.280123659783095 2.5629852532893747 108 104 105
-4.262442755380613 9.259655226472008 2.556519769728192 111 107 108
-4.250096517749852 9.273946263551371 2.5622204687623897 111 107 108
-4.23722103051316 9.26172815441101 2.5586410106855433 106 102 103
-4.224883990678304 9.281170133774777 2.5661500923376326 105 101 102
-4.212255662828007 9.285653386495213 2.568422109392212 110 106 107
-4.186996169101867 9.30149786425337 2.5753816836330112 114 112 113
-4.17401073215326 9.277093681671468 2.567528834717266 115 113 114
-4.160895562727251 9.225946040018604 2.550291473700693 116 114 115
-4.14821146684719 9.220603390236954 2.549115943808975 119 117 118
-4.135408743940984 9.184832261737583 2.537261195441666 121 119 120
-4.122760626297669 9.166876926152007 2.5316543971784413 123 121 122
-4.110151629845259 9.133281392264724 2.5205529651918814 124 122 123
-4.0976224614896495 9.124392972209218 2.518123685158806 126 124 125
-4.07276402681081 9.074605862126926 2.5020128225345797 124 122 123
-4.060309751939901 9.072098177528948 2.501820170674904 125 123 124
-4.048346447549803 9.006606873592581 2.4794820198775156 126 123 124
-3.99904826153993 8.988727875088951 2.4759266212785085 127 123 124
-3.9867123947919314 8.985670419492621 2.475534361674395 126 122 123
-3.409010430154494 8.129407999732214 2.2067479037020394 123 119 120
-3.3991893298284475 8.114993328510412 2.2022283364464283 123 118 120
-3.2601482529637993 8.040062388003493 2.183595127670652 123 120 123
-3.2498850271872564 8.031702177501847 2.1812261692351425 123 120 123
-3.228068080356219 7.944547057223419 2.151824518264324 128 122 126
-3.1190068134430353 7.849283709580378 2.1243949235032953 130 125 127
-3.1170557612551555 7.793064802735879 2.104759933851224 128 124 125
-3.110449283346584 7.76599281459312 2.095617832862782 128 122 124
-3.1031290375704237 7.7436973115428644 2.088192551319176 128 122 124
-3.0893364864510136 7.759848876746003 2.0946265204263392 130 123 125
-3.0794513467152296 7.752889779193029 2.0927287142513866 132 123 126
-3.0657469270178557 7.767977910026529 2.098784361546005 130 122 125
-3.0530988033352076 7.776682413935686 2.1025398770446433 131 122 125
-3.0431252551414185 7.7700958219613465 2.100777769919904 131 123 126
-3.013985548077933 7.686453861823977 2.073014376482645 133 125 126
-3.00625786527025 7.66882338191878 2.067249849482144 134 123 127
-2.997309031551501 7.657954982929199 2.0639274652605657 133 121 124
-2.9906423358367986 7.63528565634185 2.056334802759356 134 122 124
-2.9844939083528628 7.610316493543769 2.0479058617235997 137 122 125
-2.974513281025599 7.605479400052843 2.0467585286949195 136 120 123
-2.966857073711338 7.588850034653822 2.0413416213560804 136 118 122
-2.957906503452836 7.579014595403324 2.0383820844155243 137 117 122
-2.9523275207647592 7.55247146049166 2.029368944323294 137 116 121
-2.9440753947885714 7.539605040826693 2.0253064149357054 141 115 120
-2.9348072520744326 7.531910784612272 2.0231163545724113 140 114 118
-2.926788888043052 7.518238348975189 2.0187578579084042 138 111 116
-2.918747701968019 7.504877647731266 2.014510095803741 136 107 112
-2.9109628191325188 7.490488860370907 2.009887135363766 134 105 111
-2.9023191144497127 7.480372272851041 2.0068119141058216 133 103 108
-2.893361307180105 7.471861742068527 2.004318053878567 132 99 105
-2.8843021170867202 7.463926954602162 2.002031981770528 131 98 101
-2.875925744660433 7.452942318781809 1.9986371544676185 129 94 100
-2.8685138354785598 7.437701799535179 1.9936944821744624 128 91 96
-2.860138597364093 7.427038755224231 1.9904125276434845 128 89 95
-2.8515423791710557 7.417505751961402 1.9875396243483698 129 88 94
-2.8434828097495335 7.405704048533006 1.983840361408923 127 85 92
-2.836639471470594 7.38869346623236 1.9782446757723415 126 83 87
-2.8302351328234865 7.370004370249248 1.972035284460798 123 79 84
-2.8245012442913033 7.34867481904427 1.9648615904655211 122 76 82
-2.818850379152995 7.327297546056441 1.95766655138625 130 81 87
-2.811561959668821 7.313215896395031 1.9531240253323667 130 81 85
-2.7661590755325243 7.282272024108266 1.9447653670275291 132 82 85
-2.752328257271977 7.295576274912793 1.9502015396909416 133 83 86
-2.727368203047857 7.353546962115483 1.9719383141415812 133 82 86
-2.7189935911262633 7.3441702695820155 1.9691080617416408 133 82 86
-2.702660314084291 7.324089607833947 1.9629584709691348 134 83 87
-2.693491246945422 7.318142962164634 1.9613766575940181 136 84 90
-2.6854469232351135 7.30787924664848 1.9582166579243305 137 85 91
-2.6745734833736456 7.308637870460854 1.9590837302062014 139 86 92
-2.670455444143566 7.283498224881764 1.9504827586178957 140 87 93
-2.661449002580877 7.277259889418972 1.9487895269713547 140 89 94
-2.6471821257544073 7.290910880606603 1.9543715551408092 139 90 94
-2.6349735770791574 7.296622355692535 1.9570517061415365 140 91 97
-2.631890394615247 7.268304861315756 1.9472775815457912 142 93 99
-2.6207401620734427 7.270120212695458 1.9485310422323152 142 95 103
-2.6147931903261967 7.252814447319382 1.9427821788722635 147 100 108
-2.6115939789351836 7.225725153034868 1.9334457790556696 156 111 116
-2.6154043395588658 7.173668655991044 1.9149542635212715 162 120 124
-2.610297762431368 7.154283608677004 1.9084287805082185 166 129 129
-2.603992584819321 7.139402661842655 1.9035512445315512 164 135 131
-2.596679494434741 7.128258224976307 1.9000415619098405 160 137 129
-2.586249487563696 7.128180344451449 1.900590377643689 149 135 124
-2.5774167368470255 7.122498813302454 1.8990830877953546 137 134 117
-2.571168673910639 7.107907158279383 1.8943039892708844 131 136 116
-2.1713877457969883 7.906838924348194 2.1969545371420733 163 177 164
-2.165220251797799 7.887992506100848 2.1906768143526807 165 176 168
-2.1563447550872947 7.877799555687448 2.1875875806865093 168 175 168
-2.148111323620917 7.86570586669757 2.183795383571401 170 174 173
-2.16929276998047 7.763026236396742 2.146566606384616 173 175 174
-2.165973519527669 7.700460301046736 2.1247782692952115 176 178 177
-2.1650076281951565 7.667595640794022 2.113290324574719 178 180 179
-2.160497253434878 7.645760448185951 2.105871472813872 178 180 179
-2.165907210905237 7.594481204965147 2.0875645471154707 179 181 180
-2.1302005988005304 7.666034277109895 2.114664790362261 181 183 182
-2.126517873319804 7.642053894032556 2.1064468774776564 183 185 184
-2.128129271248877 7.602769562012667 2.0925621214400705 183 185 184
-2.1268355155877963 7.572400998996257 2.081968859415653 183 185 184
-2.121065141814036 7.5553555804014865 2.0763016682942297 183 185 184
-2.0994794369399186 7.584135066736003 2.0876007713476743 184 186 185
-2.0951098259929473 7.563136453943692 2.0804679309388634 184 186 185
-2.089853132396529 7.544880373350964 2.0743472072960003 184 186 185
-2.080075244996119 7.539630890596325 2.0730438531961064 184 186 185
-2.072940092776145 7.494379291411628 2.0575467016717583 185 187 186
-2.0369797670237704 7.4660290433904795 2.0495772459093238 185 186 188
-2.062254194771976 7.334830217147947 2.0021070917128556 185 189 190
-1.9762405206998328 7.504925426137827 2.066592053459691 186 190 191
-1.9653607030217877 7.502826868749108 2.066456102704149 186 190 191
-1.9452818415366353 7.525131450737089 2.0753981307068967 184 188 189
-1.933261507889695 7.525898683262245 2.076331581897495 183 187 188
-1.8962699133047838 7.439947955188953 2.0481911503276384 177 179 178
-1.8206123581962683 7.572445400547126 2.098900571061036 173 175 174
-1.8687203504490992 7.2507864656163 1.9832839194347134 167 168 170
-1.768971451984083 7.3255225200074765 2.015039721199909 166 167 171
-1.7113985321399159 7.406282040331678 2.046580974131147 164 168 171
-1.6485926809438154 7.497518059016819 2.082090401917313 171 174 181
-0.9988482401858516 8.800821488343287 2.575672778092423 222 229 239
-1.0176900488756588 8.725341020500121 2.5481249562429724 222 226 235
-1.2687751807473122 8.131626103155414 2.3257559027126242 222 226 235
-1.2606020015255035 8.120015468974863 2.322130014769568 222 224 236
-1.3270880316086462 7.943231441126393 2.256374825424975 221 223 235
-1.5170340108963525 7.49607238683704 2.0888501675927733 217 218 231
-1.6572944146769122 7.161997533225431 1.963782730062044 209 211 224
-1.650431113408739 7.152121638003815 1.960693682792733 197 201 212
0.19868979157733874 8.62456704762892 2.5799297080720986 191 192 210
0.4637387122651389 8.941111664001967 2.705734396386478 205 211 227
0.5183326589586957 9.00058232890406 2.7296349382470764 205 211 228
0.5905696177947454 9.08700255953827 2.7639741588792983 203 208 226
0.4712242234643297 8.826077563694358 2.665750613323303 199 203 217
0.7295695264239472 9.170608596238162 2.8010131622929397 210 211 221
0.866214488349504 9.352377484248985 2.872394578147078 225 226 232
1.0219953006244034 9.561833750541908 2.954556241417715 239 239 243
1.2507901282590048 9.823676139632472 3.0591480664501707 255 253 252
0.9748499660761359 9.3835220931792 2.8893329864710835 255 251 252
1.0026510210803525 9.398585548110722 2.896158682486649 255 250 251
1.0437813449163873 9.433293658931243 2.9106194472889753 255 246 249
1.0727968721227337 9.449824599454349 2.918027578834352 252 242 245
1.1306131359490739 9.508649680996609 2.941879411384636 246 239 240
1.1369998313171332 9.491529567121672 2.9362200353367034 240 231 233
1.5276395869564214 10.036771002618893 3.1492754910140763 230 220 222
1.6178666715280343 10.140172485095103 3.1905719261792984 216 206 207
1.8211080746039285 10.377785779520487 3.2852434581213896 195 182 184
1.8391550310089606 10.316773492305378 3.264814301385994 189 173 175
1.7169820160840594 9.975240510047108 3.1381269112670784 201 191 194
1.790947198777936 10.0516438458329 3.169043901278916 209 202 204
1.8494981973721267 10.105997988618608 3.1913662320754663 216 211 212
1.9451618383605598 10.211595948279578 3.23373434038474 220 215 214
2.0224632375375347 10.291008161064338 3.2658922742053296 220 211 210
2.096576854352232 10.365463858587663 3.29613349878575 218 202 202
2.1035744331286863 10.34694996239033 3.290018404816036 215 189 192
2.113008182767515 10.331873864355194 3.285245162203567 211 177 183
2.119443952319261 10.312765375014223 3.278890226012047 210 170 178
2.1271808573954365 10.295528190144232 3.2732643244976716 210 171 179
2.0820087577999105 10.20644065810397 3.239483503766232 210 176 183
2.1467088884447914 10.266799797063475 3.2642543341867087 206 178 185
2.1713657010081557 10.272650331444144 3.267670975958093 198 179 184
2.191759945949339 10.272696087514873 3.268813645931957 190 178 182
2.208028485012794 10.267176829451762 3.2677741040911172 180 174 177
2.2097990501725024 10.242270769389565 3.259125485121492 173 171 175
3.14918020007895 11.405916490199903 3.719663197885238 169 169 173
3.428813298986715 11.587823048903148 3.7989917893567875 180 180 185
3.7214074607179906 11.840979857950288 3.904057789864595 173 173 177
3.7453023881081084 11.808863693043476 3.894099325522509 172 172 176
-5.051169545983098 10.369679959699573 2.8877894096672327 11 9 10
-5.039726901954109 10.391865408408664 2.896167535539026 10 8 9
-5.0263849738155075 10.397100100551059 2.8987274599459987 12 11 13
-5.012109937804483 10.393761747428615 2.898343254735739 20 17 20
-4.997334861705117 10.38561800891158 2.896307538871976 35 27 29
-4.981943954676863 10.371308210990373 2.8921512635590547 54 41 41
-4.966687115728575 10.357984422035747 2.8883321348934756 74 54 52
-4.9512605947664445 10.342627379471041 2.8838119239225315 94 67 63
-4.93514384919122 10.31979063702682 2.876716269100308 108 76 71
-4.90569266448616 10.157073430864148 2.821479702970777 114 78 74
-4.889295540066421 10.127507102879443 2.812048223654764 117 80 76
-4.874419225686786 10.113460268741742 2.807955627489306 120 84 81
-4.857894333047136 10.080895576179 2.797483578264681 121 89 86
-4.842924032354619 10.064684383296653 2.7926399467171494 123 96 94
-4.828282162006776 10.051746151559568 2.7889218292213327 126 104 104
-4.814124434128319 10.044077827523578 2.787018388532174 126 111 111
-4.800751423858722 10.045548999523612 2.788265114916741 126 116 116
-4.716054228076261 9.489985727485026 2.59880275278772 114 109 111
-4.527112617295414 9.52051854101754 2.6198227220386494 109 105 106
-4.515602888849821 9.54569168927273 2.629248367932875 111 108 109
-4.504735482391541 9.585219673901227 2.6436541218929834 109 105 106
-4.494136366522609 9.633018683208217 2.660934911666265 106 102 103
-4.480704121288839 9.625348156086723 2.658990950974808 103 100 101
-4.467766676432697 9.62804197130199 2.660640979937855 103 99 100
-4.45437396575566 9.620992180078186 2.658911726190918 107 103 105
-4.437796232914145 9.539575664483523 2.6313746911826814 111 107 108
-4.424241572596693 9.524992186117158 2.6270221864987047 108 104 106
-4.410449829857688 9.5034747690089 2.6202600879933264 105 101 103
-4.382918726869116 9.456828548894572 2.605471272566935 97 93 94
-4.3699071951755455 9.452368202320063 2.6046258352665794 94 90 91
-4.356892497229223 9.44768801047595 2.6037037617699683 93 89 90
-4.343695294793168 9.437015380961396 2.600698046287559 96 91 93
-4.330349945430019 9.420489188889555 2.5956553265920363 99 93 95
-4.316930888403527 9.399716925408583 2.5891331503229704 101 95 97
-4.303104913083319 9.361163700686786 2.5764209461814342 102 96 98
-4.28857115049846 9.288888318359621 2.5519656539145315 103 97 99
-4.275796137286184 9.283424731811106 2.5507567447906108 102 98 99
-4.26270964053963 9.262865999647987 2.544290950750414 105 101 102
-4.250078306916747 9.262684066031776 2.544919476463525 107 103 104
-4.237434105144367 9.262348372483503 2.5454949864991456 103 99 100
-4.224944318242917 9.272222325208356 2.5496290886148736 101 97 98
-4.212603730121812 9.295556632499611 2.558457803137607 103 100 101
-4.199553314366357 9.269990918630402 2.550240689714981 104 102 103
-4.186671410611748 9.252855079957916 2.544959578419702 105 103 104
-4.173877545686463 9.240097726637739 2.5412034013394162 105 103 104
-4.161074608613053 9.221842970128296 2.5355270351157424 105 103 104
-4.148049863535699 9.157089192448744 2.513616964518611 108 106 107
-4.135564407374061 9.171325981323154 2.51927511981324 112 110 111
-4.122911943422053 9.141859532813813 2.5096733608642596 116 114 115
-4.1103507467705125 9.114285117827444 2.500727641117118 120 118 119
-4.097891377995166 9.06740697635836 2.485031993840561 123 121 122
-4.085513230039266 9.04623525576683 2.4783132220164577 122 120 121
-4.072854240695025 9.10345023832475 2.498996634078782 121 119 120
-4.0603221665187155 9.10584458657764 2.500519824214041 122 120 121
-4.048315161059671 9.038479103041231 2.477641510678122 123 121 122
-4.036241697042842 9.001265926376028 2.465301470644154 124 121 122
-4.011903610015001 8.968750418252874 2.455274702199705 125 121 122
-3.999841889686017 8.94980887783842 2.449317774596914 126 122 123
-3.987671666746119 8.940819128403957 2.446843755072897 126 122 123
-3.974423677511502 8.992453279936687 2.4656096050360286 123 121 122
-3.9490086252167855 9.01933874930037 2.476395396406431 124 122 123
-3.939535235890204 8.890252848540237 2.431814343631251 126 124 125
-3.9273154507749735 8.888339502902303 2.4318153981491983 125 123 124
-3.391710343815152 8.39784000115189 2.289790981082219 124 119 123
-3.4090230315127883 8.131758224611765 2.19587857265397 124 118 122
-3.395516962643742 8.150331401039573 2.2031076986954976 123 117 121
-3.3887578152590874 8.108732569609735 2.188944216399486 123 117 119
-3.378881205976082 8.095408616825798 2.1848302396076047 123 117 119
-3.369164495143656 8.081044389643289 2.1803440500082614 123 117 119
-3.341137837815901 8.221110521583734 2.230816066973416 123 117 119
-3.3328234572687205 8.193499708067597 2.221624940833545 124 118 120
-3.2463679810781683 8.059470653427027 2.1795348103102015 127 118 123
-3.233567929097181 7.987561763005587 2.155112570602793 127 118 123
-3.0317993953174844 7.89960422962196 2.135437113575661 129 123 127
-3.0371663922811716 7.805372436361234 2.1022202839109045 130 125 129
-3.031753424815922 7.773099019730605 2.0912411617385422 131 126 130
-3.0224807409562726 7.762716528764707 2.088121784762416 130 126 130
-2.985060436176248 7.666181203708314 2.0564445264072626 132 124 127
-2.9786508865543717 7.642267441501096 2.048440709847688 133 123 127
-2.9700483068222203 7.630041675859949 2.0446406123795486 134 122 126
-2.9615864198155175 7.617283236945676 2.0406467004183626 134 122 126
-2.954386304034995 7.598352098848865 2.034427032547756 136 121 126
-2.947379594337266 7.5787615610140096 2.027966386167 134 119 124
-2.9389267534236203 7.566647104752213 2.0241969736251444 137 123 126
-2.9299257204294813 7.557397488396958 2.0214585169403603 137 123 126
-2.921751818366681 7.544250365206226 2.017313027090779 137 123 126
-2.913663940244575 7.530881118627278 2.013085218249369 137 122 123
-2.9055165426167413 7.51799056317011 2.009027915979683 137 119 123
-2.897044614492672 7.5068194304029 2.005589128216889 136 117 119
-2.8882079517198416 7.497510605874856 2.0028209792510534 135 115 118
-2.879523735873207 7.487612221442685 1.9998384966745144 135 114 116
-2.871269729509566 7.475860683229327 1.9961849862265724 138 114 118
-2.8638963133710407 7.460248181666416 1.9911342810849393 136 111 115
-2.8556952548417636 7.448606398084916 1.987516215688429 136 107 112
-2.8486559287036957 7.431906522651928 1.9820672978786462 135 104 109
-2.8407242762467337 7.419416893510391 1.978138250497032 133 100 105
-2.834025534771491 7.401654912410645 1.9722995923877011 129 95 99
-2.827004769775744 7.3855560472593735 1.9670596389391601 125 90 94
-2.821342032376457 7.3637896282792 1.9597651435543726 125 86 90
-2.8160251570648005 7.340851451078966 1.9520423082332212 130 84 90
-2.8109273273163895 7.317311920014929 1.944097369680599 131 82 89
-2.8057148800027583 7.294598674577562 1.9364473993944002 130 80 85
-2.781633156556602 7.263281210573997 1.9268251578190534 132 82 87
-2.7707323544370994 7.264874822426397 1.9279792063086645 134 84 89
-2.7600394585590062 7.265558872508467 1.9288040800327682 135 84 90
-2.7454580928449595 7.281889440955928 1.9353085994067092 136 84 90
-2.7127736110721337 7.370438253401681 1.9680366717631743 137 85 90
-2.706359037750536 7.353178282650985 1.9623578363474623 137 85 91
-2.6988130713086043 7.340605240979732 1.9583785139254883 138 86 92
-2.6911192898329985 7.328762842282829 1.9546625630185872 140 87 93
-2.6840449725205384 7.314653888024538 1.9501207801145894 142 89 95
-2.67289662009299 7.316427737029731 1.9513513636294486 144 91 99
-2.667124138911139 7.297562103498366 1.9450763595354645 146 93 101
-2.6551861342016094 7.302361806973287 1.9474073842459594 147 96 103
-2.644002648858062 7.304208884413018 1.9486654773432048 146 95 102
-2.6332345248498976 7.304437443153608 1.9493353330755032 147 97 106
-2.623275270619497 7.301619868875431 1.9488966097242748 149 99 108
-2.6163026582069397 7.2877853440888565 1.9444451345988523 150 103 111
-2.6119645256292383 7.264460130886624 1.9365334496046909 153 106 114
-2.6069212158463775 7.2439956778690835 1.9296598965432337 160 115 122
-2.61420900420673 7.179242210109085 1.9066369799225062 166 124 128
-2.6074875793670587 7.165610977056474 1.9022427680468164 171 132 133
-2.601307918384159 7.1502056627283785 1.897199042469847 168 137 134
-2.5937857944460974 7.139728274591269 1.8939505944447894 163 140 132
-2.5833488816854775 7.139600683188578 1.8944778706505327 151 137 126
-2.574712577072223 7.133159305554009 1.8927005741773388 138 135 120
-2.5672406841129445 7.122737434963659 1.8894687706770619 132 136 119
-2.5612839004688754 7.107208913312853 1.8843697870622709 131 143 123
-2.554591934716858 7.094369591811034 1.8802506396396965 132 147 126
-1.824132491319035 9.38683195835983 2.7212155713839867 140 157 138
-2.176448571156302 7.930770408656193 2.1931919330704126 158 174 161
-2.1683281942958583 7.917866353176071 2.1891284336455805 162 176 163
-2.1608529686594364 7.903061149033661 2.1843653608855305 163 174 166
-2.1524803332180995 7.816187816610738 2.1544722501000875 171 173 172
-2.145208884221936 7.801604431856782 2.1497755115098833 172 174 173
-2.141303526342291 7.776909684262319 2.1413616253417915 175 177 176
-2.1804174947788626 7.6222123429101085 2.0851702566574435 177 179 178
-2.2022813110976722 7.521267971727489 2.0487042966709144 177 179 178
-2.202209760665824 7.48712899982504 2.0367807213271116 178 180 179
-2.1274876729570504 7.640450207592752 2.094442318075975 181 183 182
-2.127748156083885 7.605141805380681 2.082091973808567 182 184 183
-2.123752528854523 7.582651171465961 2.0744531082723343 182 184 183
-2.120436881298009 7.558417199182917 2.066167896958509 182 184 183
-2.1004961509805256 7.582439777899618 2.0756535034281924 183 185 184
-2.09544745527103 7.563400713271392 2.0692782485711088 184 186 185
-2.083692410441672 7.530589441450545 2.0584587021823086 183 185 184
-2.1211815608978757 7.392052258053837 2.008002405979357 183 185 184
-2.109471898745083 7.393093560020606 2.0090078067497115 183 185 184
-2.089405329443103 7.417407423403145 2.0186020773485764 183 184 186
-2.07830097422687 7.416556418828641 2.0189131771780984 185 186 188
-2.069329517989646 7.4098019497132475 2.0170448560666645 186 187 189
-1.9429417310911539 7.532535899214692 2.066850698565025 183 187 188
-1.931230537500219 7.532451640179817 2.0674629340270956 183 187 188
-1.8979659086112497 7.43677432168034 2.0358577508063926 177 179 178
-1.8917110676881728 7.423121906238245 2.0314305733784046 176 178 177
-1.8199790651126355 7.575233247477148 2.088505634922156 174 176 175
-1.800176796104987 7.595043572321203 2.0965119749530574 173 175 174
-1.7819579245824186 7.610656474980899 2.1029650602203316 172 174 173
-1.9074710022065722 7.2121845999346075 1.9568696526931162 170 172 171
-1.8627017601356544 7.238978210577336 1.9686837956159469 167 168 170
-1.8462588365332704 7.251350434287134 1.9739073435505181 167 168 170
-1.7290471910662095 7.366022505480415 2.02039374727108 166 167 171
-1.495970834381592 7.543611319647357 2.0952104446901916 216 216 229
-1.6542213311869802 7.16979569032998 1.9559357194568414 208 209 222
-1.6470646719325777 7.160525807892435 1.9530891261799972 196 199 211
-1.641068010430915 7.1487970806806125 1.9493199021290795 184 188 200
0.7353267077047637 9.706749847473311 2.973225311586659 176 178 191
0.15670314391829068 8.559180939658672 2.5405833006248764 193 194 214
0.4682274299164009 8.949448788301853 2.694004214485861 204 211 228
0.5175760033974784 9.000727510630128 2.7146238897562314 204 210 228
0.5987770910064284 9.075032116104175 2.7450336099417743 199 204 222
0.6739672335487 9.165096407852772 2.780620110599339 198 201 218
0.7014445119134354 9.181170601890551 2.7877416441981224 197 200 215
0.7284753933960508 9.196421478420714 2.794551067845276 201 202 216
0.8207606808762273 9.311114120876878 2.8396789060664753 213 212 224
0.9390509220041519 9.464515724183096 2.8997557562115017 230 227 236
1.0415666044975935 9.59291107840945 2.9502315953321534 243 241 247
1.2371503485407631 9.83271513860373 3.044730818227043 255 252 254
1.2651351945215377 9.846653153264933 3.0511338225118485 255 252 253
0.9366581133495773 9.301710228864094 2.8427435631981637 255 253 255
0.9691144100869956 9.323893055321106 2.852272142590272 255 252 254
0.9759992832898208 9.308083450893438 2.8471258055211535 255 252 254
1.1170195478874234 9.490024607603512 2.918419235196025 255 253 254
1.5522525235791078 10.07429526759042 3.1463991600282415 249 240 243
1.6338346028003345 10.164982648744761 3.1825535798970863 236 225 228
1.598967010634264 9.837655303877481 3.0662812962245956 202 191 192
1.6866016871584866 9.934028144511274 3.1047537364628304 218 208 210
1.7981817007558083 10.06327401897413 3.156023379238881 231 224 226
1.9042136811021042 10.18389034544656 3.2039740399549332 241 237 237
