ply
format ascii 1.0
element vertex 707
property float x
property float y
property float z
property uchar red
property uchar green
property uchar blue
end_header
0.33374638955739083 11.24119676004589 -1.91974945685851 121 91 84
0.24448693270190175 10.93744408585487 -1.8698422735020253 105 62 56
0.3018113082465595 10.86800524846048 -1.864226075723662 105 56 41
0.09027712789671277 10.229961465300793 -1.7576025100153256 118 70 53
0.7870297887156723 10.847584199442148 -1.8974787425238144 141 87 56
1.145137773777757 11.015049208048593 -1.9480140194961448 147 85 60
1.1661526648262779 11.018250806916331 -1.9500360602152367 147 86 59
1.1887168169194675 11.024063448304188 -1.9525453780714193 148 87 59
0.16597212459744548 8.838934365877744 -1.5651577948591795 145 119 118
0.14943088763594042 8.788597856985497 -1.556757018256143 143 114 113
0.08650580563251084 8.664141329385162 -1.5343446256747482 150 122 120
0.08424045293678527 8.637566644037795 -1.5303914975646633 148 124 120
0.07383665385531336 8.598186105146329 -1.524008269008359 136 118 113
0.07610960451403126 8.579195860257732 -1.5214733996958878 122 109 105
0.07901214318083409 8.56131459015477 -1.5191433710022575 120 109 106
0.09712035930319315 8.479050062559274 -1.5087781961777444 143 132 130
0.10060500289064414 8.462664974251155 -1.5067046087258007 126 113 111
0.09382518225748814 8.430515294066637 -1.5016211483836266 116 102 98
0.0869858725905542 8.398474587197567 -1.4965487727308069 122 107 104
0.10475365789472627 8.404389303872183 -1.4987151794135511 133 120 117
0.10834703004275133 8.388570090634422 -1.496730276976361 140 129 126
0.09721666143954703 8.350401084624082 -1.4904654265803465 140 129 127
0.09268224850271346 8.322489409736216 -1.486152807072113 125 114 113
0.08819717513896883 8.294822151370708 -1.4818786701156994 104 92 93
-0.02949156282373157 7.863814868377108 -1.4117314233771414 96 83 78
0.0626019099812993 7.9781915042054505 -1.4348821738322977 102 85 79
-0.08557918945714194 7.7094502182644415 -1.3855695950798257 90 70 70
0.12210586471002978 7.785703124309992 -1.41190583574595 41 29 31
0.14224251075896086 7.7778224789358585 -1.4122842854929192 51 40 40
0.15130887848034602 7.772528375507198 -1.412206058251788 60 48 49
0.16963146406684226 7.779837152209243 -1.4146123289077828 66 53 54
0.17759795192896605 7.773046854495086 -1.414239071714795 72 60 60
0.2962551528999866 7.827125469297596 -1.430782877591437 86 70 70
0.3194289538678472 7.7710572497532775 -1.4245256349449866 90 73 70
0.35162975657909945 7.7960096284591405 -1.4304786676020276 87 70 68
0.34089795684409 7.76488305165093 -1.4252463804547895 86 70 68
0.36590218180138157 7.780327992385893 -1.4293092078682077 85 70 68
0.369487443333857 7.767938155589379 -1.4278120530468292 83 70 67
0.38194246061820397 7.767054273357949 -1.4286143901856432 81 67 65
0.39789664188700585 7.770662417469388 -1.43031717700305 78 66 65
0.5875426721985189 7.7757834986300685 -1.445179712544189 32 21 24
0.5973383580040014 7.771404122759563 -1.4452860969519665 31 20 23
0.6061182762331123 7.765788556109712 -1.4451407450061133 30 20 22
0.7175331666515163 7.770856084804608 -1.4541655159804519 47 42 40
0.6067389460236179 7.622280826787985 -1.4247511291150639 53 50 50
0.5859282289026114 7.581822403690669 -1.4174388364402664 55 52 52
0.5825786186404861 7.562338811466383 -1.4144146945108769 52 41 43
2.2467901373643175 9.43662556913449 -1.8053425391502405 123 120 114
2.2751985329671074 9.449278504170868 -1.8092614719478235 141 134 127
2.279955688533999 9.434275059353972 -1.8074794674457986 150 140 131
2.297599103504565 9.434313738473156 -1.808799842576023 151 138 129
2.3150033923649618 9.434055951253253 -1.8100601793746294 148 134 123
2.323910823677218 9.42396024797634 -1.8092863472629652 136 124 111
2.3323918683252662 9.413410427941695 -1.8084160714893327 126 115 100
2.342973033292099 9.405314098218572 -1.808051689537546 122 110 94
2.354723450481247 9.39858395860187 -1.807968994549428 118 106 90
2.576123554135454 9.549058682916272 -1.845896721236048 127 113 99
2.567930166731105 9.51945007520494 -1.8410697707794388 129 114 101
2.5650625667359184 9.495971954527638 -1.8375127192757656 129 115 104
2.565098904712928 9.475859042276511 -1.8346512967353585 130 116 106
2.561978893234846 9.45230841567221 -1.831065109354641 132 119 109
2.6004442778383883 9.45524445158005 -1.8343498229698263 140 129 118
2.617145437780523 9.45386519261386 -1.8353980589487304 140 131 119
-5.827455464737667 8.575099293578635 -1.0912148387917693 34 35 39
-5.825991466831362 8.602836850098265 -1.0953219479197918 36 37 41
-5.815866340675467 8.600469383614742 -1.0957393586146207 36 38 42
-4.930035219950629 9.068835995994002 -1.2296071538295898 10 10 10
-4.901638981338433 9.101313058677302 -1.2364151331731563 16 16 16
-4.9024682570074605 9.27688334976661 -1.261655470690603 20 20 20
-4.675167128125999 10.350990530927147 -1.4334813637460848 8 8 8
-4.557000924888998 10.18527497411644 -1.4184524314726494 9 9 9
-4.542574552114106 10.165803537840691 -1.41672714866894 9 9 9
-4.504647991717484 10.184049304995536 -1.422198208153616 9 9 9
-4.492360799551316 10.196607339313381 -1.4249286081890677 10 10 11
-4.438152529350822 9.736560891654069 -1.3626900260610242 10 10 12
-3.651038944247319 8.080073070466158 -1.182936361817015 20 23 32
-3.640576656510939 8.084291444460016 -1.1843281577855604 22 25 34
-2.90960671959486 8.56897142180547 -1.3089443738600044 153 149 148
-2.8683720917303535 8.674779961914238 -1.3272824692410599 150 146 147
-2.8952703772675186 8.44880993506559 -1.2927013093917867 148 144 145
-2.884652337285509 8.444023407740596 -1.2928070253368036 143 139 140
-2.8751925575785324 8.432668234196012 -1.291879315168629 140 136 137
-2.8634785743889344 8.434235558254157 -1.2929828329241708 139 137 138
-2.795056384901411 8.686318115714855 -1.3344383000246152 146 144 145
-2.780617641822606 8.635153512570612 -1.3281464550484796 153 149 150
-2.531886686319837 8.466943329997092 -1.3225402513045668 172 166 170
-1.4892255623205641 9.234130596075131 -1.511222954564706 120 96 86
-1.274055062154493 9.476818126408647 -1.5623192061130398 125 120 88
-1.2467284033718595 9.433431344266571 -1.558113864207691 152 132 99
-1.3797216586552221 8.934109281262467 -1.4761894267443247 168 145 114
-0.19427190823478016 10.926341147232126 -1.8521186117611717 193 184 187
-0.1654821629257436 10.951641555689514 -1.857921803709244 195 186 189
-0.10655883608709957 10.963366174663623 -1.8640261933260025 190 180 181
-0.08792000879721013 10.96485818809217 -1.8656376845782983 186 174 176
-0.06887680386176427 10.967214764039477 -1.8674040700314722 183 169 170
-0.04164376968027247 10.987925529427148 -1.8724291887163247 178 161 159
0.3000471452183138 11.251460546012908 -1.9360091260013426 127 98 89
0.30594410564387814 11.22407590847456 -1.932504379850936 117 84 75
0.6307250392197536 10.696728432467765 -1.8808386430443171 142 82 56
0.7536390698652464 10.856148385723406 -1.9130226238740948 141 84 57
0.7778120491801179 10.866464406502502 -1.9163204275727062 142 86 58
1.1098251427851997 10.955606836198376 -1.9540425347680155 147 85 60
1.1288136821156702 10.955536462428652 -1.9554550625135667 146 85 59
1.1315695844731626 10.9275197031451 -1.9516238815048428 148 87 60
0.0790516160733347 8.653419233305566 -1.5450325390915354 150 120 117
0.07749410708476805 8.628012389356618 -1.5412543165942618 158 132 128
0.06769568602409912 8.589625717880379 -1.5349880645664375 155 136 132
0.0665066735183781 8.565164744580796 -1.531373765755656 141 128 124
0.06357626754794556 8.538097706848989 -1.5272534220136686 125 114 111
0.07821883092890201 8.516700948872254 -1.5252668673080139 137 125 125
0.1022314258840018 8.488198329102598 -1.5229582716254435 155 142 140
0.105224200874324 8.47101867774135 -1.5207066371834814 144 130 127
0.10143108607022776 8.443451915225074 -1.5164496388159947 127 113 109
0.09460230783080618 8.411379738728199 -1.511315899062233 115 102 96
0.10133259759161173 8.400315488558881 -1.5102256152376818 118 104 100
0.09799986196038588 8.373916821770107 -1.5061714508069934 127 115 111
0.09599149525427116 8.349696978684557 -1.50253051458858 129 118 115
0.09006308263532203 8.31966743123751 -1.4977586078258693 116 104 103
0.08725176449211024 8.29454101411442 -1.4939268607156129 96 82 84
-0.022735144709875803 7.874664450519082 -1.4251754762364761 95 82 78
0.06036334631452368 7.97603015963855 -1.4460098363113922 101 85 79
-0.052401555167372806 7.776221434275845 -1.4087655901997094 98 78 75
-0.09966873311701768 7.690307929621168 -1.3928427115676194 88 68 67
0.1413525634303322 7.777623147938852 -1.4234841514056105 72 62 63
0.15592682331807656 7.7798449264266125 -1.4248962856588954 85 73 74
0.17436087724001093 7.787285917815564 -1.42734977702926 86 74 75
0.18937331585085634 7.790025675855842 -1.4288693898331901 94 82 82
0.3137453484681914 7.8164246171945235 -1.44199216620764 96 76 77
0.31798648710963695 7.804656182177117 -1.440613904615265 99 79 78
0.3149642565279891 7.783396014584634 -1.437323543404568 100 79 78
0.3355319532853554 7.7931640914687454 -1.4402722627297893 97 77 75
0.34589977414795253 7.789530773882537 -1.4405254274703603 95 76 75
0.36047011221020686 7.791377753540166 -1.4418832534230794 95 76 75
0.37932925550740654 7.798767325376265 -1.4443611831973169 93 76 74
0.38687591978006275 7.791450487326553 -1.4438721258674057 91 75 72
0.3967725809141772 7.787195421025048 -1.4440003862510473 88 73 71
0.41121706916148526 7.788802920613917 -1.4453142703316075 86 71 69
0.4931108861601471 7.775140059402012 -1.4494809282378567 70 58 62
0.5017657385968118 7.752731151728192 -1.4468998921239729 62 48 53
0.59175675290111 7.781973616541454 -1.457856551969058 48 37 41
0.6028728630786871 7.779202869996462 -1.4582900906450478 42 31 35
0.6209298528295853 7.784952012681258 -1.4604715091237466 34 23 27
0.6306049844408217 7.780394887880331 -1.4605396405215447 30 21 24
0.5769728823984972 7.587636744994785 -1.428741875312242 26 24 25
0.586238946213554 7.583137671962336 -1.4287877244913394 28 26 28
0.6048370794788188 7.589746230014733 -1.4311335422318283 29 20 24
2.278449700837144 9.495759519590216 -1.8312116657546702 87 85 82
2.258873773289507 9.452052665475438 -1.8234461351786935 112 111 105
2.2774745625533854 9.41217809142007 -1.8190931939055048 141 128 118
2.291567787922261 9.408146738728494 -1.819568112255119 140 125 113
2.2998238857633884 9.397371466236839 -1.818633792133211 133 120 106
2.309037058044153 9.387740610245492 -1.8179361070694744 128 115 99
2.319629518678115 9.379730004753716 -1.8175752656464015 126 113 97
2.3298736067589827 9.371345731023418 -1.8171344717332676 125 112 96
2.5930977729211175 9.610659173927552 -1.8713447666978678 120 109 93
2.592027890983185 9.588828598933103 -1.8681184756484748 120 107 92
2.5946022848784014 9.571219063640307 -1.8657735419234982 117 104 91
2.5875155700925836 9.542794789109564 -1.861146197549535 116 102 91
2.5962681820101174 9.532316366943334 -1.8602918583758772 117 103 94
2.6020645135303417 9.518561525022013 -1.858743842993361 119 105 96
-5.807993588996298 8.506874943613132 -1.0930153494706973 36 36 41
-5.593093083772933 8.294402094772304 -1.0782170714186008 40 39 44
-4.916202829692217 9.126032638291573 -1.2504766064997606 12 12 12
-4.905881583376931 9.13115012280236 -1.2520002854802579 16 16 16
-4.905049168056857 9.208680986709798 -1.2633692284688045 18 18 18
-4.662691954898422 10.355818443246232 -1.4489095568448713 8 8 8
-4.506529559580624 10.207084913032029 -1.4389821326915253 10 10 12
-3.6319679173807784 8.062169170092316 -1.1920637365448872 21 24 33
-2.910248094022233 8.638568179553474 -1.3304797092304694 158 153 150
-2.9051662325929155 8.59837410427789 -1.3250010175455567 153 148 145
-2.875284295969633 8.434633616415852 -1.3033736356823953 139 135 136
-2.860113682059249 8.455733871284664 -1.3075933222457674 140 136 137
-2.784893710893589 8.745156916596088 -1.3554651898504835 148 144 145
-2.581010840229893 8.512912403205034 -1.336953776704208 152 146 148
-2.5318145210185654 8.469330438741766 -1.3343037561903013 173 167 171
-1.2347393888296503 9.585332333039238 -1.5947455109956667 125 118 89
-0.17889344500841334 10.922607432058841 -1.869285800697086 194 188 188
-0.1468804061323576 10.914127055537904 -1.870460354690087 190 179 177
-0.13320284616145936 10.904583775293023 -1.8700988688941098 184 171 170
-0.11255281682122047 10.910916629516887 -1.8725777531917769 181 164 164
-0.060769984764492524 10.987480870843243 -1.8876433460599982 178 159 159
-0.04576211990540283 10.980619646515503 -1.8877731809262435 171 151 150
0.3139446413488339 10.642920593443542 -1.8656201773392527 120 69 45
0.44067608359783567 10.786257181095749 -1.896068279493225 129 77 55
0.8323804779167052 10.968374037700409 -1.9521295660789972 144 87 60
1.1151295568708028 10.900962393523725 -1.9635958015141235 145 86 60
0.08250096114655812 8.660201561400827 -1.5590498719641692 143 108 103
0.07163481585423086 8.61987366171419 -1.552350452783439 153 123 119
0.06401556598479789 8.584985702951332 -1.546688892338906 159 137 132
0.05678825502509941 8.550944554810687 -1.5411803424435317 156 141 136
0.05614102385980494 8.527539871583807 -1.5377185121106463 145 134 129
0.056545748147867045 8.505938128414497 -1.5345988364690808 140 131 127
0.096432782487128 8.48037273570493 -1.5338749737308666 157 144 142
0.09848541414424476 8.46176141270147 -1.5313155091696444 155 141 138
0.10563032474054097 8.451128266382474 -1.5303030468490495 145 131 127
0.10269409021133137 8.42502164212228 -1.526274786368751 128 115 109
0.09191990337513863 8.387043169556254 -1.5199249080531747 116 102 97
0.09553496909262367 8.37131539829221 -1.5179036321677852 115 102 97
0.0934290787060415 8.346953730313304 -1.5141923787879232 113 97 96
0.08904183984870126 8.319271977000472 -1.5098251284923057 99 82 82
0.08110485518616944 8.286383358963413 -1.5044311978739775 82 66 68
-0.02491138819728234 7.872564385222975 -1.4360992107645285 94 80 78
-0.014263317237597056 7.869239146273344 -1.4364163127854954 100 84 79
-0.01725740007081369 7.846264772699857 -1.432840467992953 101 83 79
-0.049808831291370925 7.780978790662723 -1.4208680908620677 97 77 73
0.09508387416991963 7.8402547269393965 -1.4404256315094541 31 24 27
0.13920671259625822 7.79345546744772 -1.4369242990491635 57 45 47
0.15608447168596346 7.798806196146024 -1.438975831681246 82 70 72
0.16911508562972627 7.79885790802067 -1.4399648452756226 94 80 82
0.17746667737168578 7.792528719607431 -1.4396709124895635 94 81 81
0.19570807837926818 7.799633155421782 -1.4420808966083316 100 87 86
0.30801216715637525 7.809855487100122 -1.4520304099728423 84 64 66
0.3155145415444811 7.802408009962218 -1.451509434822772 85 65 66
0.3117873478660792 7.780226229452257 -1.447993954766489 88 67 68
0.328890588854841 7.78546688429092 -1.4500464188543358 90 68 69
0.33382700542905674 7.774761001963926 -1.4488570046184526 89 69 69
0.3515281718565401 7.780734046890699 -1.4510613084389752 85 65 65
0.3704743783865828 7.788272376840889 -1.4535876531995078 82 64 64
0.39476796180035223 7.8026739096743105 -1.4575176188414651 82 64 63
0.4064661617850836 7.800712196317466 -1.4581126586330222 80 64 63
0.4220816199065942 7.803788637719244 -1.459737457165669 77 63 61
0.4873053209892396 7.785548684833238 -1.4619902263739186 68 56 58
0.4939840370033549 7.777233882670955 -1.4612807317499987 73 59 63
0.512059817669761 7.783276210872289 -1.4635233552142475 72 60 64
0.522181125768097 7.779300175424679 -1.463705876212426 70 55 59
0.5994653055236482 7.792480555094216 -1.4714490411757017 57 45 48
0.6228535069354288 7.8047896751311585 -1.475005678605972 47 37 39
0.6453919964638897 7.8159687871013865 -1.4783335274045872 38 28 30
0.66068459449881 7.818198642148419 -1.4798105511450497 33 23 25
0.5549200062864723 7.562206064373697 -1.4345131775873956 21 19 19
0.6116048841634324 7.614335829266415 -1.4463847408334163 23 21 23
0.6313114294298675 7.622176810088149 -1.449012489957401 27 20 23
2.269956636721445 9.466311421874403 -1.8413643124417587 120 119 110
2.2696434422519474 9.383980486535846 -1.8293344880214972 133 116 104
2.2778938990406212 9.373267036508867 -1.8283935853994466 129 113 99
2.2874019970289803 9.364044445673535 -1.8277648193970428 127 113 97
2.2982387929279438 9.35638200489432 -1.8274636466566034 128 114 99
2.6135852485424196 9.635235086106562 -1.8918805570186814 126 115 99
2.6143389768362724 9.615403335663872 -1.8890452847310233 127 114 100
2.6136195168608007 9.59399569263638 -1.8858692403771518 127 113 102
2.615856663560046 9.576020493460767 -1.883416438857776 126 114 104
2.6239275474594432 9.564685057364109 -1.8823713071338914 126 113 104
2.631176290796937 9.552470602504028 -1.8811360649727686 125 111 103
-5.7855075161584875 8.39641012443656 -1.0885929231050864 37 37 42
-5.790038532309548 8.443899602801418 -1.0952565238533756 38 38 43
-4.9117875889099 9.091173007395586 -1.257256166767813 12 12 12
-4.907964257958906 9.228725542241934 -1.2778404090626536 17 17 17
-4.746207314679668 10.541636622942116 -1.4837976258422958 9 9 9
-4.712342898451622 10.464199538074155 -1.4749365806361587 9 9 9
-4.69490270643204 10.417651203917583 -1.4693893003702834 10 10 10
-4.661592966257676 10.338330028337829 -1.4602082738744173 9 9 9
-4.194327919778731 9.48371938411763 -1.3694980696628205 14 15 20
-2.9072201678990255 8.659719725429328 -1.3453814584618444 157 152 149
-2.8862743990022164 8.714912823767387 -1.3551107269000893 152 147 144
-2.8831744118302365 8.66244480175346 -1.3476042277119131 149 143 143
-2.874090601911724 8.6463410380674 -1.3459160614949865 149 143 143
-2.8691028931275606 8.472454906137154 -1.320638253644544 139 135 136
-2.8071566070248988 8.690396378841182 -1.3574842011456552 146 142 143
-2.5805278935698523 8.517264473066376 -1.3490999796941232 153 147 149
-2.531742235488045 8.471719273990978 -1.3460741329059218 174 168 172
-0.9639540694104175 9.747383506597671 -1.6529983451539514 185 168 152
-0.17340735191163764 10.855309537772321 -1.8763226708142715 180 169 167
-0.12348826130830491 10.92868561452326 -1.8909285023599656 175 161 158
-0.08739680587291665 10.969962102265647 -1.8997512967553087 172 154 153
-0.07518331663465375 10.956874612756957 -1.8987451313680024 170 150 149
0.8021735930632634 10.983760609095325 -1.9691440174834676 141 84 55
0.8043804018096826 10.953177000572223 -1.9647987535389666 144 87 58
0.8065899921170225 10.888603409435511 -1.9554387577015566 145 88 61
1.368935157543846 11.44299193877284 -2.079814114701905 149 88 66
0.09534483504340291 8.659055526399792 -1.572632937281969 138 103 98
0.08261129889585331 8.615869717433377 -1.5652970629633185 152 125 120
0.07087537390446905 8.574551397717997 -1.5583122588711613 156 138 133
0.09507005980671292 8.479448194691708 -1.546112546465643 150 136 133
0.09935405479095694 8.46430020215415 -1.5442019620245835 154 140 137
0.10067379772908011 8.444654612452592 -1.541403345616623 152 139 134
0.09499927542117102 8.414349559807137 -1.5365024183723377 145 132 126
0.08942286148601176 8.384382685125878 -1.5316588151174686 128 115 109
0.09565123794328574 8.372661935088825 -1.5304011176242258 110 95 91
0.09008994994938734 8.343024900967539 -1.5256073249447752 97 78 78
0.08704033958553435 8.31738652045543 -1.5215936809930406 78 58 61
0.07983463175169911 8.28560816805095 -1.5163594415333705 64 44 49
-0.019480120823999178 7.881497184755544 -1.4492162320012096 92 77 77
-0.025003607365627793 7.836151161558992 -1.4421075693910612 98 80 76
-0.023912715753305242 7.8192073267855315 -1.4396902464513874 93 74 69
0.09638393591452236 7.879714887650865 -1.4577263119475785 31 20 25
0.053934584042790175 7.801756185104278 -1.443009948448272 30 22 26
0.1252391171077203 7.883500332930659 -1.4604696919881834 31 25 27
0.15845398326701504 7.803072427805395 -1.451118192935672 77 63 64
0.1750473004784669 7.807975071025887 -1.4530979573895093 82 67 68
0.1987738884065266 7.822535395111168 -1.4570427532439008 80 65 65
0.20941822995715323 7.819246467044914 -1.4573634716623982 84 69 68
0.3122901126853551 7.816528992687686 -1.464751827013515 59 39 41
0.311319894538908 7.78061796989399 -1.4593799874347646 67 47 49
0.3110224748235298 7.76304886369368 -1.4567652900970611 69 48 50
0.3241299845732021 7.763090821353829 -1.4577639605243482 66 46 47
0.3709213020056975 7.789857178041105 -1.4652560810053845 63 45 45
0.40025900648251617 7.8107914849874485 -1.4705661705070987 63 46 46
0.4173971621845611 7.815831379492388 -1.472607439568927 60 46 45
0.43255630139512635 7.818277573776977 -1.4741161814851045 59 45 44
0.4859078504858149 7.78477752768464 -1.4732132200482113 57 43 46
0.49499142619860936 7.779497483572796 -1.4731219869406675 60 45 50
0.5095089109000638 7.781063583468999 -1.474452293099778 62 48 51
0.5235221480346632 7.781973108058126 -1.4756475461412246 65 50 53
0.581726242586861 7.80465807609103 -1.4834016487223154 67 53 54
0.6027423859130514 7.814100661066766 -1.4863861336623203 68 55 57
0.6266195909879945 7.8270060697952815 -1.4900981648529066 60 48 50
0.6403012178313205 7.827266253761565 -1.491172504016495 48 37 38
0.641328637207156 7.811972869687436 -1.488993885491993 39 29 30
0.65371848382715 7.81066320770728 -1.4897387952350234 32 22 23
0.5370322238761583 7.635837323959726 -1.4551093741445416 24 15 16
0.7154280679225934 7.787451068167643 -1.4909865870338865 23 16 16
2.240041882165865 9.37115818713519 -1.8400909011160154 133 118 106
2.252460375584428 9.36530361374244 -1.8401674156334307 131 114 102
2.2638589719477014 9.358283518145802 -1.839994741938342 131 114 100
2.2654553370987363 9.339980559979507 -1.8374151651725557 133 117 102
2.623358981306013 9.647635430062902 -1.9099070102788165 138 125 112
2.6180474168499703 9.620890273670076 -1.9055587990560794 142 127 116
2.5988528682835668 9.578572254926828 -1.89786174240333 144 130 121
2.592533071313485 9.550988275989058 -1.893313428037646 144 131 123
2.588604964446597 9.526226606693818 -1.8893626172520668 140 127 119
2.58811699494323 9.50544021917312 -1.8862588083755587 136 122 114
-5.762214484485371 8.3153157922097 -1.0882536752607408 40 39 44
-5.769976823282405 8.373615342627067 -1.0963642968820193 39 40 45
-5.7683709077529945 8.399812911475749 -1.1003966344720435 40 41 46
-5.745401913819478 8.351305949353591 -1.0949050731949803 40 41 46
-4.909215232801663 9.236099038177933 -1.2906117082380788 17 17 17
-4.6974100453124565 10.44235043104458 -1.4867718050140615 9 9 9
-4.164049383500381 10.265180123930579 -1.5009257892091934 14 17 22
-2.898373994757526 8.716361957222862 -1.3660964201989345 156 151 148
-2.8843488618790536 8.729232658742264 -1.36908496928484 151 146 143
-2.881554364152408 8.674773453556313 -1.361169402386149 148 142 142
-2.8593351177020065 8.736058000127063 -1.3720076341425624 148 142 142
-2.7931571347761808 8.771366475068485 -1.3823147991133315 146 142 143
-2.5316698299588833 8.474109836114694 -1.3578513890897752 174 169 173
-1.3471355706270658 9.207759295595782 -1.5575140974609818 143 127 94
-0.9603552678808148 9.758252477196304 -1.6691178773879667 183 167 148
-0.15171600283450618 10.906958144155833 -1.9021178079739647 171 158 157
-0.11905180979337991 10.940759087404377 -1.909649022573599 167 153 152
-0.09086344767657778 10.964050923598624 -1.9152710236013935 165 149 149
-0.07407329096686538 10.961334957430061 -1.91614365792836 164 148 146
0.16030897893449314 11.197839686883558 -1.9692833234781828 146 118 108
0.15688967741781437 11.14986315827831 -1.9618623530787764 135 103 93
0.1680980054395648 11.134013962083072 -1.9603499276224075 125 89 77
0.16954726521449257 11.097193076802014 -1.9549645623208622 118 78 64
0.1955790332302505 11.03468335892543 -1.947616155680442 110 60 41
0.2241843618196334 11.056432374881306 -1.9530396219986843 109 57 37
0.36487773297710835 11.27487621968737 -1.9963523722626018 110 53 34
0.3880174528710331 10.757506565254193 -1.9208940064248095 123 68 41
0.42755711341755326 10.799722456545341 -1.930204523627106 126 72 44
0.4475161705644804 10.803227863795858 -1.932246929925373 129 75 49
0.7471389236329538 10.883702477893138 -1.9670642832283838 141 84 54
0.7854201542997714 10.851643470389066 -1.9651931611929367 144 87 60
0.11292397408003813 8.665455263978869 -1.5877071453329223 132 98 92
0.10133426013029918 8.624190579865656 -1.5806660456431094 146 121 116
0.07269842645421462 8.55619291122683 -1.568337444480823 153 136 131
0.0970897028362662 8.440300150684893 -1.5528965180365482 146 133 127
0.0906173381680039 8.408777608273816 -1.5476989889830586 148 135 129
0.08349938042375225 8.376459650806215 -1.5423336006296573 143 130 125
0.0948343034045382 8.37258068960039 -1.542617420833931 129 113 110
0.08835315120823004 8.34153806367114 -1.5374908525324082 109 90 89
0.08458318901229482 8.31480758491864 -1.5332142566558944 84 65 68
0.0764641538592855 8.281651038849436 -1.52764750702123 63 45 50
0.05334783509103922 7.969106591595063 -1.4792393585909787 94 77 75
-0.16103593834271468 7.605491258846118 -1.4086500926672259 80 55 52
0.09319982400531318 7.876275131583019 -1.468417243502984 32 20 27
0.08238461962535527 7.842743815135511 -1.4625893354102275 30 22 26
0.0808454176399228 7.8223959366659805 -1.4594351675815818 31 23 25
0.10079297921675323 7.832145979765108 -1.4624087379871693 33 24 25
0.10531767298651191 7.766659631517333 -1.4529790180131905 48 32 32
0.16525438558763736 7.813407042870923 -1.4645184318604276 71 56 56
0.18709268790957884 7.825439612563481 -1.467976595438762 72 57 56
0.21162073859710917 7.841040688989185 -1.472172107808705 68 54 52
0.23630623780027615 7.85674179451552 -1.4763945343515417 70 56 53
0.3867865766751692 7.81147540925942 -1.4810923313197173 64 47 47
0.41451037979194577 7.830259654371846 -1.4860061942411948 62 48 47
0.42883255686154315 7.831607143103578 -1.4872974635098368 62 48 47
0.44769777401722466 7.838780336741667 -1.4898040438856754 64 51 50
0.6190300112411109 7.81862799744054 -1.4998373903664917 51 37 40
0.6231612185897402 7.807152554415055 -1.498439082594576 40 28 30
0.6282611528610316 7.796918239015514 -1.4972997544087496 33 23 24
0.6393505869797407 7.794061920998541 -1.4977175228678032 30 19 22
0.5970628385687287 7.614514175180978 -1.4677004538460303 24 20 21
2.234051874896216 9.345198799445532 -1.8506141746933418 129 114 101
2.2433783864013623 9.33583985441202 -1.8499272106447069 134 118 104
2.2506606114440166 9.324156626591565 -1.8487377338021533 137 122 107
2.537522051889001 9.613229067937139 -1.9137178781238018 144 131 115
2.581878677911555 9.643219890583355 -1.9215704000156406 147 130 117
2.621125881529173 9.667197508840026 -1.9281365147756984 147 127 116
2.6575454156384706 9.687806829625513 -1.933984664805759 144 123 113
2.6727989697154393 9.684275091843913 -1.9346185812035823 145 123 114
2.6066592415215517 9.588676432103064 -1.915315755284725 144 124 117
2.606762888643097 9.568308389693243 -1.9122836254472344 139 121 115
2.5994286519906424 9.539665918183722 -1.9074503570426666 134 116 110
2.597387632684974 9.517099490315607 -1.9039268645875196 132 113 107
-5.728493595221734 8.167790696061461 -1.078422858845995 41 41 44
-5.7281622017207905 8.197040757137998 -1.0828640000236742 41 41 46
-5.746104210799226 8.321477255522845 -1.1002769502959489 40 42 47
-5.7210915932613124 8.265396322607318 -1.093724414506474 40 42 46
-4.9064334616535 9.212799726136852 -1.2990835760616362 17 17 17
-4.906405192429782 9.298422732260313 -1.312011960908682 18 18 18
-4.319242929986389 9.825899124238097 -1.4365694976003311 11 12 14
-2.9612567014607643 8.696154682766743 -1.3699207649452934 157 152 148
-2.9791391266708787 8.434361187443953 -1.3290304103506243 173 165 163
-2.91379262531617 8.69729987891293 -1.373725320827292 163 154 155
-2.8862877395315274 8.72025005254577 -1.3792945432043195 151 146 143
-2.876726500797473 8.706255239668412 -1.3779133618644255 149 143 143
-2.8630602588492198 8.71673855573214 -1.380541653120159 149 143 143
-2.8854751519462054 8.449330456986461 -1.3384568828862438 140 136 137
-2.866074361519636 8.494792800335286 -1.346804615738844 138 134 135
-2.6127426713251927 8.592402693791028 -1.3809238957255163 148 144 145
-2.531597411511648 8.476501657107088 -1.3696354534955364 172 170 173
-1.8463909899381694 9.023935427179321 -1.5047076466766445 143 90 96
-0.9580612951637029 9.76583074344827 -1.684678843231172 183 165 145
-0.7560836623595311 9.845810930034856 -1.7122073170315601 200 192 203
-0.13946877907781718 10.936983291311206 -1.9241177083289471 167 151 151
-0.09885588820033653 10.988790855432278 -1.9350463821950799 164 150 149
-0.08549280940477033 10.978204643141305 -1.9344706802423006 164 148 148
-0.05348161781522647 11.009832340699814 -1.9416947154624977 162 148 145
0.11758475809949485 11.146717810592932 -1.9754488456275046 141 110 100
0.12744911583675506 11.127868556705392 -1.9733579982618474 132 96 83
0.3618535358335071 11.270467165377955 -2.0128208733054613 109 52 32
0.1554617098907972 10.507273853635262 -1.8818122273232576 116 56 35
0.5767019741543732 11.09476324875912 -2.002734361915838 126 71 43
0.7215099386527875 10.83803139178533 -1.9750562491728278 142 85 55
0.7177804184872039 10.72966030761546 -1.9584104645155234 142 85 57
0.0632228416496689 8.702364702446456 -1.602273495587887 124 80 64
0.06139270570721817 8.517213171821716 -1.5741817506523252 145 129 125
0.048824623584307725 8.475288335819481 -1.566890861863653 151 139 136
0.08719377263434672 8.426183528515159 -1.5624134511903451 132 119 113
0.0869425484689241 8.404293089014155 -1.5590895018060393 139 127 121
0.07652558928703504 8.366920352419712 -1.552650419559842 145 133 129
0.09365375098292392 8.37194264736559 -1.5547191640841758 142 128 126
0.08638539073824616 8.339698143920256 -1.5492951863278546 123 105 106
0.0812399349353766 8.310880405376242 -1.544550967975925 100 81 84
0.07241738381840702 8.27666758277078 -1.5387109221288986 77 59 64
0.06735360331922091 8.248342316712323 -1.5340473000277102 56 41 48
0.09811872872562255 8.034925418033637 -1.5041824219723976 91 72 71
0.04337016761414996 7.936802755284931 -1.4851801333604755 90 70 68
-0.042153088102715605 7.7950842353416725 -1.4572416254889946 85 63 60
-0.13169071034299043 7.648519001198313 -1.4282642697142303 76 51 49
0.053792419762112256 7.8217878397327585 -1.4686141610954895 33 20 25
0.097413758150826 7.864893872553252 -1.4784593821286338 31 20 25
0.09300493270224096 7.840455746673212 -1.474432701988529 35 24 27
0.10666465016118776 7.841375984785171 -1.4756167878009532 40 30 31
0.1738803632607787 7.826245332609442 -1.4784755107638123 84 69 67
0.18873009043047767 7.828701128333377 -1.4799824671072124 89 75 73
0.21688567417380553 7.849233891487549 -1.4852365285709574 91 77 73
0.22954196419284198 7.848594461540601 -1.4861083801460384 91 78 72
0.3983423576828737 7.827500811643498 -1.495839545922395 74 59 58
0.4212997252384506 7.840066705554012 -1.499493138852261 75 61 60
0.4369276341291465 7.843073627037228 -1.501142838674343 80 66 65
0.4533558342165199 7.84707732119826 -1.503004251501331 84 71 69
0.6261754094327873 7.828450571714652 -1.5134153610006567 42 27 30
0.6340846019304482 7.821600309536674 -1.5129863640608063 35 23 25
0.6504322445960091 7.825138890617515 -1.5147713965296172 32 22 23
0.6394050560155672 7.795116996058771 -1.5093953554450676 31 20 24
0.6173050041715693 7.592813384466216 -1.4771632839488837 53 49 47
2.1213650114974536 9.295794430508035 -1.8493384414791825 130 122 112
2.1659370912308344 9.327776954808735 -1.857577128330911 129 118 108
2.2014705240067074 9.328784398310352 -1.8604480261291865 120 106 94
2.2171280753307236 9.326809049572695 -1.8613478371685754 122 108 95
2.229961386298552 9.32155901386326 -1.8615371854434943 129 114 100
2.481887675835909 9.571358537026038 -1.9185244972180717 133 120 104
2.5700448093229795 9.651820534044532 -1.9374168392552065 135 119 104
2.612621484671501 9.679675924113754 -1.9448797898103867 139 117 104
2.6864331429874886 9.721963959460226 -1.956911504575149 131 102 94
2.5810911728253574 9.540616573507116 -1.9214739475527143 127 102 98
2.566290459786563 9.503647214458677 -1.914760343051806 126 103 99
2.5684150500697447 9.485852253413553 -1.9122364577167412 125 102 98
-5.726655026287695 8.252994811229234 -1.1011929939411622 40 43 47
-5.705700126421192 8.210807231094067 -1.096363524810421 39 42 46
-4.906584604687945 9.211812667668182 -1.3106572289233123 16 16 16
-4.90815520010932 9.309692738364873 -1.3254806413597848 19 19 19
-3.0111559682602853 8.76072172135328 -1.3875660472793803 34 34 46
-2.9613153528301 8.69861980347273 -1.3819177338218664 159 154 150
-2.9767236678491065 8.452286841805853 -1.3431228365198806 173 165 163
-2.8836316649421736 8.738992059006158 -1.394056513023396 151 145 145
-2.8706810033754064 8.745031840185337 -1.39597471817352 148 144 143
-2.876342268782733 8.438552108521966 -1.348746348577047 139 135 136
-2.8634198005036553 8.44693932506167 -1.3510207888971186 141 137 138
-2.8515446780137848 8.449232295892386 -1.3522842139655988 143 141 142
-2.7946961079397106 8.700991699601703 -1.3950948585446883 146 144 145
-2.61239621554831 8.596269042565574 -1.3931269444350804 150 146 147
-2.6094803933104793 8.55403674960672 -1.3869032306225901 149 145 146
-2.5746851095566794 8.605118236988371 -1.397378457791606 150 146 147
-2.5793663947392202 8.529022616515519 -1.3854002252256634 152 148 149
-2.573912894569611 8.500097150128788 -1.3814033588421928 154 150 151
-2.5315249803000803 8.478894737214803 -1.3814263312154371 172 170 173
-1.8481793000477156 9.063094874596054 -1.523178643602996 142 89 97
-1.845299103390463 9.02931698669014 -1.5182429980103958 143 90 96
-1.1181210736210418 9.826857886362122 -1.6959391426937251 141 126 93
-0.5495492208486885 10.712910506607654 -1.874950461855419 198 192 195
-0.40212271053399207 11.037020385760949 -1.9357740014275466 201 198 208
-0.1201621403143154 10.983205404624004 -1.9492436915635105 166 148 147
-0.0968739636654962 10.995281407607106 -1.9528785766154055 163 148 146
-0.05616964272538905 11.0467682650247 -1.9638701698900582 164 146 145
-0.015220113556483035 11.098299763869754 -1.974887438370339 162 145 141
0.10077335782916742 11.071409392883963 -1.9797031163440137 124 79 62
0.07512843592416835 10.975532057519215 -1.9630922845909182 123 73 53
0.06621258215595482 10.9167846732883 -1.9534370712620204 124 69 49
0.3025006314051308 11.226524937536091 -2.0189011767285403 114 54 31
0.3322581210635866 11.249761320137655 -2.0247375814496715 113 53 30
0.14552452832342236 10.52427363751707 -1.8996089900258954 116 54 31
0.39614519778333646 10.849129227867463 -1.9684832326983654 124 63 35
0.5871542435354467 11.154327929626938 -2.0297714481549787 126 67 39
0.6313169123292592 10.74040128960411 -1.969970264300679 144 87 57
0.6612193602325751 10.762066095003908 -1.9755778715322159 143 86 56
0.6973550026377773 10.795070427848826 -1.9833961902044488 143 86 57
0.6783270406278182 10.726062195874814 -1.97139662268669 144 87 57
0.6886159915834772 10.711414119238162 -1.9699515139867685 144 87 57
0.7049606065801487 10.707930776155782 -1.970676775221761 144 87 57
0.07154703012174177 8.424721164610222 -1.5733621375530085 122 108 104
0.07444270529870127 8.407645496294121 -1.570977756948392 120 107 101
0.09598006005099051 8.419400715798265 -1.5744290063015836 128 116 111
0.09519093630586618 8.396761142084795 -1.5709117308816254 137 126 123
0.0925902790826496 8.371483374576476 -1.5668523309464166 138 124 123
0.08573548027941129 8.339867896665737 -1.5614981034216147 123 106 107
0.07596261296907433 8.304010809199903 -1.5552718382157458 101 85 87
0.06856686370280084 8.27197942994132 -1.5498125059052617 79 62 67
0.06361300439602141 8.243833189883208 -1.5451341620664805 60 47 52
0.16598205445263414 8.15380946521056 -1.5392628378264313 85 66 68
0.07906659850778426 7.989332352120056 -1.5074658484794667 86 66 64
-0.027300383007928176 7.817465915042678 -1.4730446142624802 81 59 56
-0.18377413549240673 7.57492511294365 -1.4239791021391939 72 47 46
-0.09823542091898045 7.62613040551733 -1.4383760004815986 37 20 24
0.0832734318662283 7.846070043736603 -1.4859162891803477 34 23 28
0.09665540193781316 7.846605268637996 -1.487027238109267 44 33 36
0.10144394853674574 7.835124082288073 -1.4856426003385776 58 47 48
0.15831356170739225 7.823800230083319 -1.488287632878196 103 87 86
0.18058371843465457 7.836454541395416 -1.4919325155926009 109 93 92
0.19620654568730328 7.8399366205831695 -1.4936657350039975 113 99 96
0.22505955379947973 7.861389475088389 -1.4991602675252382 115 101 98
0.24734337949558757 7.873778210772488 -1.5027656537818497 111 96 92
0.387414315435749 7.814308092276062 -1.504458936866244 77 62 62
0.4151330855615008 7.833088224676202 -1.5094581651492942 82 67 67
0.43001862335350255 7.835159785042103 -1.5109193220064192 89 73 74
0.43944908875232414 7.830176786615988 -1.5108838379825644 89 74 74
0.6131920397926576 7.8134046949001945 -1.521685979083559 49 34 37
0.6227309639482341 7.808607110938104 -1.5216871456723489 47 35 38
0.6328595578590747 7.8045465495943835 -1.5218461925391762 41 30 33
0.6548006514476172 7.814963054871508 -1.525124100919451 38 27 31
0.6725415998833361 7.675049542525197 -1.5051267649038567 31 27 26
2.083169131916143 9.272346451014688 -1.8574940145450196 123 113 107
2.1001628456658104 9.272154097626316 -1.8587716634261962 128 116 108
2.1443616053747783 9.30377456436617 -1.8669988439986047 127 113 104
2.2158574939942017 9.306478305372055 -1.8729105255672445 125 112 97
2.4276181310598908 9.510199199564754 -1.920301275486732 127 114 98
2.5554512946767214 9.553712739415547 -1.9367767487357692 123 91 85
2.332767620886927 9.28131339219202 -1.878060145960972 130 100 96
2.3414776460410467 9.271500812584142 -1.8772318770172074 135 109 105
2.3539312086991906 9.265936356545472 -1.8773401286149967 140 117 112
2.368252555625596 9.262480117996425 -1.8779139149421087 142 118 114
2.382573469014306 9.259023980163104 -1.8784876833022097 140 113 109
-5.708543292089135 8.128142270383435 -1.0930822242677274 42 45 48
-5.7027498092664874 8.168965907759215 -1.0998329023332776 39 43 46
-4.893269316776759 9.192984267795 -1.3205122563354128 18 18 18
-4.92713041477263 10.242222397341806 -1.4798870031458033 18 18 18
-3.0093218201690246 8.776308984379769 -1.4018285076132555 34 33 47
-2.9590368999011245 8.716184801363454 -1.396433398644242 160 155 151
-2.89134277451159 8.767485006341298 -1.409587067266529 155 149 149
-2.8750974228970434 8.44817304836086 -1.361544214184659 139 135 136
-2.866278360915563 8.433222347742307 -1.3599177632996386 141 137 138
-2.8536814432102027 8.43971046455248 -1.3618933289179151 144 142 143
-2.5753113078004977 8.604422655600963 -1.4088439985972565 151 147 148
-2.5800204749782583 8.528185456650895 -1.396709626502029 152 148 149
-2.5311361986806107 8.482676649298691 -1.3934627114570208 172 172 174
-1.8523598542821191 9.051368591164014 -1.5337392648373485 143 90 98
-1.8477961743281592 9.02310068930629 -1.5297277815381984 143 90 96
-1.1490139727157056 9.434053720053118 -1.6471975683074143 174 150 114
-0.9528978401828627 9.744019497911205 -1.7102150155522204 192 180 167
-0.42313148835758857 10.986797566622688 -1.9430442618742445 200 197 207
-0.12074883752214152 10.983831490678986 -1.965963374253685 166 147 143
-0.07152410068400773 11.05510927092939 -1.9807735343144142 166 146 142
-0.034129932015489105 11.098815194576416 -1.990412243075413 163 142 138
-0.015582461026537825 11.09946375563112 -1.9919462702333228 161 139 133
0.17978301204252917 11.12513643504932 -2.0110134951690597 128 66 42
0.20159226075364037 11.132281255567392 -2.0138026502396356 128 65 40
0.32502271182627124 11.316499698526648 -2.051786595303919 121 60 33
0.14705746966644162 10.49376970946521 -1.911006396870445 120 55 31
0.49625803490004716 11.013362719351347 -2.0182232020273463 125 64 35
0.6751645431944959 10.755729347480205 -1.9922781945030166 144 87 57
0.6435875716185936 10.663719761809846 -1.9756315776673246 145 88 58
0.6630435112023115 10.66615797257992 -1.9775121432019793 146 89 59
0.6734269047589371 10.65194483541122 -1.9761205028659588 146 89 59
0.09583921352925409 8.420364109938172 -1.5869323530770314 116 105 100
0.09383043461102451 8.395845732985219 -1.582991647868349 122 111 108
0.09095239421582173 8.370144197221139 -1.5788010718748609 123 109 109
0.08411914413221944 8.33856278098857 -1.5733969222396162 112 96 97
0.07418054491059269 8.302453901852992 -1.5670537018367046 94 78 80
0.06754602563403522 8.271578059484016 -1.5617738499675398 74 59 63
0.06339896461784822 8.244649104834458 -1.5572956646755582 57 44 49
0.06551092144432227 7.989919472027775 -1.518131071697424 86 66 65
0.04443897591068717 7.940473793193865 -1.508868061192393 84 63 62
0.08900466859555235 7.836926954825186 -1.4963267507817286 50 39 42
0.09077822614041536 7.821267019563127 -1.4940461164043388 70 58 59
0.09528323189938465 7.8094918644314975 -1.492576422512055 88 75 75
0.11091936005008532 7.8132184880803885 -1.494360599265844 101 86 86
0.13050015323253103 7.822360809783619 -1.497285869046289 110 92 93
0.14775418567445855 7.828221326339227 -1.4995245782059687 117 99 99
0.16820271245397322 7.838418911971883 -1.5026798548808649 120 103 104
0.18635681601550277 7.845392784801943 -1.5051600398456437 121 104 104
0.21018085555313393 7.860050138577484 -1.5092648220619254 121 104 103
0.23733478661843674 7.879132971386471 -1.5143102889487632 119 102 101
0.2564786321750644 7.887209234300296 -1.5170371890507177 108 91 90
0.32532416577740125 7.8378460175779185 -1.514738383834904 71 56 57
0.33330641258448956 7.830950446388317 -1.514290875669317 71 56 56
0.3456369331855739 7.8298029943934315 -1.5150669860232215 68 53 53
0.35952948051449213 7.830695870288378 -1.5162788633559703 57 43 44
0.3693640880662227 7.826260035170544 -1.5163543204336771 60 46 46
0.3826303048361558 7.826309904567607 -1.5173876241738418 66 52 53
0.4000761206403646 7.831777126800212 -1.519580439049871 67 53 53
0.418635697775651 7.838639045849983 -1.5220746863532681 74 59 60
0.43504576455408334 7.842666318350899 -1.5239651132672298 80 65 66
0.45123396774306435 7.846367781832932 -1.5257880861634516 76 61 62
0.52809351686942 7.791678100004553 -1.5232864840744438 69 49 53
0.578374379014008 7.771369524806775 -1.524038217958548 55 42 44
0.5880579234862856 7.766874075792952 -1.5240927926008612 57 45 49
0.5977143513023914 7.762356316709588 -1.5241418264028936 49 38 42
0.6104055668481901 7.761567533084313 -1.5250011969306763 47 36 40
0.6821348489203639 7.735214732619078 -1.526477925373443 26 24 25
0.7085717633766181 7.734838953603384 -1.5284637328307487 28 24 24
0.6367344805754429 7.633388269673151 -1.5072469950465048 32 28 26
2.0688890811903735 9.256774494236293 -1.8686017423718115 113 102 95
2.0957472512427984 9.268204902918518 -1.8724428815820002 125 110 102
2.1333211423585996 9.292091965366266 -1.8790356382209932 129 112 103
2.192734836798776 9.280956099808007 -1.8819096070332801 128 117 101
2.258419024766741 9.27694640039125 -1.886368557710457 125 103 90
2.257150848826612 9.255725624012204 -1.882994226750166 130 103 92
2.3032176627235716 9.268737173160993 -1.8885644895690101 138 106 99
2.3118995652102465 9.258919719694594 -1.8877199601914438 144 115 110
2.3243936832903325 9.253440359336174 -1.8878399121413967 147 124 118
2.336587805777572 9.247635089973121 -1.8878863542918822 152 131 125
2.34734101126779 9.240226016538825 -1.8875737875795928 153 132 126
2.360632291979296 9.235680199349192 -1.8878994980747212 152 126 122
2.3704483217279777 9.227261590297186 -1.8873586159542621 150 119 115
2.3800289381229662 9.218608615062477 -1.8867633502074315 146 111 108
-5.693646096091432 8.076118546468292 -1.095676018576934 42 45 49
-5.690912524058767 8.096714311935628 -1.0991034814039702 41 45 48
-5.686837944629723 8.112860221306498 -1.1019405175932533 39 43 46
-4.904882388874184 9.194611109071072 -1.3315677449801389 14 14 14
-4.894665650944722 9.201560591821679 -1.333446487873326 17 17 17
-4.318859617456166 9.792731750109159 -1.470473843870939 11 12 15
-2.958353060752445 8.723458516552189 -1.4092789417170863 163 155 152
-2.9082195929400627 8.390856213801813 -1.3612547084909843 142 140 141
-2.8895222346551317 8.433467719384765 -1.3693593770400145 138 136 137
-2.8775529781537417 8.436609236376677 -1.3707798711499612 137 135 136
-2.8659459404827348 8.437580502937333 -1.3718334373573087 140 138 139
-2.852628794656782 8.44807384306185 -1.3745063080099644 144 142 143
-2.775247510274491 8.814080464351811 -1.4376538324115298 146 144 145
-2.5311941882436844 8.484500332719351 -1.4051703179599861 173 173 175
-1.468223638419038 9.30656070785737 -1.6160961406969452 127 93 84
-0.9167998389464358 9.64730491189922 -1.712136618624871 195 192 203
-0.15789134752146372 10.94165122445961 -1.973159544468998 165 146 139
-0.10124804207252472 11.030529255407197 -1.991435190476068 166 142 137
-0.054509772598134616 11.095934206125156 -2.0052769446890113 164 138 131
-0.03137055205080286 11.107073524385815 -2.008813898992221 158 130 122
-0.02376518399754673 11.082939334060969 -2.005637489304195 155 123 115
0.1823286360171292 11.132585572261902 -2.029402332445174 128 67 39
0.13074525599172265 10.865643217243933 -1.983723641139395 123 59 32
0.15330608054627645 10.875256443153518 -1.9869774235484348 122 59 32
0.6658096921349185 10.639713219225355 -1.9900337755278708 147 91 58
0.9481890500380932 10.655422568255455 -2.0144289232666166 146 90 63
0.09420026028813684 8.41901767012498 -1.5989601395426678 121 111 106
0.09266866562060014 8.395235139582937 -1.595128617777112 113 102 99
0.08290252797601531 8.358984796924924 -1.5887109602551646 105 91 91
0.0780267919273021 8.330425535153184 -1.5838739165517726 90 73 74
0.07345912908630958 8.302509501561996 -1.5791612216777504 77 59 61
0.06613647069904996 8.270587057009697 -1.5736090343943012 66 49 52
0.060670431689012684 8.241666199258654 -1.568669674017189 53 39 43
0.0038508054582301722 7.883000383909909 -1.508265852767343 80 60 58
-0.023875903007619822 7.824472527085233 -1.4969749616561903 74 53 50
-0.0008792844297349232 7.838989572586459 -1.5010281055159285 64 42 40
-0.05205037841171266 7.729363667561711 -1.479938899897098 47 25 28
0.08363641122109898 7.83044261846308 -1.5062613772702231 53 43 44
0.08840316756227651 7.818982775121641 -1.5048428810594525 74 62 63
0.08820183093463237 7.8006633573068 -1.5019675338606997 95 81 81
0.10819902507236519 7.810472567643195 -1.5050526975684395 105 89 90
0.18842425645383215 7.849256381750887 -1.517341008059985 102 83 84
0.21563560703431917 7.868533392598447 -1.5224647077456321 98 78 80
0.24615262104421215 7.892174792168251 -1.5285265717751948 91 72 73
0.2692760798106148 7.905616074075761 -1.5324216429268978 80 61 62
0.3721226284887877 7.830881306461792 -1.5287472872023962 41 31 30
0.38900253122161815 7.83563219282134 -1.5308005995731622 43 35 33
0.402955311801585 7.836532581556558 -1.5320253824926577 45 34 33
0.4161665106149353 7.836450424155109 -1.5330391615977155 49 39 38
0.43599930834807094 7.844910655596281 -1.53590097192699 53 42 41
0.4607817010606259 7.85968176533963 -1.5401325431249036 51 40 39
0.5093010514125295 7.769099758288254 -1.5297627885484442 58 43 46
0.5641847477761532 7.754816958210218 -1.5317980649966763 54 43 44
0.5819951656104118 7.760387119849975 -1.5340515757007722 58 46 50
0.5845766180147274 7.747195348545705 -1.5321929080287067 56 45 49
0.6025751795102445 7.752955628238782 -1.5344907166841308 53 42 46
0.6451892946833521 7.7399308067049235 -1.5357689327085078 47 41 43
0.6800551997293874 7.685914844884701 -1.5300462494574707 40 36 33
0.6402871355805344 7.622931780407861 -1.517124191580271 68 65 60
2.054394745285947 9.240944677441119 -1.8795858208603735 116 103 95
2.0790484557212454 9.249836889644245 -1.882889683534415 129 113 105
2.22026900758971 9.274096113311199 -1.8976504430984855 132 119 103
2.226824001943544 9.261779828467233 -1.8962372132672909 129 114 99
2.233397967772044 9.249535105106478 -1.8948366285614056 132 115 100
2.2395653727663163 9.236875741007346 -1.8933397248461856 139 118 105
2.277337889944806 9.24058430045925 -1.8968538323213922 149 122 113
2.2871782946637222 9.232156631536169 -1.8963029238333826 152 126 120
2.296122472127326 9.222745344599632 -1.8955288271548272 152 131 124
2.3121763849048116 9.221370870429324 -1.896561771816922 152 134 127
2.3232174971803663 9.214358268472184 -1.896325061945405 149 133 125
2.3380672178822106 9.211629719882417 -1.897053058291426 150 129 123
