ply
format ascii 1.0
element vertex 825
property float x
property float y
property float z
property float nx
property float ny
property float nz
property uchar diffuse_red
property uchar diffuse_green
property uchar diffuse_blue
property uchar class
property uchar detection
end_header
0.7851 7.4421 -0.4181 0.442 -0.640 -0.628 214 196 184 0 0
0.8192 7.4654 -0.4191 -0.000 -0.921 0.390 214 197 186 0 0
0.8281 7.4607 -0.4195 -0.065 -0.994 0.091 213 198 189 0 0
0.8303 7.4486 -0.4198 0.207 -0.954 -0.218 211 199 190 0 0
0.8493 7.4551 -0.4204 0.193 -0.827 -0.529 211 203 193 0 0
0.8665 7.4595 -0.4210 0.193 -0.827 -0.529 216 207 198 0 0
0.9103 7.4785 -0.4224 0.283 -0.777 -0.562 216 198 191 0 0
-5.2996 11.2563 -0.1505 -0.958 -0.285 -0.020 137 95 74 0 0
-5.2703 11.1524 -0.1528 -0.950 -0.311 0.038 136 103 87 0 0
-5.2454 11.0774 -0.1546 -0.962 -0.275 0.003 120 99 87 0 0
-2.9362 8.4507 -0.2734 -0.990 0.115 0.086 39 39 49 0 0
-2.9871 8.0120 -0.2763 -0.997 -0.009 0.079 62 60 65 0 0
-2.9442 8.0740 -0.2773 -0.608 -0.793 -0.026 164 155 156 0 0
-2.9293 8.0354 -0.2783 -0.994 -0.105 0.003 216 208 205 0 0
-2.9207 8.0233 -0.2787 -0.872 -0.391 -0.294 213 205 202 0 0
-2.9131 8.0056 -0.2792 -0.889 -0.316 -0.332 207 200 194 0 0
-2.5804 8.2239 -0.2897 0.816 -0.558 0.152 170 164 168 0 0
-2.0449 8.8845 -0.3032 -0.899 -0.437 -0.023 149 90 96 0 0
-2.0369 8.8673 -0.3037 -0.247 -0.969 -0.006 150 91 97 0 0
-1.9320 8.7447 -0.3092 -0.733 -0.680 0.010 156 101 107 0 0
-1.6040 9.3502 -0.3152 0.897 -0.335 -0.289 137 120 104 0 0
-1.7583 8.5018 -0.3186 -0.944 -0.051 0.327 171 177 143 0 0
-1.7594 8.4628 -0.3190 0.049 -0.624 0.780 179 179 141 0 0
-1.7451 8.4680 -0.3195 0.136 -0.551 0.823 188 179 138 0 0
-1.6991 8.4916 -0.3210 0.244 -0.436 -0.866 195 178 134 0 0
-1.6780 8.5151 -0.3216 0.416 -0.624 -0.661 194 176 136 0 0
-1.3843 8.9891 -0.3278 0.762 -0.479 -0.436 189 181 179 0 0
-1.3489 9.0461 -0.3285 0.762 -0.479 -0.436 191 182 185 0 0
-1.3756 8.9402 -0.3286 0.523 -0.720 -0.456 193 184 189 0 0
-1.3773 8.8655 -0.3294 -0.005 -0.327 -0.945 195 186 187 0 0
-1.4603 8.5181 -0.3300 -0.240 0.011 -0.971 195 186 187 0 0
-1.3763 8.5032 -0.3335 0.548 -0.462 0.697 196 193 202 0 0
-0.8310 9.3353 -0.3454 0.812 -0.543 -0.212 202 201 219 0 0
-0.5915 9.6706 -0.3510 0.719 -0.491 -0.491 227 227 239 0 0
-0.4670 9.8767 -0.3536 0.809 -0.456 -0.370 211 208 215 0 0
0.7565 10.6385 -0.3927 -0.305 -0.503 0.808 255 251 252 0 0
0.7855 10.6577 -0.3936 0.185 -0.556 0.810 249 241 244 0 0
1.4551 11.1867 -0.4138 0.085 -0.969 -0.232 183 179 178 0 0
1.4761 11.1887 -0.4146 0.168 -0.948 -0.270 198 196 196 0 0
1.5005 11.1962 -0.4155 0.333 -0.907 -0.259 216 214 215 0 0
1.5538 11.2183 -0.4173 0.522 -0.795 -0.309 233 233 235 0 0
1.7406 11.2927 -0.4237 0.296 -0.734 -0.612 243 243 250 0 0
1.7568 11.2862 -0.4244 0.588 -0.764 -0.267 244 244 252 0 0
1.8419 11.3568 -0.4270 0.469 -0.836 -0.284 250 247 254 0 0
0.1621 8.3870 -0.3945 -0.564 -0.235 0.791 125 142 166 0 0
0.2206 8.3904 -0.3968 -0.293 -0.364 0.884 101 96 108 0 0
0.2405 8.3990 -0.3975 -0.484 -0.527 0.699 108 103 109 0 0
0.2621 8.4100 -0.3982 -0.431 -0.474 0.768 113 109 111 0 0
0.2733 8.4057 -0.3987 -0.363 -0.349 0.864 118 114 115 0 0
0.2828 8.3988 -0.3991 -0.144 -0.543 0.827 119 116 117 0 0
0.2929 8.3927 -0.3996 -0.158 -0.613 0.774 124 120 123 0 0
0.3119 8.3999 -0.4002 0.273 -0.961 0.048 124 119 123 0 0
0.3319 8.4082 -0.4009 0.511 -0.845 -0.157 126 121 125 0 0
0.3503 8.4143 -0.4016 0.546 -0.819 -0.174 133 128 131 0 0
0.3477 8.3899 -0.4017 0.346 -0.874 0.341 140 136 136 0 0
0.3516 8.3751 -0.4020 0.142 -0.902 0.407 144 142 140 0 0
0.4053 8.3302 -0.4046 -0.016 -0.231 0.973 103 97 101 0 0
0.4144 8.3231 -0.4051 0.040 -0.210 0.977 112 103 108 0 0
0.4346 8.3315 -0.4057 0.110 -0.231 0.967 125 113 119 0 0
0.4347 8.3118 -0.4060 0.027 -0.169 0.985 132 120 126 0 0
0.4507 8.3144 -0.4066 0.055 -0.176 0.983 132 121 126 0 0
0.4038 8.2101 -0.4059 0.563 -0.682 0.467 118 112 114 0 0
0.4329 8.2309 -0.4068 0.704 -0.699 0.124 114 108 111 0 0
0.4263 8.2026 -0.4069 0.612 -0.691 0.384 116 110 114 0 0
0.4667 8.2195 -0.4082 -0.300 -0.443 0.845 123 113 121 0 0
0.4859 8.2265 -0.4089 -0.939 -0.302 -0.162 125 117 123 0 0
0.4868 8.2086 -0.4091 -0.731 -0.351 -0.585 139 134 138 0 0
0.5063 8.1592 -0.4104 -0.696 -0.307 0.650 200 194 198 0 0
0.6132 8.1706 -0.4145 -0.447 -0.444 0.777 201 192 197 0 0
0.6400 8.1504 -0.4157 0.040 -0.510 0.859 202 193 198 0 0
0.6548 8.1512 -0.4163 0.158 -0.634 0.757 201 192 197 0 0
0.6697 8.1523 -0.4169 0.245 -0.711 0.659 202 193 197 0 0
0.6833 8.1516 -0.4174 0.186 -0.777 0.602 202 194 197 0 0
0.7002 8.1552 -0.4180 0.186 -0.777 0.602 201 195 197 0 0
0.7117 8.1517 -0.4185 0.311 -0.945 0.106 200 194 198 0 0
0.7374 8.1665 -0.4193 0.435 -0.889 -0.142 199 194 201 0 0
0.7635 8.1816 -0.4202 0.300 -0.940 0.165 199 193 201 0 0
0.9717 7.8214 -0.4323 0.503 -0.768 -0.397 188 147 130 0 0
0.7109 7.3892 -0.4269 0.400 -0.695 -0.598 215 195 186 0 0
0.8765 7.4714 -0.4324 0.340 -0.772 -0.537 219 209 200 0 0
0.9204 7.4905 -0.4339 0.283 -0.777 -0.562 201 178 171 0 0
-5.3006 11.2607 -0.1657 -0.958 -0.285 -0.020 138 96 74 0 0
-5.2728 11.1676 -0.1676 -0.951 -0.308 -0.019 137 104 88 0 0
-5.2458 11.0773 -0.1696 -0.957 -0.287 -0.036 123 100 89 0 0
-2.9384 8.4395 -0.2848 -0.992 0.115 0.060 39 39 49 0 0
-2.9868 8.0161 -0.2868 -0.997 -0.072 -0.022 68 66 71 0 0
-2.9445 8.0743 -0.2880 -0.658 -0.736 -0.163 165 160 157 0 0
-2.9302 8.0327 -0.2889 -0.997 -0.079 0.015 214 209 205 0 0
-2.9196 8.0316 -0.2893 -0.859 -0.374 -0.349 210 205 201 0 0
-2.5992 8.1932 -0.3004 0.737 -0.672 0.074 168 162 166 0 0
-2.4755 8.1872 -0.3053 -0.723 -0.111 -0.682 178 173 179 0 0
-2.5041 7.8545 -0.3073 -0.980 0.153 0.128 152 131 136 0 0
-2.0513 9.0968 -0.3135 -0.601 -0.539 -0.591 146 86 94 0 0
-1.7181 9.2154 -0.3255 -0.287 -0.886 0.365 160 109 114 0 0
-1.7327 9.0017 -0.3269 0.908 -0.359 0.217 140 111 103 0 0
-1.4469 9.6947 -0.3317 0.310 -0.471 0.826 140 142 121 0 0
-1.3902 9.6439 -0.3344 0.516 -0.461 0.722 145 156 126 0 0
-1.6892 8.7389 -0.3311 -0.493 -0.217 0.842 156 167 135 0 0
-1.7218 8.5356 -0.3317 0.308 -0.445 0.841 186 178 139 0 0
-1.7131 8.4890 -0.3324 -0.464 -0.787 0.407 196 179 135 0 0
-1.6984 8.4951 -0.3330 0.144 -0.888 -0.437 195 178 134 0 0
-1.5595 8.7723 -0.3358 0.896 -0.444 0.015 189 173 147 0 0
-1.3904 9.0476 -0.3399 0.211 -0.298 -0.931 183 174 167 0 0
-1.3354 9.0834 -0.3417 0.611 -0.482 -0.627 191 182 185 0 0
-1.2785 9.1590 -0.3433 0.641 -0.484 -0.595 193 184 187 0 0
-1.3608 8.9096 -0.3424 0.118 -0.378 -0.918 194 185 186 0 0
-1.3448 8.9158 -0.3429 0.122 -0.334 -0.935 193 187 187 0 0
-1.3916 8.4673 -0.3453 0.548 -0.462 0.697 195 192 201 0 0
-0.5867 9.6831 -0.3655 0.753 -0.645 -0.130 229 229 241 0 0
-0.4513 9.9131 -0.3687 0.854 -0.475 -0.211 208 206 211 0 0
0.5463 10.3580 -0.4037 0.471 -0.829 -0.302 255 253 254 0 0
0.7898 10.6671 -0.4104 0.350 -0.469 0.811 249 241 242 0 0
1.3898 11.6666 -0.4247 0.797 -0.487 -0.358 184 170 172 0 0
1.4555 11.1892 -0.4317 0.123 -0.961 -0.245 187 181 181 0 0
1.4790 11.1952 -0.4326 0.297 -0.918 -0.262 204 199 200 0 0
1.6821 11.3639 -0.4390 0.708 -0.676 -0.205 235 238 242 0 0
1.8453 11.3639 -0.4454 0.490 -0.841 -0.227 249 245 252 0 0
0.2132 8.3806 -0.4091 -0.287 -0.378 0.880 89 83 93 0 0
0.2338 8.3901 -0.4098 -0.260 -0.374 0.890 98 92 97 0 0
0.2551 8.4009 -0.4106 -0.342 -0.437 0.832 105 100 102 0 0
0.2718 8.3838 -0.4114 -0.077 -0.510 0.857 111 107 107 0 0
0.3050 8.3908 -0.4126 0.347 -0.766 0.541 118 112 116 0 0
0.3205 8.3928 -0.4132 0.559 -0.728 0.398 119 113 117 0 0
0.3464 8.3686 -0.4145 0.142 -0.902 0.407 130 126 125 0 0
0.3370 8.1376 -0.4162 -0.703 -0.102 0.703 120 114 118 0 0
0.3652 8.1576 -0.4172 0.500 -0.731 0.465 113 108 112 0 0
0.3801 8.1591 -0.4177 0.632 -0.743 0.221 105 100 104 0 0
0.4119 8.1838 -0.4188 0.572 -0.712 0.407 103 98 102 0 0
0.4540 8.2032 -0.4202 -0.156 -0.398 0.904 108 102 106 0 0
0.4787 8.2178 -0.4211 -0.403 -0.700 0.590 107 101 106 0 0
0.7323 8.1610 -0.4316 0.462 -0.828 0.316 210 205 211 0 0
0.7553 8.1722 -0.4323 0.377 -0.780 0.499 210 205 211 0 0
0.8370 7.6833 -0.4401 0.664 -0.617 0.421 188 150 131 0 0
0.9851 7.8378 -0.4445 0.524 -0.792 -0.313 186 148 129 0 0
0.7321 7.4138 -0.4385 0.398 -0.655 -0.642 213 195 188 0 0
0.8619 7.4708 -0.4431 -0.036 -0.997 0.074 217 208 198 0 0
0.8872 7.4841 -0.4440 0.340 -0.772 -0.537 214 198 191 0 0
0.9102 7.4948 -0.4448 0.340 -0.772 -0.537 202 177 172 0 0
-5.3610 8.8183 -0.1971 -0.510 -0.814 -0.278 138 92 66 0 0
-5.2898 11.0867 -0.1827 0.803 -0.333 -0.495 137 92 67 0 0
-2.9397 8.4342 -0.2961 -0.992 0.115 0.060 40 40 48 0 0
-2.9868 8.0187 -0.2974 -0.997 -0.072 -0.022 72 70 75 0 0
-2.9604 8.0472 -0.2982 0.336 -0.868 -0.365 153 148 145 0 0
-2.9472 8.0612 -0.2987 -0.809 -0.584 -0.067 168 163 160 0 0
-2.9287 8.0435 -0.2995 -0.780 -0.590 -0.209 214 209 205 0 0
-2.9198 8.0327 -0.3000 -0.744 -0.604 -0.287 208 203 199 0 0
-2.5902 8.2348 -0.3115 0.937 -0.348 0.005 168 162 166 0 0
-2.5884 8.1927 -0.3119 0.746 -0.658 0.103 170 164 168 0 0
-1.7064 9.4314 -0.3375 0.011 -0.085 -0.996 155 99 108 0 0
-1.4363 9.7284 -0.3459 0.492 -0.685 0.538 139 141 120 0 0
-1.3553 9.8793 -0.3480 -0.142 -0.125 0.982 138 141 122 0 0
-1.3992 9.6196 -0.3482 0.492 -0.424 0.761 143 153 126 0 0
-1.6799 8.5837 -0.3450 0.618 -0.380 0.688 197 180 136 0 0
-1.6059 8.6821 -0.3472 -0.653 -0.753 0.083 195 180 141 0 0
-1.4423 8.9835 -0.3514 0.898 -0.366 0.244 178 168 158 0 0
-1.3537 9.1472 -0.3536 0.372 -0.480 -0.794 183 174 167 0 0
-1.3081 9.2312 -0.3548 0.105 -0.498 -0.861 186 179 173 0 0
-1.2929 9.2338 -0.3554 0.190 -0.835 -0.517 190 182 180 0 0
-1.3293 8.9574 -0.3560 0.041 -0.297 -0.954 193 187 187 0 0
-1.3378 8.9006 -0.3561 -0.354 0.031 -0.935 193 188 185 0 0
-0.5867 9.6848 -0.3800 0.730 -0.669 -0.139 229 229 239 0 0
0.4372 10.3860 -0.4153 0.489 -0.302 -0.818 192 186 188 0 0
0.4445 10.3019 -0.4162 0.533 -0.810 -0.246 195 189 191 0 0
0.5479 10.3625 -0.4199 0.453 -0.869 -0.201 253 252 252 0 0
1.4573 11.1940 -0.4496 0.123 -0.961 -0.245 189 183 184 0 0
1.4808 11.2000 -0.4505 0.304 -0.921 -0.245 207 201 205 0 0
1.5064 11.2094 -0.4514 0.297 -0.918 -0.262 221 220 223 0 0
1.8489 11.3714 -0.4638 0.512 -0.828 -0.230 246 242 248 0 0
0.2375 8.3968 -0.4225 -0.306 -0.478 0.823 85 79 84 0 0
0.2461 8.3887 -0.4229 -0.306 -0.498 0.811 92 86 89 0 0
0.2609 8.3689 -0.4236 -0.197 -0.695 0.692 105 101 102 0 0
0.2706 8.3624 -0.4240 0.032 -0.809 0.588 107 102 104 0 0
0.2848 8.3626 -0.4246 0.248 -0.896 0.369 112 106 110 0 0
0.3310 8.4092 -0.4261 0.501 -0.831 -0.242 116 109 112 0 0
0.3112 8.3599 -0.4257 0.472 -0.855 0.214 117 108 111 0 0
0.3180 8.3289 -0.4262 0.115 -0.975 0.189 120 114 116 0 0
0.3347 8.3326 -0.4268 -0.156 -0.961 0.229 125 119 121 0 0
0.3462 8.3289 -0.4273 -0.723 -0.397 0.565 121 115 117 0 0
0.3595 8.3278 -0.4278 -0.900 -0.054 0.434 113 107 110 0 0
0.3606 8.3092 -0.4280 -0.881 -0.073 0.468 105 100 104 0 0
0.3620 8.2912 -0.4282 -0.881 -0.073 0.468 100 95 100 0 0
0.3382 8.1597 -0.4283 -0.601 -0.094 0.794 104 97 104 0 0
0.3552 8.1642 -0.4289 -0.098 -0.272 0.957 113 107 112 0 0
0.3986 8.1666 -0.4306 0.213 -0.417 0.883 106 101 105 0 0
0.4488 8.1781 -0.4325 0.132 -0.436 0.890 103 101 105 0 0
0.6329 8.1987 -0.4397 0.336 -0.381 0.862 209 203 205 0 0
0.6367 8.1300 -0.4403 0.138 -0.650 0.747 204 197 198 0 0
0.6537 8.1338 -0.4410 0.131 -0.624 0.770 204 195 196 0 0
0.6696 8.1361 -0.4416 0.128 -0.597 0.792 201 192 193 0 0
0.6869 8.1401 -0.4422 0.214 -0.681 0.700 202 193 194 0 0
0.7014 8.1407 -0.4428 0.344 -0.833 0.433 205 198 200 0 0
0.7338 8.1640 -0.4439 0.504 -0.826 0.251 209 203 208 0 0
0.8029 8.2157 -0.4463 0.392 -0.464 0.794 214 209 216 0 0
0.8660 7.7334 -0.4524 0.474 -0.466 0.747 187 152 130 0 0
0.7221 7.4181 -0.4491 0.417 -0.626 -0.659 211 197 189 0 0
0.7566 7.4422 -0.4503 0.444 -0.667 -0.598 213 197 189 0 0
0.7476 7.3316 -0.4508 -0.472 -0.234 0.850 203 180 173 0 0
-6.4387 10.5518 -0.1548 -0.121 -0.180 0.976 135 85 58 0 0
-6.4231 10.5406 -0.1555 -0.028 -0.195 0.980 134 85 58 0 0
-6.4683 12.3633 -0.1430 -0.412 -0.728 0.548 134 87 59 0 0
-6.4503 12.3526 -0.1438 -0.412 -0.728 0.548 136 86 59 0 0
-6.3471 12.1759 -0.1489 -0.590 -0.335 0.735 136 89 63 0 0
-6.3200 12.1252 -0.1503 -0.590 -0.335 0.735 136 89 63 0 0
-5.2925 11.1027 -0.1975 0.789 -0.318 -0.526 137 91 68 0 0
-5.3424 11.6467 -0.1923 -0.982 -0.186 -0.030 134 101 85 0 0
-5.2272 11.0410 -0.2005 -0.982 -0.186 -0.030 82 69 63 0 0
-2.9475 8.3897 -0.3074 -0.994 0.108 0.027 41 41 49 0 0
-2.9858 8.0268 -0.3080 -0.907 -0.338 -0.250 77 75 80 0 0
-2.9601 8.0519 -0.3089 0.336 -0.868 -0.365 153 148 144 0 0
-2.9491 8.0527 -0.3093 -0.799 -0.583 -0.144 167 162 159 0 0
-2.9404 8.0408 -0.3097 -0.690 -0.692 0.209 202 197 194 0 0
-2.9279 8.0506 -0.3102 0.339 -0.923 0.180 212 207 203 0 0
-2.9168 8.0518 -0.3106 0.203 -0.927 0.317 211 206 202 0 0
-2.9140 8.0078 -0.3110 -0.493 -0.485 0.722 202 197 193 0 0
-2.5926 8.2262 -0.3226 0.934 -0.353 0.053 167 161 165 0 0
-2.5904 8.1862 -0.3229 0.732 -0.674 0.101 169 163 167 0 0
-2.1382 8.7869 -0.3375 -0.037 -0.995 -0.097 144 87 96 0 0
-2.2959 8.0136 -0.3357 -0.786 -0.555 0.271 146 89 98 0 0
-1.6077 9.7033 -0.3534 -0.190 -0.027 -0.981 154 101 107 0 0
-1.3601 9.8227 -0.3626 -0.134 -0.124 0.983 137 142 120 0 0
-1.4947 9.3444 -0.3600 -0.280 -0.083 0.956 140 153 125 0 0
-1.6778 8.6272 -0.3569 0.615 -0.340 0.712 191 179 137 0 0
-1.6893 8.5589 -0.3568 0.586 -0.353 0.729 196 179 135 0 0
-1.7003 8.4929 -0.3568 -0.033 -0.480 0.877 196 178 132 0 0
-0.5757 9.7109 -0.3947 0.835 -0.534 0.133 228 226 237 0 0
-0.4645 9.8873 -0.3981 0.851 -0.511 -0.123 200 198 203 0 0
0.4472 10.3086 -0.4322 0.533 -0.810 -0.246 194 188 190 0 0
0.5495 10.3671 -0.4360 0.453 -0.869 -0.201 252 252 252 0 0
0.9546 10.9315 -0.4489 0.563 -0.395 -0.726 228 216 218 0 0
1.4319 11.1864 -0.4665 0.420 -0.886 -0.197 182 173 176 0 0
1.4588 11.1983 -0.4675 0.326 -0.932 -0.160 190 184 188 0 0
1.4841 11.2073 -0.4685 0.326 -0.932 -0.160 211 208 211 0 0
1.5095 11.2163 -0.4695 0.326 -0.932 -0.160 223 221 226 0 0
1.8509 11.3763 -0.4822 0.440 -0.883 -0.166 239 235 241 0 0
0.1689 8.3797 -0.4324 -0.342 -0.850 -0.400 93 103 123 0 0
0.2355 8.3533 -0.4352 0.316 -0.503 0.805 85 80 84 0 0
0.2567 8.3639 -0.4360 0.391 -0.569 0.724 92 87 91 0 0
0.2517 8.3359 -0.4359 0.377 -0.504 0.777 100 94 98 0 0
0.2793 8.3556 -0.4369 0.420 -0.560 0.715 106 98 102 0 0
0.2217 8.2113 -0.4355 0.499 -0.561 0.660 112 102 107 0 0
0.3245 8.1225 -0.4401 -0.957 0.047 0.287 100 93 99 0 0
0.3308 8.1122 -0.4404 -0.347 -0.356 0.868 114 108 112 0 0
0.3469 8.1155 -0.4411 0.102 -0.507 0.856 118 112 116 0 0
0.3630 8.1186 -0.4417 0.071 -0.410 0.909 114 109 113 0 0
0.4257 8.1477 -0.4440 0.273 -0.431 0.860 106 104 108 0 0
0.4493 8.1609 -0.4449 0.495 -0.587 0.640 106 104 109 0 0
0.4849 8.1903 -0.4461 0.447 -0.641 0.624 104 102 106 0 0
0.6065 8.1099 -0.4515 0.138 -0.539 0.831 209 203 203 0 0
0.6248 8.1156 -0.4522 -0.022 -0.578 0.816 205 198 198 0 0
0.6399 8.1169 -0.4528 -0.112 -0.458 0.882 202 194 194 0 0
0.6511 8.1132 -0.4533 -0.112 -0.458 0.882 197 189 187 0 0
0.6650 8.1130 -0.4538 0.075 -0.559 0.825 196 186 186 0 0
0.6873 8.1236 -0.4546 0.372 -0.718 0.588 198 190 192 0 0
0.7087 8.1330 -0.4554 0.566 -0.767 0.303 202 196 200 0 0
0.7350 8.1485 -0.4564 0.554 -0.798 0.236 208 203 207 0 0
0.8128 8.2111 -0.4592 0.428 -0.514 0.744 222 216 220 0 0
0.7655 7.6029 -0.4608 0.243 -0.452 0.858 187 152 131 0 0
0.7885 7.5683 -0.4620 -0.810 -0.170 0.561 193 160 150 0 0
0.7828 7.5468 -0.4619 -0.917 -0.134 0.376 202 175 165 0 0
0.7847 7.5338 -0.4620 -0.917 -0.134 0.376 208 187 178 0 0
0.7734 7.4619 -0.4620 0.398 -0.655 -0.642 211 196 189 0 0
0.8516 7.5197 -0.4648 0.442 -0.802 -0.401 214 203 195 0 0
-6.3753 10.4175 -0.1715 -0.046 -0.211 0.976 131 84 56 0 0
-6.3593 12.1623 -0.1650 -0.590 -0.335 0.735 135 88 62 0 0
-6.3322 12.1117 -0.1663 -0.590 -0.335 0.735 135 88 62 0 0
-6.3054 12.0617 -0.1676 -0.590 -0.335 0.735 135 88 62 0 0
-5.3423 11.6439 -0.2083 -0.981 -0.188 -0.042 133 101 84 0 0
-2.9508 8.3720 -0.3186 -0.994 0.105 -0.009 41 41 49 0 0
-2.9851 8.0338 -0.3186 -0.881 -0.353 -0.314 82 80 83 0 0
-2.9609 8.0492 -0.3195 -0.741 -0.668 -0.069 153 148 144 0 0
-2.9432 8.0269 -0.3203 -0.556 -0.767 0.320 204 199 196 0 0
-2.8055 8.4180 -0.3243 -0.733 -0.521 -0.438 174 169 166 0 0
-2.8133 8.3157 -0.3244 -0.993 0.001 0.120 164 158 158 0 0
-2.5915 8.1835 -0.3339 0.723 -0.687 0.065 169 163 167 0 0
-2.5616 8.2146 -0.3350 0.791 -0.610 -0.033 172 166 170 0 0
-2.1086 9.7297 -0.3471 0.649 -0.746 -0.153 174 172 177 0 0
-2.1178 8.8163 -0.3505 -0.751 -0.548 -0.367 144 87 96 0 0
-1.9878 8.8223 -0.3557 -0.811 -0.284 -0.512 151 94 103 0 0
-1.5358 9.8867 -0.3696 0.038 -0.144 -0.989 152 99 105 0 0
-1.5356 9.8399 -0.3698 0.345 -0.229 -0.910 154 101 107 0 0
-1.4303 9.6619 -0.3748 -0.545 -0.199 0.814 138 141 122 0 0
-1.4100 9.6781 -0.3756 -0.099 -0.152 0.983 136 141 119 0 0
-1.7666 8.4486 -0.3662 0.681 -0.451 0.577 170 174 139 0 0
-1.7353 8.5021 -0.3673 0.652 -0.416 0.634 179 175 137 0 0
-1.7029 8.5224 -0.3685 0.170 -0.447 0.879 193 179 134 0 0
-1.6842 8.5394 -0.3692 0.311 -0.528 0.790 195 176 133 0 0
-1.6112 8.6709 -0.3716 -0.285 -0.837 0.466 193 178 139 0 0
-1.3656 9.0088 -0.3801 0.491 -0.307 0.815 190 181 186 0 0
-1.2360 9.2010 -0.3846 0.623 -0.445 -0.643 193 187 187 0 0
-1.2496 9.1298 -0.3843 -0.891 -0.381 -0.246 192 186 186 0 0
-0.6174 9.6541 -0.4078 0.851 -0.522 -0.055 229 228 239 0 0
-0.4549 9.9102 -0.4133 0.846 -0.531 -0.045 198 196 201 0 0
0.4499 10.3152 -0.4482 0.533 -0.810 -0.246 196 190 192 0 0
0.5511 10.3717 -0.4521 0.453 -0.869 -0.201 254 254 254 0 0
0.9161 10.8982 -0.4647 0.571 -0.395 -0.719 250 241 242 0 0
1.0283 11.0646 -0.4686 0.690 -0.470 -0.550 212 200 202 0 0
1.4345 11.1925 -0.4845 0.351 -0.918 -0.182 186 177 182 0 0
1.4604 11.2026 -0.4855 0.351 -0.918 -0.182 195 190 194 0 0
1.4851 11.2107 -0.4865 0.326 -0.932 -0.160 214 212 216 0 0
1.8224 11.3654 -0.4995 0.440 -0.883 -0.166 245 244 250 0 0
1.8524 11.3805 -0.5006 0.440 -0.883 -0.166 237 233 238 0 0
0.1229 8.3117 -0.4433 0.578 -0.816 0.020 88 98 116 0 0
0.1711 8.3631 -0.4450 0.323 -0.792 -0.519 74 76 92 0 0
0.1844 8.3620 -0.4456 -0.354 -0.876 -0.327 73 69 80 0 0
0.2230 8.3568 -0.4471 -0.043 -0.451 0.892 78 72 77 0 0
0.2212 8.3334 -0.4472 0.212 -0.474 0.855 78 73 77 0 0
0.2389 8.3389 -0.4479 0.294 -0.525 0.799 82 77 81 0 0
0.2188 8.2889 -0.4473 0.434 -0.448 0.782 88 83 87 0 0
0.3294 8.3071 -0.4517 -0.756 -0.182 0.628 116 106 108 0 0
0.3411 8.3038 -0.4521 -0.267 -0.376 0.887 116 107 110 0 0
0.3790 8.1038 -0.4545 0.045 -0.308 0.950 108 108 110 0 0
0.3939 8.1054 -0.4551 0.265 -0.423 0.866 107 106 109 0 0
0.4235 8.1268 -0.4562 0.533 -0.608 0.588 107 105 110 0 0
0.4558 8.1519 -0.4574 0.508 -0.583 0.634 110 108 112 0 0
0.4734 8.1568 -0.4581 0.351 -0.537 0.767 110 108 111 0 0
0.5169 8.1778 -0.4598 -0.975 0.012 -0.220 124 119 123 0 0
0.4694 7.9860 -0.4587 0.506 -0.766 0.396 209 203 203 0 0
0.5327 8.0329 -0.4610 0.611 -0.756 0.236 209 203 203 0 0
0.5674 8.0601 -0.4623 0.570 -0.766 0.296 209 203 203 0 0
0.6078 8.0945 -0.4638 0.170 -0.985 0.013 208 201 201 0 0
0.6159 8.0869 -0.4642 0.140 -0.762 0.632 207 198 197 0 0
0.6314 8.0890 -0.4648 0.035 -0.727 0.686 200 191 190 0 0
0.6462 8.0900 -0.4654 0.190 -0.667 0.721 195 186 185 0 0
0.6721 8.1052 -0.4664 0.408 -0.670 0.620 194 186 187 0 0
0.6970 8.1191 -0.4673 0.587 -0.713 0.385 194 189 191 0 0
0.7251 8.1369 -0.4684 0.535 -0.797 0.280 199 195 199 0 0
0.7501 8.1508 -0.4693 0.465 -0.818 0.338 210 208 210 0 0
0.7735 8.1625 -0.4702 0.428 -0.514 0.744 220 218 218 0 0
0.8119 8.1750 -0.4717 -0.966 0.002 -0.260 230 224 224 0 0
0.7610 7.5230 -0.4724 -0.752 -0.164 0.638 210 186 177 0 0
0.7198 7.4613 -0.4710 0.193 -0.395 -0.898 212 193 185 0 0
-6.3754 12.2290 -0.1806 -0.611 -0.315 0.726 136 86 61 0 0
-6.3410 12.1477 -0.1822 -0.730 -0.340 0.593 134 87 61 0 0
-6.3099 12.0795 -0.1836 -0.739 -0.386 0.552 134 87 61 0 0
-5.9416 10.8475 -0.2016 0.084 -0.091 -0.992 136 89 63 0 0
-5.3399 11.6243 -0.2243 -0.978 -0.192 -0.083 133 100 84 0 0
-2.9708 8.0570 -0.3297 0.585 -0.769 -0.259 142 136 136 0 0
-2.9627 8.0415 -0.3301 -0.757 -0.653 -0.014 153 148 144 0 0
-2.9534 8.0325 -0.3305 -0.830 -0.552 0.077 174 169 166 0 0
-2.9443 8.0235 -0.3309 -0.612 -0.732 0.298 208 203 200 0 0
-2.9293 8.0470 -0.3315 0.796 -0.566 0.215 211 206 202 0 0
-2.9087 8.0414 -0.3323 0.714 -0.659 0.236 203 198 194 0 0
-2.5598 8.2244 -0.3462 0.784 -0.604 -0.147 173 164 169 0 0
-2.4817 8.0350 -0.3498 -0.983 0.147 0.114 179 170 173 0 0
-2.3257 7.9518 -0.3564 -0.043 -0.991 0.129 143 87 98 0 0
-1.9564 9.0638 -0.3688 0.413 -0.625 -0.663 147 91 100 0 0
-1.7750 8.6079 -0.3773 0.792 -0.510 0.336 136 141 119 0 0
-1.7908 8.4166 -0.3771 -0.211 -0.234 0.949 157 168 136 0 0
-1.6643 8.6685 -0.3817 -0.747 -0.664 -0.028 182 175 133 0 0
-1.2761 9.1719 -0.3964 -0.649 -0.740 -0.176 189 183 187 0 0
-1.2482 9.1351 -0.3976 -0.891 -0.381 -0.246 192 186 186 0 0
0.4497 10.3164 -0.4642 0.530 -0.803 -0.272 197 191 193 0 0
0.5524 10.3757 -0.4682 0.431 -0.868 -0.247 254 254 254 0 0
1.2177 11.4041 -0.4930 0.827 -0.545 0.138 194 182 184 0 0
1.3588 11.6191 -0.4982 0.789 -0.502 0.353 135 122 122 0 0
1.2232 11.1700 -0.4938 -0.676 -0.719 -0.163 162 152 150 0 0
1.4342 11.1937 -0.5023 0.405 -0.889 -0.212 187 181 184 0 0
1.5162 11.2310 -0.5056 0.391 -0.887 -0.247 227 225 230 0 0
1.7463 11.3432 -0.5147 0.330 -0.816 -0.475 244 245 249 0 0
1.8039 11.3702 -0.5170 0.302 -0.931 -0.204 244 243 250 0 0
1.8297 11.3788 -0.5181 0.302 -0.931 -0.204 244 242 246 0 0
1.8542 11.3852 -0.5191 0.382 -0.904 -0.192 233 229 233 0 0
0.1482 8.3508 -0.4566 0.315 -0.949 -0.019 83 91 109 0 0
0.1707 8.3636 -0.4575 0.139 -0.891 0.431 71 74 87 0 0
0.2120 8.3625 -0.4591 -0.759 -0.220 0.612 72 66 73 0 0
0.2130 8.3431 -0.4592 -0.622 -0.393 0.677 73 68 73 0 0
0.1178 8.1821 -0.4557 0.312 -0.343 0.886 74 69 75 0 0
0.1819 8.2360 -0.4582 0.376 -0.402 0.835 82 76 81 0 0
0.2273 8.2417 -0.4601 0.288 -0.398 0.871 100 88 94 0 0
0.2339 8.2112 -0.4604 0.632 -0.656 0.413 107 94 102 0 0
0.2982 8.2836 -0.4629 0.237 -0.725 0.647 109 97 102 0 0
0.3299 8.2690 -0.4642 -0.969 0.066 -0.237 113 103 109 0 0
0.3811 8.0889 -0.4667 0.414 -0.549 0.726 114 113 116 0 0
0.4103 8.1100 -0.4679 0.459 -0.548 0.699 111 109 113 0 0
0.4432 8.1359 -0.4691 0.459 -0.548 0.699 110 107 111 0 0
0.4679 8.1505 -0.4701 0.390 -0.520 0.760 113 109 113 0 0
0.5075 8.1475 -0.4717 -0.705 -0.148 0.694 120 115 118 0 0
0.4920 8.1082 -0.4712 -0.939 -0.012 0.344 142 138 139 0 0
0.4568 7.9704 -0.4701 -0.430 -0.671 0.604 208 202 202 0 0
0.4944 8.0018 -0.4716 0.200 -0.534 0.821 208 202 202 0 0
0.5312 8.0320 -0.4730 0.633 -0.738 0.231 209 203 202 0 0
0.5574 8.0481 -0.4740 0.570 -0.766 0.296 210 205 202 0 0
0.6034 8.0899 -0.4758 0.230 -0.873 0.430 209 203 200 0 0
0.6110 8.0817 -0.4761 -0.128 -0.497 0.858 207 199 197 0 0
0.6202 8.0756 -0.4765 -0.241 -0.315 0.918 203 194 193 0 0
0.6687 8.0840 -0.4785 0.151 -0.893 0.424 192 186 188 0 0
0.6848 8.0866 -0.4791 0.518 -0.651 0.554 193 189 190 0 0
0.7202 8.1139 -0.4805 0.294 -0.650 0.701 202 200 202 0 0
0.7328 8.1119 -0.4810 0.546 -0.636 0.545 215 213 213 0 0
0.7555 8.1227 -0.4819 0.210 -0.590 0.779 225 221 218 0 0
0.7956 8.1375 -0.4835 -0.755 0.043 -0.654 235 230 229 0 0
0.7435 7.5794 -0.4828 -0.423 -0.314 0.850 184 148 132 0 0
0.7466 7.5526 -0.4829 -0.054 -0.448 0.893 189 159 145 0 0
0.7593 7.5519 -0.4835 -0.054 -0.488 0.871 199 174 162 0 0
0.8246 7.5659 -0.4861 0.207 -0.347 -0.915 210 195 188 0 0
0.8249 7.5363 -0.4862 0.198 -0.385 -0.901 211 198 189 0 0
0.7707 7.4026 -0.4843 -0.269 -0.209 0.940 211 187 180 0 0
-6.3944 12.2435 -0.1963 -0.685 -0.360 0.634 135 85 60 0 0
-6.3657 12.1866 -0.1975 -0.685 -0.360 0.634 135 85 60 0 0
-6.3374 12.1311 -0.1987 -0.741 -0.359 0.568 133 86 60 0 0
-6.3003 12.0371 -0.2003 -0.739 -0.386 0.552 133 86 60 0 0
-5.9817 11.0236 -0.2141 0.024 -0.088 -0.996 135 88 62 0 0
-5.2932 11.0056 -0.2426 0.101 -0.107 -0.989 136 91 62 0 0
-5.2887 11.0703 -0.2427 0.838 -0.343 -0.424 134 90 63 0 0
-5.2686 11.0285 -0.2436 0.810 -0.347 -0.472 133 93 69 0 0
-2.9943 8.0478 -0.3394 -0.638 -0.694 0.334 44 41 50 0 0
-2.9830 8.0510 -0.3399 0.557 -0.808 -0.191 94 92 95 0 0
-2.9706 8.0608 -0.3404 0.585 -0.769 -0.259 143 137 137 0 0
-2.9636 8.0383 -0.3407 -0.838 -0.544 -0.036 153 148 144 0 0
-2.9446 8.0237 -0.3415 -0.723 -0.682 0.113 211 206 203 0 0
-2.9289 8.0518 -0.3421 0.709 -0.699 0.091 211 206 202 0 0
-2.9152 8.0679 -0.3427 0.706 -0.701 -0.106 206 201 197 0 0
-2.1701 9.7163 -0.3724 -0.823 -0.351 -0.446 174 169 173 0 0
-1.7231 8.9186 -0.3914 0.552 -0.245 -0.797 136 129 111 0 0
-1.7983 8.3615 -0.3886 0.411 -0.375 0.831 166 172 138 0 0
-1.5372 8.8054 -0.3991 0.828 -0.427 0.363 186 170 144 0 0
-1.3914 9.0902 -0.4049 0.351 -0.870 -0.348 177 163 150 0 0
-1.4009 9.0279 -0.4046 0.113 -0.644 -0.757 176 163 154 0 0
-1.2861 9.0752 -0.4093 -0.846 -0.268 -0.462 190 186 187 0 0
-0.6058 9.6836 -0.4370 0.714 -0.444 -0.541 226 226 236 0 0
0.4529 10.3239 -0.4803 0.530 -0.803 -0.272 199 193 195 0 0
0.9958 11.0788 -0.5022 0.670 -0.457 -0.585 254 246 247 0 0
1.1124 11.2531 -0.5069 0.723 -0.494 -0.483 239 229 230 0 0
1.3045 11.5246 -0.5146 0.801 -0.513 0.307 149 134 135 0 0
1.4372 11.2006 -0.5203 0.387 -0.887 -0.251 188 182 186 0 0
1.4643 11.2127 -0.5215 0.387 -0.887 -0.251 202 196 200 0 0
1.6708 11.3544 -0.5299 0.055 -0.992 -0.115 240 240 245 0 0
1.6900 11.3526 -0.5307 -0.077 -0.990 -0.120 238 239 243 0 0
1.7638 11.3732 -0.5337 0.262 -0.963 0.065 237 240 243 0 0
1.7804 11.3671 -0.5344 0.321 -0.925 -0.205 242 242 247 0 0
1.8056 11.3748 -0.5354 0.302 -0.931 -0.204 244 242 248 0 0
1.8305 11.3817 -0.5365 0.355 -0.907 -0.225 242 240 244 0 0
1.8569 11.3911 -0.5375 0.359 -0.905 -0.228 226 224 226 0 0
0.2090 8.3385 -0.4715 -0.076 -0.517 0.852 71 67 74 0 0
0.1309 8.1824 -0.4684 0.264 -0.310 0.913 72 69 76 0 0
0.2299 8.2667 -0.4724 0.601 -0.487 0.634 87 77 83 0 0
0.2028 8.2072 -0.4713 0.447 -0.451 0.773 92 81 87 0 0
0.2445 8.2475 -0.4730 0.414 -0.434 0.800 98 86 93 0 0
0.2701 8.2644 -0.4741 0.364 -0.427 0.828 103 90 97 0 0
0.2389 8.1996 -0.4728 0.375 -0.403 0.835 105 93 98 0 0
0.3142 8.2877 -0.4759 -0.200 -0.218 0.955 106 94 97 0 0
0.3117 8.2640 -0.4758 -0.315 -0.131 0.940 105 93 96 0 0
0.3159 8.2502 -0.4760 -0.328 -0.130 0.936 106 95 100 0 0
0.3479 8.2757 -0.4773 -0.832 -0.518 0.200 107 97 104 0 0
0.3493 8.2579 -0.4774 -0.488 -0.679 0.549 106 98 105 0 0
0.3357 8.2190 -0.4768 -0.965 -0.110 0.238 104 98 104 0 0
0.3277 8.1111 -0.4766 -0.917 0.123 -0.380 78 67 71 0 0
0.3918 8.0859 -0.4792 0.436 -0.541 0.719 116 114 117 0 0
0.4076 8.0886 -0.4799 0.394 -0.484 0.781 112 109 113 0 0
0.4384 8.1117 -0.4811 0.394 -0.484 0.781 114 109 113 0 0
0.4705 8.1363 -0.4824 0.313 -0.434 0.845 118 113 117 0 0
0.5573 8.2342 -0.4860 -0.918 0.060 -0.392 119 114 118 0 0
0.4935 8.1298 -0.4834 -0.298 -0.199 0.934 120 115 118 0 0
0.4955 8.1139 -0.4835 -0.598 -0.161 0.785 124 120 121 0 0
0.4832 8.0790 -0.4830 -0.986 -0.004 0.164 141 136 137 0 0
0.5167 8.0140 -0.4844 0.214 -0.395 0.893 206 201 200 0 0
0.5531 8.0436 -0.4859 0.200 -0.353 0.914 207 202 199 0 0
0.5471 8.0178 -0.4857 0.395 -0.566 0.724 206 201 198 0 0
0.5604 8.0172 -0.4862 0.148 -0.350 0.925 207 201 198 0 0
0.5969 8.0466 -0.4877 -0.181 -0.250 0.951 208 199 198 0 0
0.6329 8.0570 -0.4892 0.127 -0.434 0.892 205 198 197 0 0
0.6476 8.0581 -0.4898 0.503 -0.663 0.554 199 193 195 0 0
0.7016 8.0913 -0.4920 0.495 -0.669 0.555 198 196 197 0 0
0.7161 8.0918 -0.4926 0.423 -0.784 0.455 208 206 204 0 0
0.7681 8.1218 -0.4947 -0.106 -0.490 0.865 224 219 216 0 0
0.8116 8.1586 -0.4965 -0.805 0.054 -0.591 231 225 223 0 0
0.6124 7.5196 -0.4887 -0.159 -0.233 -0.959 183 148 129 0 0
0.7670 7.5617 -0.4951 0.599 -0.799 -0.056 206 186 172 0 0
0.8110 7.5967 -0.4969 0.625 -0.762 -0.166 210 195 183 0 0
-5.3040 11.0763 -0.2570 0.341 -0.237 -0.910 135 91 62 0 0
-5.2886 11.0670 -0.2577 0.913 -0.364 -0.186 133 90 62 0 0
-5.2780 11.2890 -0.2584 -0.973 -0.222 -0.060 120 101 85 0 0
-2.9973 8.0318 -0.3499 -0.396 -0.739 0.544 46 43 52 0 0
-2.9615 8.0530 -0.3515 -0.945 -0.327 -0.007 155 150 146 0 0
-2.9457 8.0201 -0.3521 -0.932 -0.346 -0.106 213 205 203 0 0
-2.9297 8.0496 -0.3528 0.709 -0.699 0.091 213 205 202 0 0
-2.9162 8.0645 -0.3534 0.729 -0.649 -0.219 208 200 197 0 0
-2.8100 8.4633 -0.3582 0.800 -0.319 -0.508 181 176 173 0 0
-1.6547 9.1261 -0.4071 0.498 -0.238 -0.834 136 127 110 0 0
-1.8883 8.3501 -0.3965 0.537 -0.328 -0.777 140 138 123 0 0
-1.7553 8.5946 -0.4023 0.809 -0.422 0.410 130 143 117 0 0
-1.6410 8.6290 -0.4071 0.171 -0.442 0.881 189 174 131 0 0
-1.6063 8.6893 -0.4086 0.389 -0.485 0.783 191 176 137 0 0
-1.5916 8.6938 -0.4093 0.708 -0.485 0.513 191 175 142 0 0
-1.3838 9.1125 -0.4184 0.059 -0.571 -0.819 178 162 149 0 0
-1.3701 9.1119 -0.4189 0.227 -0.816 -0.532 176 162 153 0 0
-1.3553 9.1144 -0.4196 0.302 -0.895 -0.328 178 167 163 0 0
-1.3386 9.0850 -0.4202 0.044 -0.153 -0.987 190 181 186 0 0
0.4317 10.3188 -0.4954 0.475 -0.801 -0.363 193 187 189 0 0
0.4578 10.3348 -0.4965 0.475 -0.801 -0.363 202 196 198 0 0
0.5579 10.3891 -0.5007 0.505 -0.817 -0.279 254 254 254 0 0
1.0566 11.1550 -0.5223 0.837 -0.530 0.139 235 225 226 0 0
1.3952 11.6511 -0.5370 0.817 -0.526 0.234 164 148 149 0 0
1.2222 11.2750 -0.5293 -0.739 -0.598 -0.309 154 140 140 0 0
1.3370 11.3022 -0.5342 -0.768 -0.637 -0.063 172 162 160 0 0
1.4659 11.2172 -0.5394 0.363 -0.872 -0.330 206 200 202 0 0
1.4838 11.2139 -0.5402 -0.143 -0.909 -0.391 222 216 219 0 0
1.6235 11.3121 -0.5461 0.503 -0.767 -0.397 235 234 239 0 0
1.6702 11.3553 -0.5481 0.145 -0.989 0.035 235 235 238 0 0
1.6902 11.3548 -0.5489 -0.077 -0.990 -0.120 236 236 238 0 0
1.7133 11.3593 -0.5499 -0.406 -0.894 -0.191 238 240 240 0 0
1.7329 11.3581 -0.5507 -0.055 -0.997 -0.048 239 241 240 0 0
1.7616 11.3714 -0.5519 0.262 -0.963 0.065 240 241 242 0 0
1.7819 11.3712 -0.5528 0.256 -0.937 -0.239 243 242 246 0 0
1.8052 11.3758 -0.5538 0.311 -0.910 -0.274 245 241 247 0 0
1.8307 11.3839 -0.5548 0.376 -0.876 -0.303 240 237 240 0 0
1.8581 11.3948 -0.5560 0.446 -0.846 -0.292 221 220 219 0 0
0.1308 8.1632 -0.4805 0.113 -0.247 0.962 75 73 78 0 0
0.2030 8.1887 -0.4835 0.421 -0.445 0.790 90 79 84 0 0
0.2339 8.1540 -0.4848 0.125 -0.234 0.964 104 90 94 0 0
0.2554 8.1651 -0.4857 0.093 -0.233 0.968 103 88 93 0 0
0.3425 8.2692 -0.4894 -0.721 -0.356 0.594 104 90 96 0 0
0.3453 8.2533 -0.4895 -0.972 -0.180 0.151 106 94 101 0 0
0.3337 8.2172 -0.4890 -0.343 -0.271 0.899 108 99 104 0 0
0.3387 8.1852 -0.4892 -0.970 0.157 -0.185 100 94 96 0 0
0.3344 8.1216 -0.4889 -0.912 0.116 -0.392 88 78 79 0 0
0.3734 8.0434 -0.4905 0.399 -0.601 0.693 119 114 116 0 0
0.4042 8.0666 -0.4918 0.377 -0.489 0.787 117 111 114 0 0
0.4263 8.0779 -0.4927 0.519 -0.551 0.654 119 113 115 0 0
0.4418 8.0801 -0.4934 0.351 -0.435 0.829 123 117 119 0 0
0.4798 8.0573 -0.4949 -0.920 0.014 0.391 136 130 132 0 0
0.4476 7.9248 -0.4934 -0.920 -0.141 0.365 206 200 200 0 0
0.5251 8.0081 -0.4968 0.327 -0.496 0.804 205 199 199 0 0
0.5472 8.0011 -0.4977 0.023 -0.268 0.963 206 201 198 0 0
0.5667 8.0086 -0.4985 -0.101 -0.219 0.970 208 202 199 0 0
0.5898 8.0028 -0.4995 0.137 -0.317 0.939 208 200 199 0 0
0.6226 8.0271 -0.5009 0.320 -0.451 0.833 204 198 200 0 0
0.6346 8.0247 -0.5014 0.431 -0.532 0.729 201 197 198 0 0
0.6686 8.0503 -0.5028 0.451 -0.561 0.695 199 198 195 0 0
0.6893 8.0589 -0.5037 0.414 -0.534 0.737 201 199 196 0 0
0.6588 7.5750 -0.5019 -0.108 -0.226 -0.968 182 147 128 0 0
0.7133 7.5314 -0.5041 -0.258 -0.594 0.762 196 170 156 0 0
0.7315 7.5372 -0.5049 0.567 -0.806 -0.172 205 185 171 0 0
0.8158 7.6031 -0.5085 0.671 -0.678 -0.299 209 196 186 0 0
-2.9996 8.0205 -0.3604 -0.072 -0.742 0.666 48 45 54 0 0
-2.9607 8.0602 -0.3622 -0.959 -0.283 -0.017 158 153 149 0 0
-2.9472 8.0137 -0.3626 -0.995 -0.097 -0.040 212 204 202 0 0
-2.9316 8.0413 -0.3633 0.567 -0.809 -0.155 212 204 201 0 0
-2.9159 8.0684 -0.3641 0.729 -0.649 -0.219 207 199 196 0 0
-2.5707 8.2322 -0.3791 0.107 -0.780 -0.617 171 165 169 0 0
-2.5664 8.2020 -0.3792 0.289 -0.908 -0.304 174 163 167 0 0
-2.1734 9.7675 -0.4001 -0.827 -0.330 -0.456 173 167 169 0 0
-2.4785 7.9235 -0.3821 -0.645 -0.180 -0.743 132 85 95 0 0
-2.0238 8.8831 -0.4039 -0.660 -0.750 0.052 149 92 101 0 0
-2.0122 8.8785 -0.4044 -0.211 -0.969 0.124 148 91 100 0 0
-1.8596 8.6257 -0.4101 0.678 -0.266 -0.685 147 108 101 0 0
-1.8775 8.3476 -0.4086 0.729 -0.658 -0.189 138 139 121 0 0
-1.7994 8.3614 -0.4119 0.649 -0.726 0.228 162 168 134 0 0
-1.6583 8.6180 -0.4186 -0.039 -0.390 0.920 189 174 135 0 0
-1.6541 8.5941 -0.4187 0.100 -0.386 0.917 190 175 134 0 0
-1.6230 8.6446 -0.4201 0.238 -0.460 0.856 192 177 138 0 0
-1.3335 9.1741 -0.4338 0.264 -0.465 -0.845 179 166 160 0 0
-1.3086 9.2026 -0.4349 0.513 -0.456 -0.727 185 175 174 0 0
-1.2865 9.1500 -0.4357 -0.071 -0.582 -0.810 186 184 187 0 0
-0.6114 9.7091 -0.4657 0.737 -0.450 -0.505 228 228 241 0 0
0.4362 10.3288 -0.5115 0.475 -0.801 -0.363 193 187 189 0 0
0.4624 10.3448 -0.5127 0.475 -0.801 -0.363 206 200 202 0 0
1.2235 11.2791 -0.5473 -0.778 -0.612 -0.138 154 141 141 0 0
1.4682 11.2228 -0.5575 0.207 -0.914 -0.349 210 205 207 0 0
1.4874 11.2215 -0.5583 -0.163 -0.900 -0.404 223 218 221 0 0
1.6511 11.3259 -0.5655 0.395 -0.904 0.164 241 233 237 0 0
1.6894 11.3553 -0.5672 0.141 -0.982 0.127 245 234 238 0 0
1.7143 11.3627 -0.5682 -0.406 -0.894 -0.191 249 235 238 0 0
1.7325 11.3592 -0.5690 -0.149 -0.988 -0.034 248 232 235 0 0
1.7595 11.3698 -0.5702 0.333 -0.940 -0.076 249 234 238 0 0
1.7833 11.3754 -0.5712 0.302 -0.931 -0.204 248 237 244 0 0
1.8082 11.3824 -0.5722 0.311 -0.910 -0.274 247 240 245 0 0
1.8347 11.3920 -0.5734 0.376 -0.876 -0.303 238 236 236 0 0
1.8625 11.4036 -0.5746 0.446 -0.846 -0.292 215 214 212 0 0
0.0846 8.0769 -0.4904 0.589 -0.635 0.500 80 79 83 0 0
0.1326 8.1273 -0.4926 0.610 -0.554 0.567 81 76 79 0 0
0.2176 8.1910 -0.4963 0.509 -0.525 0.682 93 84 88 0 0
0.2545 8.2243 -0.4980 0.534 -0.560 0.634 98 88 91 0 0
0.2228 8.1199 -0.4963 0.149 -0.235 0.961 102 86 92 0 0
0.2429 8.1291 -0.4972 0.149 -0.235 0.961 102 85 92 0 0
0.2599 8.1337 -0.4979 0.050 -0.203 0.978 105 89 95 0 0
0.2601 8.1147 -0.4979 0.023 -0.197 0.980 108 95 99 0 0
0.2590 8.0939 -0.4978 0.470 -0.627 0.621 107 98 100 0 0
0.3263 8.1690 -0.5008 -0.869 0.046 0.493 104 96 97 0 0
0.3229 8.1450 -0.5006 -0.934 0.066 0.352 99 93 93 0 0
0.3518 8.1660 -0.5019 -0.938 0.170 -0.302 97 90 90 0 0
0.3458 8.1384 -0.5016 -0.933 0.165 -0.321 97 88 89 0 0
0.3293 8.0776 -0.5007 -0.920 0.132 -0.369 83 73 76 0 0
0.3755 8.0288 -0.5025 0.423 -0.557 0.715 122 116 118 0 0
0.3930 8.0339 -0.5033 0.519 -0.551 0.654 121 115 117 0 0
0.4063 8.0334 -0.5038 0.497 -0.516 0.697 121 115 117 0 0
0.4469 8.0696 -0.5056 0.503 -0.528 0.684 123 117 119 0 0
0.4690 8.0440 -0.5065 0.056 -0.393 0.918 127 121 123 0 0
0.4725 8.0304 -0.5066 -0.756 -0.159 0.635 138 132 133 0 0
0.4505 7.9296 -0.5054 -0.989 -0.142 -0.049 204 198 198 0 0
0.4890 7.9622 -0.5071 0.043 -0.538 0.842 206 200 200 0 0
0.4993 7.9579 -0.5075 0.073 -0.500 0.863 207 201 200 0 0
0.5321 7.9649 -0.5089 -0.134 -0.279 0.951 207 201 198 0 0
0.5996 7.9811 -0.5118 0.397 -0.480 0.782 206 200 202 0 0
0.6340 8.0074 -0.5133 0.396 -0.474 0.786 202 199 197 0 0
0.6854 8.0197 -0.5155 0.106 -0.338 0.935 211 203 200 0 0
0.7827 8.0539 -0.5197 -0.979 0.067 0.195 236 227 221 0 0
0.4114 7.3598 -0.5021 -0.498 -0.147 -0.855 181 144 126 0 0
0.7640 7.6522 -0.5178 -0.532 -0.007 -0.847 181 148 131 0 0
0.7002 7.5173 -0.5147 -0.261 -0.480 0.838 202 182 168 0 0
0.7352 7.5423 -0.5163 0.589 -0.781 -0.206 209 192 179 0 0
0.7699 7.5670 -0.5178 0.567 -0.806 -0.172 210 197 185 0 0
0.8014 7.5126 -0.5190 -0.155 -0.318 0.935 220 207 202 0 0
0.8069 7.5041 -0.5192 -0.260 -0.381 0.887 222 208 201 0 0
-3.0000 8.0206 -0.3710 0.803 -0.585 0.112 50 47 56 0 0
-2.9608 8.0619 -0.3728 -0.969 -0.246 -0.022 159 154 151 0 0
-2.9471 8.0164 -0.3732 -0.993 -0.059 -0.100 212 204 202 0 0
-2.9193 8.0516 -0.3745 0.230 -0.847 -0.480 207 199 196 0 0
-2.8230 8.0445 -0.3786 -0.940 -0.208 0.271 138 136 139 0 0
-2.5529 8.2130 -0.3909 0.052 -0.975 -0.216 174 165 168 0 0
-2.4765 7.9756 -0.3930 0.438 -0.479 -0.761 127 101 104 0 0
-2.4637 7.8565 -0.3930 -0.838 0.151 -0.524 140 77 86 0 0
-2.0278 8.8712 -0.4162 -0.570 -0.803 0.175 150 90 100 0 0
-2.0135 8.8759 -0.4168 -0.118 -0.946 0.303 149 89 99 0 0
-1.9304 8.6839 -0.4194 0.836 -0.445 -0.320 152 97 102 0 0
-1.8885 8.7765 -0.4216 0.765 -0.348 -0.541 154 99 104 0 0
-1.8887 8.3520 -0.4197 0.638 -0.766 0.076 139 136 121 0 0
-1.8720 8.3656 -0.4205 0.555 -0.817 -0.157 139 138 120 0 0
-1.3045 9.2153 -0.4485 0.639 -0.480 -0.601 182 172 171 0 0
-1.3139 9.1533 -0.4478 0.401 -0.388 -0.830 187 178 183 0 0
-1.2670 9.0935 -0.4495 -0.611 -0.633 -0.476 191 187 188 0 0
-1.2439 9.0460 -0.4503 0.572 -0.791 0.214 195 185 186 0 0
-1.1593 9.0829 -0.4540 0.832 -0.438 -0.341 188 186 189 0 0
-0.4958 9.9348 -0.4861 0.789 -0.425 -0.443 221 221 229 0 0
0.4427 10.3426 -0.5278 0.379 -0.853 -0.359 194 188 190 0 0
0.4661 10.3534 -0.5289 0.379 -0.853 -0.359 209 203 205 0 0
0.8887 10.8579 -0.5491 0.794 -0.505 0.339 237 226 228 0 0
1.2069 11.3568 -0.5649 0.821 -0.554 0.137 193 178 179 0 0
1.3256 11.5316 -0.5707 0.801 -0.593 -0.082 166 150 151 0 0
1.3811 11.3131 -0.5721 0.016 -0.732 -0.681 180 170 168 0 0
1.4718 11.2305 -0.5756 0.207 -0.914 -0.349 212 211 211 0 0
1.4901 11.2278 -0.5764 -0.142 -0.915 -0.378 222 222 222 0 0
1.6469 11.3208 -0.5834 0.395 -0.904 0.164 244 220 226 0 0
1.6743 11.3325 -0.5847 0.366 -0.869 0.332 245 211 221 0 0
1.7151 11.3657 -0.5866 -0.315 -0.944 0.101 242 199 210 0 0
1.7319 11.3599 -0.5872 -0.149 -0.988 -0.034 239 190 202 0 0
1.7592 11.3712 -0.5885 0.333 -0.940 -0.076 244 199 211 0 0
1.7860 11.3814 -0.5896 0.375 -0.917 -0.139 250 223 233 0 0
1.8112 11.3890 -0.5907 0.323 -0.926 -0.197 247 237 242 0 0
1.8375 11.3982 -0.5919 0.355 -0.907 -0.225 234 232 232 0 0
0.0182 8.0395 -0.4993 -0.956 0.039 -0.290 65 67 75 0 0
0.0464 8.0418 -0.5005 -0.246 -0.285 0.927 76 78 83 0 0
0.0625 8.0458 -0.5012 0.529 -0.666 0.525 82 83 85 0 0
0.1039 8.0865 -0.5032 0.607 -0.599 0.522 84 81 83 0 0
0.1432 8.1240 -0.5050 0.566 -0.597 0.569 82 77 78 0 0
0.2636 8.2185 -0.5106 0.405 -0.482 0.777 96 88 88 0 0
0.2237 8.0835 -0.5083 0.105 -0.226 0.968 105 85 92 0 0
0.2303 8.0738 -0.5085 0.039 -0.193 0.980 106 89 94 0 0
0.2389 8.0667 -0.5088 0.623 -0.653 0.431 105 92 95 0 0
0.2510 8.0646 -0.5093 -0.031 -0.184 0.982 102 94 94 0 0
0.3451 8.1578 -0.5138 -0.924 0.112 -0.365 98 91 89 0 0
0.3330 8.0838 -0.5129 -0.918 0.133 -0.373 89 79 81 0 0
0.3222 8.0502 -0.5123 -0.953 0.122 -0.276 82 72 76 0 0
0.3166 8.0238 -0.5119 -0.975 0.149 -0.166 78 69 74 0 0
0.3732 7.9901 -0.5142 0.362 -0.459 0.811 122 114 116 0 0
0.4131 7.9888 -0.5159 0.258 -0.389 0.884 129 122 124 0 0
0.4533 7.9167 -0.5173 -0.939 -0.301 0.166 199 193 193 0 0
0.4630 7.9117 -0.5177 -0.487 -0.645 0.589 205 199 199 0 0
0.4709 7.9044 -0.5180 -0.459 -0.589 0.665 204 200 199 0 0
0.5212 7.9168 -0.5201 -0.153 -0.440 0.885 204 196 195 0 0
0.5940 7.9575 -0.5234 0.335 -0.490 0.805 204 200 198 0 0
0.7236 7.9988 -0.5291 0.144 -0.432 0.890 225 216 217 0 0
0.7385 8.0001 -0.5298 0.073 -0.478 0.875 231 220 218 0 0
0.7748 8.0278 -0.5314 -0.989 0.078 0.127 235 225 220 0 0
0.3943 7.3405 -0.5121 0.465 -0.675 0.573 181 144 128 0 0
0.5573 7.5035 -0.5198 0.493 -0.594 -0.635 182 145 129 0 0
0.7266 7.6721 -0.5278 0.611 -0.777 -0.149 180 147 128 0 0
0.7152 7.5506 -0.5267 0.305 -0.655 -0.691 205 182 169 0 0
0.7545 7.5654 -0.5285 0.512 -0.696 -0.503 209 194 183 0 0
0.7362 7.5143 -0.5275 -0.337 -0.355 -0.872 208 198 189 0 0
0.7473 7.3802 -0.5273 -0.084 -0.087 -0.993 189 151 137 0 0
0.7575 7.3772 -0.5277 -0.080 -0.079 -0.994 187 150 133 0 0
-5.9098 11.2520 -0.2770 -0.817 -0.462 0.346 138 90 68 0 0
-5.3888 9.2044 -0.2865 -0.773 -0.308 -0.554 137 90 61 0 0
-4.6698 8.9005 -0.3154 -0.117 -0.289 -0.950 26 25 30 0 0
-3.0398 7.9753 -0.3796 0.307 -0.929 0.207 35 38 47 0 0
-2.9449 8.0314 -0.3840 -0.997 -0.039 -0.060 213 205 203 0 0
-2.8208 8.0578 -0.3895 -0.768 -0.363 0.528 141 139 142 0 0
-2.8162 8.0261 -0.3895 -0.693 -0.380 0.613 149 147 150 0 0
-2.5814 8.2396 -0.4009 0.263 -0.636 -0.725 169 163 167 0 0
-2.5679 8.2484 -0.4015 0.279 -0.627 -0.727 170 164 168 0 0
-2.4890 7.9718 -0.4032 0.565 -0.601 -0.565 153 134 138 0 0
-2.0145 8.8743 -0.4292 -0.347 -0.935 0.071 148 88 98 0 0
-1.9704 8.5182 -0.4289 0.916 -0.325 -0.234 152 97 102 0 0
-1.7562 8.5971 -0.4385 -0.112 -0.295 -0.949 130 140 116 0 0
-1.7596 8.5505 -0.4381 -0.419 -0.255 -0.871 134 147 119 0 0
-1.7496 8.5430 -0.4385 -0.398 -0.218 -0.891 144 155 125 0 0
-1.7635 8.4672 -0.4374 -0.161 -0.231 -0.960 157 162 130 0 0
-1.2499 9.4387 -0.4655 -0.436 -0.430 -0.791 174 158 145 0 0
-1.2391 9.4287 -0.4659 -0.413 -0.324 -0.852 177 162 155 0 0
-1.2639 9.2868 -0.4640 0.635 -0.526 -0.565 185 175 176 0 0
-1.2756 9.0731 -0.4621 0.172 -0.982 0.082 191 187 188 0 0
-1.2667 9.0249 -0.4622 0.667 -0.732 -0.141 193 187 189 0 0
-0.9582 9.5065 -0.4785 0.743 -0.423 -0.519 192 191 205 0 0
-0.6016 9.8053 -0.4957 -0.866 -0.058 -0.496 211 213 228 0 0
0.4448 10.3482 -0.5439 0.489 -0.834 -0.257 194 190 191 0 0
0.4708 10.3638 -0.5452 0.489 -0.834 -0.257 212 208 209 0 0
0.5222 10.3935 -0.5476 0.545 -0.787 -0.289 253 251 252 0 0
0.9424 10.9558 -0.5691 0.772 -0.516 0.371 229 220 221 0 0
1.3216 11.5626 -0.5892 0.700 -0.541 -0.466 187 173 174 0 0
1.3697 11.3295 -0.5898 -0.264 -0.695 -0.668 179 169 167 0 0
1.3903 11.3305 -0.5907 0.016 -0.732 -0.681 181 170 168 0 0
0.9354 10.4895 -0.5659 -0.539 -0.579 0.612 185 172 171 0 0
1.4167 11.2065 -0.5910 0.403 -0.877 -0.261 186 180 180 0 0
1.4431 11.2174 -0.5922 0.258 -0.895 -0.364 197 194 195 0 0
1.4692 11.2280 -0.5934 0.351 -0.915 -0.200 215 215 217 0 0
1.4928 11.2341 -0.5945 -0.249 -0.923 -0.294 223 224 224 0 0
1.6294 11.2940 -0.6007 0.481 -0.856 -0.187 224 177 187 0 0
1.6599 11.3108 -0.6021 0.464 -0.870 -0.166 218 156 171 0 0
1.7136 11.3650 -0.6048 -0.355 -0.900 -0.254 211 140 157 0 0
1.7329 11.3634 -0.6056 -0.299 -0.931 -0.210 214 141 158 0 0
1.7598 11.3739 -0.6068 0.323 -0.930 -0.178 232 170 185 0 0
1.7869 11.3846 -0.6080 0.375 -0.917 -0.139 249 213 224 0 0
1.8129 11.3935 -0.6092 0.323 -0.926 -0.197 247 233 237 0 0
1.8398 11.4037 -0.6104 0.355 -0.907 -0.225 232 227 225 0 0
0.0967 8.2999 -0.5162 -0.922 0.061 -0.383 81 83 100 0 0
0.0263 8.0134 -0.5113 -0.251 -0.333 0.909 76 76 82 0 0
0.0558 8.0370 -0.5128 0.647 -0.755 0.108 85 84 87 0 0
0.0854 8.0607 -0.5142 0.699 -0.712 0.069 87 84 86 0 0
0.1186 8.0895 -0.5158 0.639 -0.737 0.220 84 80 81 0 0
0.1466 8.1104 -0.5171 0.588 -0.747 0.311 80 76 77 0 0
0.1756 8.1326 -0.5185 0.588 -0.747 0.311 78 74 75 0 0
0.2494 8.1795 -0.5220 0.602 -0.587 0.542 99 87 91 0 0
0.1833 8.0086 -0.5180 0.152 -0.435 0.887 104 86 90 0 0
0.2204 8.0418 -0.5198 0.624 -0.644 0.443 102 88 91 0 0
0.2362 8.0450 -0.5205 -0.021 -0.185 0.982 99 89 89 0 0
0.3300 8.1188 -0.5250 -0.962 0.076 0.264 98 90 88 0 0
0.3269 8.0577 -0.5245 -0.968 0.103 -0.231 90 80 82 0 0
0.3191 8.0283 -0.5240 -0.974 0.147 -0.170 78 68 72 0 0
0.3174 8.0074 -0.5238 -0.992 0.126 -0.029 68 59 63 0 0
0.3457 7.9361 -0.5246 0.034 -0.254 0.967 123 114 117 0 0
0.3948 7.9475 -0.5267 0.403 -0.472 0.784 130 124 126 0 0
0.4622 7.9117 -0.5294 -0.668 -0.370 0.646 197 192 191 0 0
0.4734 7.9086 -0.5299 -0.333 -0.379 0.864 200 196 195 0 0
0.5137 7.9083 -0.5316 0.177 -0.666 0.725 192 184 183 0 0
0.5294 7.9109 -0.5323 0.219 -0.749 0.625 193 184 185 0 0
0.5488 7.9184 -0.5332 0.272 -0.628 0.730 195 189 189 0 0
0.5824 7.9437 -0.5348 0.411 -0.588 0.697 200 196 194 0 0
0.6071 7.9577 -0.5359 0.400 -0.537 0.743 203 199 195 0 0
0.6497 7.9594 -0.5378 0.039 -0.369 0.929 212 204 202 0 0
0.7217 7.9802 -0.5410 0.064 -0.568 0.821 228 216 216 0 0
0.4829 7.4774 -0.5276 -0.961 -0.222 0.166 181 144 126 0 0
0.5873 7.5399 -0.5324 0.492 -0.628 -0.603 182 145 129 0 0
0.6627 7.6135 -0.5361 0.659 -0.745 -0.099 181 148 131 0 0
0.7392 7.6878 -0.5399 0.612 -0.787 -0.081 182 147 128 0 0
0.7324 7.5714 -0.5389 0.305 -0.655 -0.691 210 193 180 0 0
0.7669 7.5958 -0.5405 0.269 -0.575 -0.773 209 194 181 0 0
0.7738 7.5885 -0.5407 0.512 -0.696 -0.503 209 197 185 0 0
0.7968 7.5843 -0.5417 -0.024 -0.530 -0.847 207 197 188 0 0
0.8173 7.4733 -0.5419 0.153 -0.257 -0.954 189 150 137 0 0
0.8469 7.4769 -0.5432 -0.792 -0.458 -0.404 185 152 132 0 0
-6.6682 11.8148 -0.2637 0.647 -0.285 -0.708 130 82 56 0 0
-5.4118 9.3183 -0.2981 -0.855 -0.495 0.157 137 90 61 0 0
-5.2516 11.1944 -0.3200 -0.970 -0.211 -0.119 96 80 71 0 0
-5.2200 11.0698 -0.3204 -0.921 -0.304 -0.245 49 43 37 0 0
-3.0507 7.9754 -0.3896 -0.100 -0.278 -0.955 33 37 48 0 0
-3.0341 8.0129 -0.3906 -0.840 -0.528 -0.123 34 37 46 0 0
-3.0150 7.9996 -0.3913 0.633 -0.686 -0.359 41 38 49 0 0
-2.5771 8.2602 -0.4124 0.335 -0.657 -0.675 170 164 166 0 0
-2.0098 10.3370 -0.4536 -0.549 -0.299 -0.780 171 169 172 0 0
-2.4934 7.9562 -0.4136 0.779 -0.624 -0.066 152 127 131 0 0
-2.1226 9.1493 -0.4392 -0.992 -0.085 -0.098 139 78 86 0 0
-1.9777 8.4965 -0.4402 0.903 -0.326 -0.280 152 97 103 0 0
-1.7328 8.6668 -0.4522 0.209 -0.712 0.670 131 139 116 0 0
-1.7245 8.6534 -0.4524 0.224 -0.660 0.717 133 143 118 0 0
-1.6797 8.5277 -0.4534 0.872 -0.480 -0.091 186 172 133 0 0
-1.4844 8.8486 -0.4644 0.876 -0.385 0.290 174 156 142 0 0
-1.3451 9.1482 -0.4728 0.838 -0.374 0.397 180 163 155 0 0
-1.2584 9.3029 -0.4778 0.688 -0.725 -0.038 185 174 172 0 0
-1.2679 9.0944 -0.4757 0.157 -0.983 0.100 192 186 190 0 0
-1.2394 9.0257 -0.4764 -0.081 -0.901 -0.427 197 187 186 0 0
-1.2239 9.0295 -0.4771 0.087 -0.986 -0.141 195 184 182 0 0
-1.1136 9.1987 -0.4833 0.878 -0.407 0.251 186 181 185 0 0
-0.9995 9.4435 -0.4902 0.909 -0.411 0.075 188 187 195 0 0
-0.5343 9.8876 -0.5139 0.499 -0.690 0.525 226 226 236 0 0
1.4197 11.2133 -0.6091 0.403 -0.877 -0.261 192 181 184 0 0
1.4949 11.2393 -0.6126 -0.249 -0.923 -0.294 226 224 227 0 0
1.5251 11.2564 -0.6140 0.653 -0.734 -0.185 230 227 228 0 0
1.5607 11.2820 -0.6157 0.357 -0.928 -0.104 231 221 221 0 0
1.6312 11.2987 -0.6189 0.464 -0.870 -0.166 212 135 149 0 0
1.6614 11.3151 -0.6204 0.464 -0.870 -0.166 213 119 138 0 0
1.7153 11.3696 -0.6231 -0.355 -0.900 -0.254 217 119 140 0 0
1.7347 11.3681 -0.6240 -0.183 -0.959 -0.217 220 130 148 0 0
1.7883 11.3886 -0.6265 0.323 -0.926 -0.197 249 212 221 0 0
1.8147 11.3980 -0.6277 0.323 -0.926 -0.197 249 234 238 0 0
1.8410 11.4074 -0.6289 0.400 -0.892 -0.210 229 219 220 0 0
0.0285 8.0373 -0.5234 -0.980 0.027 -0.200 71 64 75 0 0
0.0183 8.0027 -0.5227 -0.659 -0.253 -0.708 81 74 83 0 0
0.0668 8.0347 -0.5251 -0.766 -0.465 0.444 90 84 89 0 0
0.1480 8.1134 -0.5292 0.646 -0.711 0.279 80 76 79 0 0
0.2372 8.1829 -0.5336 0.077 -0.545 0.835 85 79 82 0 0
0.2423 8.0357 -0.5327 -0.217 -0.205 0.954 97 86 86 0 0
0.2590 8.0401 -0.5334 -0.074 -0.402 0.912 96 87 87 0 0
0.2491 8.0075 -0.5327 0.076 -0.328 0.941 96 87 87 0 0
0.3256 8.0947 -0.5367 -0.944 0.083 0.319 97 89 89 0 0
0.3347 8.0884 -0.5371 -0.988 0.091 -0.125 99 90 91 0 0
0.3372 8.0730 -0.5371 -0.897 0.084 -0.434 95 85 87 0 0
0.3260 8.0389 -0.5363 -0.959 0.138 -0.246 84 75 78 0 0
0.3175 8.0086 -0.5357 -0.992 0.124 -0.027 70 61 65 0 0
0.3134 7.9846 -0.5353 -0.952 0.099 0.289 60 51 56 0 0
0.3856 7.9185 -0.5379 0.411 -0.475 0.778 130 125 125 0 0
0.4594 7.9267 -0.5412 -0.763 -0.225 0.606 163 155 154 0 0
0.4683 7.9031 -0.5414 -0.232 -0.396 0.889 199 195 194 0 0
0.4915 7.8807 -0.5422 -0.168 -0.383 0.908 183 175 173 0 0
0.5343 7.8835 -0.5441 0.083 -0.529 0.845 191 188 186 0 0
0.5611 7.9004 -0.5454 0.111 -0.432 0.895 200 199 196 0 0
0.6553 7.8818 -0.5493 0.323 -0.443 0.836 227 217 216 0 0
0.7053 7.9266 -0.5518 0.270 -0.462 0.844 230 221 221 0 0
0.7636 7.9644 -0.5547 -0.993 0.097 -0.061 241 231 229 0 0
0.7470 7.9270 -0.5536 -0.991 0.102 -0.086 236 224 219 0 0
0.7256 7.8840 -0.5524 -0.985 0.062 0.163 220 204 196 0 0
0.6060 7.5631 -0.5446 0.506 -0.616 -0.603 181 145 129 0 0
0.6976 7.6556 -0.5493 0.619 -0.774 -0.134 182 146 130 0 0
0.7411 7.6911 -0.5515 0.581 -0.804 -0.129 183 146 130 0 0
-7.2647 13.5355 -0.2700 0.262 -0.520 -0.813 124 81 57 0 0
-7.2320 13.4798 -0.2709 0.063 -0.439 -0.896 127 82 58 0 0
-5.4127 9.3214 -0.3099 -0.847 -0.526 -0.074 136 89 61 0 0
-5.2323 10.4079 -0.3284 -0.305 -0.549 -0.778 139 92 63 0 0
-5.2561 11.2235 -0.3353 -0.970 -0.211 -0.119 97 80 71 0 0
-5.2235 11.0926 -0.3355 -0.921 -0.304 -0.245 51 45 41 0 0
-5.1997 11.0226 -0.3358 -0.903 -0.329 -0.275 31 30 28 0 0
-3.0598 7.9878 -0.3998 -0.108 -0.793 -0.600 31 35 47 0 0
-3.0348 8.0115 -0.4011 -0.500 -0.694 -0.518 34 37 46 0 0
-3.0161 7.9951 -0.4018 0.660 -0.624 -0.418 42 39 48 0 0
-2.9417 8.0548 -0.4056 -1.000 -0.004 0.014 213 209 206 0 0
