ply
format ascii 1.0
element vertex 834
property float x
property float y
property float z
property float nx
property float ny
property float nz
property uchar diffuse_red
property uchar diffuse_green
property uchar diffuse_blue
property uchar class
property uchar detection
end_header
6.6129 7.4651 -0.1099 0.375 -0.866 -0.331 32 45 54 0 0
6.7319 7.5140 -0.1105 0.629 -0.593 -0.502 26 34 45 0 0
6.7561 7.5430 -0.1110 -0.421 -0.793 -0.441 21 29 40 0 0
6.7740 7.5409 -0.1109 -0.719 -0.694 0.049 14 22 33 0 0
6.8113 7.5440 -0.1109 0.853 -0.352 -0.386 19 28 37 0 0
6.8317 7.5541 -0.1110 0.848 -0.492 0.197 24 33 42 0 0
6.8676 7.4650 -0.1094 -0.518 -0.673 -0.528 29 38 47 0 0
6.9649 7.4121 -0.1082 0.860 -0.367 -0.354 33 43 53 0 0
7.0016 7.4941 -0.1096 0.767 -0.367 -0.527 32 42 54 0 0
7.1398 7.4618 -0.1088 0.494 -0.798 -0.347 21 27 39 0 0
7.2077 7.4420 -0.1083 -0.473 -0.423 -0.773 20 26 38 0 0
7.2908 7.2735 -0.1051 0.551 -0.355 0.755 25 32 44 0 0
7.3240 7.3319 -0.1061 0.594 -0.319 0.739 25 33 46 0 0
7.3477 7.3535 -0.1064 0.565 -0.280 0.776 28 38 50 0 0
7.3669 7.3579 -0.1065 -0.789 -0.290 0.541 33 43 55 0 0
7.3833 7.3520 -0.1063 -0.946 -0.273 -0.174 37 47 59 0 0
7.3922 7.3183 -0.1057 -0.893 -0.326 0.310 36 48 60 0 0
7.4206 7.2908 -0.1052 -0.451 -0.454 0.768 48 60 72 0 0
7.4222 7.2318 -0.1041 -0.114 -0.182 0.977 55 67 79 0 0
8.0660 7.2937 -0.1040 -0.276 -0.154 -0.949 95 102 108 0 0
8.0684 7.2481 -0.1031 -0.256 -0.142 -0.956 113 120 126 0 0
8.2326 7.0140 -0.0986 -0.788 -0.554 0.267 225 240 245 0 0
8.3019 7.1553 -0.1010 -0.776 -0.393 0.493 225 240 246 0 0
-1.7322 8.9350 -0.1731 0.828 -0.513 -0.227 80 62 42 0 0
-1.8122 9.1958 -0.1784 0.980 -0.198 0.009 46 35 22 0 0
-1.6256 10.1523 -0.1969 -0.731 -0.671 -0.120 68 58 56 0 0
-1.5760 10.0974 -0.1957 -0.813 -0.533 -0.235 71 61 59 0 0
-1.5549 10.2425 -0.1986 -0.224 -0.935 0.275 85 75 73 0 0
-1.5238 10.2737 -0.1991 -0.490 -0.867 -0.090 101 90 88 0 0
-1.2427 10.1137 -0.1954 -0.487 -0.874 -0.010 120 111 114 0 0
-1.1809 10.0782 -0.1946 -0.608 -0.743 -0.279 124 114 118 0 0
-0.7304 9.1857 -0.1761 -0.872 -0.460 -0.166 126 115 119 0 0
-0.6374 9.5566 -0.1833 -0.300 -0.891 0.340 132 120 124 0 0
-0.4739 9.5302 -0.1824 -0.072 -0.973 0.221 139 130 132 0 0
-0.8610 11.0928 -0.2140 0.787 -0.580 0.208 68 64 62 0 0
-0.8333 11.0848 -0.2138 0.718 -0.692 -0.083 51 47 46 0 0
-0.8082 11.0831 -0.2137 0.821 -0.450 -0.351 35 32 31 0 0
-0.7351 11.1468 -0.2148 0.682 -0.216 0.699 37 32 34 0 0
0.4157 10.2654 -0.1952 -0.774 -0.607 -0.180 129 110 104 0 0
0.8250 10.4429 -0.1979 0.302 -0.953 -0.001 197 158 154 0 0
0.8973 10.6844 -0.2025 0.851 -0.404 -0.337 109 100 94 0 0
0.9804 10.7287 -0.2032 -0.601 -0.623 -0.501 28 18 17 0 0
1.2694 11.3101 -0.2141 0.520 -0.850 -0.088 23 15 13 0 0
1.3051 11.3696 -0.2152 -0.067 -0.963 -0.259 29 18 15 0 0
1.3139 11.4380 -0.2166 -0.553 -0.782 -0.289 39 24 19 0 0
1.8750 11.2754 -0.2123 0.204 -0.890 -0.407 172 158 157 0 0
1.9972 11.4185 -0.2149 0.016 -0.896 -0.444 74 60 60 0 0
2.0160 11.4522 -0.2155 0.554 -0.752 -0.358 95 81 80 0 0
2.3992 11.7405 -0.2204 0.341 -0.913 -0.225 73 92 109 0 0
2.9944 12.4039 -0.2323 -0.316 -0.947 -0.064 153 16 36 0 0
3.0216 12.4011 -0.2322 -0.157 -0.988 -0.002 151 12 31 0 0
3.7440 12.9280 -0.2412 -0.802 -0.561 0.202 171 154 147 0 0
3.7705 12.9509 -0.2416 0.337 -0.876 0.345 172 155 148 0 0
3.7991 12.9393 -0.2413 0.467 -0.862 -0.199 171 154 147 0 0
3.9322 13.0731 -0.2437 -0.034 -0.999 0.014 165 146 139 0 0
4.4075 13.2488 -0.2463 -0.458 -0.845 -0.276 105 85 84 0 0
4.4362 13.2340 -0.2459 -0.125 -0.938 -0.324 110 92 92 0 0
4.7489 13.2337 -0.2453 0.947 -0.232 -0.222 185 173 177 0 0
4.7781 13.3551 -0.2476 0.954 -0.220 -0.206 156 144 146 0 0
5.0695 9.8396 -0.1778 -0.936 -0.341 -0.092 6 7 12 0 0
5.0900 9.7829 -0.1766 -0.936 -0.341 -0.092 0 6 17 0 0
5.2239 9.7869 -0.1765 0.187 -0.761 0.621 53 143 193 0 0
5.7197 10.1252 -0.1822 0.443 -0.424 -0.790 52 153 209 0 0
6.1042 11.9602 -0.2176 0.515 -0.585 0.627 56 152 210 0 0
6.1383 12.0396 -0.2191 0.371 -0.425 0.826 55 154 211 0 0
6.3144 7.6479 -0.1322 0.019 -0.985 -0.171 39 28 32 0 0
6.3282 7.6187 -0.1316 0.539 -0.691 -0.482 35 24 28 0 0
6.5506 7.4234 -0.1273 0.131 -0.986 0.101 53 66 78 0 0
6.9733 7.4498 -0.1270 0.867 -0.357 -0.348 19 29 39 0 0
7.0086 7.5250 -0.1284 0.842 -0.387 -0.376 21 31 41 0 0
7.0458 7.6076 -0.1300 0.842 -0.387 -0.376 21 31 41 0 0
7.0796 7.6740 -0.1312 0.790 -0.319 -0.523 18 30 42 0 0
7.1420 7.4711 -0.1271 0.494 -0.798 -0.347 26 32 44 0 0
7.1649 7.4902 -0.1274 -0.026 -0.296 -0.955 22 28 40 0 0
7.1817 7.4845 -0.1273 -0.214 -0.430 -0.877 25 31 43 0 0
7.2176 7.4821 -0.1272 -0.026 -0.729 -0.684 19 25 37 0 0
7.3043 7.2573 -0.1226 0.551 -0.355 0.755 18 26 37 0 0
7.3532 7.3747 -0.1248 -0.853 -0.240 0.463 19 27 38 0 0
7.3830 7.3513 -0.1243 -0.955 -0.293 -0.034 20 29 40 0 0
7.4967 7.3714 -0.1245 -0.160 -0.219 -0.963 29 38 53 0 0
7.5132 7.1773 -0.1206 0.477 -0.373 0.796 34 41 59 0 0
7.5332 7.1853 -0.1207 0.177 -0.252 0.952 44 51 69 0 0
7.5480 7.1753 -0.1205 0.076 -0.226 0.971 51 58 76 0 0
7.9162 7.2190 -0.1206 0.094 -0.131 0.987 38 43 55 0 0
8.3415 7.2152 -0.1197 0.474 -0.555 -0.684 206 219 223 0 0
-1.8081 9.1889 -0.1994 0.979 -0.196 0.051 63 51 36 0 0
-1.4473 8.7120 -0.1885 -0.691 -0.481 -0.539 84 76 74 0 0
-0.7272 9.1793 -0.1971 -0.831 -0.447 -0.330 126 115 119 0 0
-0.9864 9.8486 -0.2120 -0.835 -0.549 -0.027 129 119 121 0 0
-1.0352 10.0071 -0.2155 -0.842 -0.483 0.240 131 121 122 0 0
-0.4743 9.5319 -0.2042 -0.137 -0.990 0.042 136 127 129 0 0
-0.4471 9.5188 -0.2039 -0.607 -0.795 0.008 126 117 116 0 0
-0.8336 11.0862 -0.2383 0.838 -0.492 -0.236 51 47 46 0 0
-0.0029 10.4054 -0.2221 0.912 -0.336 0.236 128 110 106 0 0
0.0987 10.3815 -0.2214 -0.685 -0.684 0.249 125 110 103 0 0
0.3302 10.3849 -0.2210 -0.758 -0.623 -0.193 128 111 103 0 0
0.3722 10.3280 -0.2197 -0.774 -0.607 -0.180 128 110 103 0 0
0.4122 10.2767 -0.2185 -0.774 -0.607 -0.180 128 109 103 0 0
0.6149 10.2193 -0.2169 -0.049 -0.934 -0.353 191 173 163 0 0
0.7096 10.3616 -0.2198 0.684 -0.701 -0.202 189 140 138 0 0
0.7282 10.3770 -0.2201 0.617 -0.770 -0.161 203 150 150 0 0
0.9118 10.7183 -0.2270 0.327 -0.803 -0.497 45 31 29 0 0
0.9351 10.8067 -0.2289 0.216 -0.724 -0.655 27 17 18 0 0
0.9579 10.8114 -0.2290 -0.219 -0.812 -0.541 27 17 16 0 0
1.2181 11.3170 -0.2393 0.049 -0.995 -0.088 32 22 21 0 0
1.2653 11.3279 -0.2395 0.641 -0.661 -0.390 24 16 14 0 0
1.3114 11.4491 -0.2420 -0.553 -0.782 -0.289 40 25 20 0 0
1.6791 11.0333 -0.2323 -0.762 -0.631 -0.146 159 146 140 0 0
2.0123 11.4731 -0.2411 0.652 -0.666 -0.363 85 71 71 0 0
2.9943 12.4060 -0.2593 -0.352 -0.935 0.033 145 20 34 0 0
3.0224 12.3955 -0.2590 -0.352 -0.935 0.033 142 17 31 0 0
3.6856 12.9712 -0.2701 -0.495 -0.869 -0.018 171 152 145 0 0
3.8528 12.9795 -0.2700 0.338 -0.858 -0.386 173 154 148 0 0
3.9012 13.1348 -0.2732 -0.131 -0.982 0.133 169 149 142 0 0
3.9296 13.1311 -0.2731 -0.131 -0.982 0.133 165 142 136 0 0
4.4056 13.3652 -0.2772 -0.863 -0.417 -0.284 105 85 84 0 0
4.4642 13.2699 -0.2750 -0.868 -0.399 -0.296 117 97 98 0 0
4.7783 13.3835 -0.2769 0.954 -0.220 -0.206 156 141 144 0 0
5.0697 9.8451 -0.2003 -0.936 -0.341 -0.092 6 7 12 0 0
5.0902 9.7883 -0.1990 -0.936 -0.341 -0.092 0 6 17 0 0
5.2234 9.7754 -0.1985 0.139 -0.890 0.434 53 143 193 0 0
6.1119 12.0392 -0.2454 -0.025 -0.243 0.970 57 153 211 0 0
6.3119 7.6321 -0.1503 0.203 -0.859 -0.471 19 0 0 0 0
6.3306 7.6336 -0.1503 0.539 -0.691 -0.482 21 0 3 0 0
6.5184 7.4456 -0.1459 -0.754 -0.482 0.446 5 22 32 0 0
6.5343 7.4335 -0.1456 -0.676 -0.616 0.403 30 47 57 0 0
6.5873 7.5233 -0.1475 0.030 -0.999 -0.015 83 100 108 0 0
6.6054 7.5221 -0.1474 0.457 -0.845 0.277 100 115 124 0 0
6.6408 7.5158 -0.1472 0.456 -0.658 0.599 103 113 122 0 0
7.2000 7.4850 -0.1455 0.207 -0.335 0.919 30 37 47 0 0
7.2460 7.5233 -0.1462 0.855 -0.491 0.166 28 35 45 0 0
7.2645 7.4517 -0.1446 -0.287 -0.382 0.879 19 26 36 0 0
7.3310 7.4279 -0.1440 0.618 -0.706 -0.347 19 28 37 0 0
7.3643 7.4857 -0.1452 0.652 -0.688 -0.317 20 29 38 0 0
7.3945 7.4623 -0.1446 -0.150 -0.949 -0.279 19 28 37 0 0
7.4125 7.4615 -0.1446 -0.045 -0.961 -0.271 19 28 37 0 0
7.4310 7.4623 -0.1445 0.023 -0.984 -0.179 19 27 38 0 0
7.4500 7.4654 -0.1446 0.316 -0.901 -0.296 19 27 38 0 0
7.4609 7.4387 -0.1440 -0.737 -0.413 -0.535 19 29 39 0 0
7.4710 7.4095 -0.1433 -0.721 -0.549 -0.424 19 29 39 0 0
7.4861 7.3986 -0.1431 -0.756 -0.443 -0.483 22 32 44 0 0
7.5169 7.3158 -0.1412 -0.930 -0.174 -0.325 21 28 44 0 0
7.5239 7.2771 -0.1404 -0.930 -0.174 -0.325 25 32 48 0 0
7.5351 7.2540 -0.1399 -0.915 -0.195 -0.353 27 34 50 0 0
7.5709 7.1933 -0.1385 0.357 -0.360 -0.862 25 31 49 0 0
7.5950 7.2149 -0.1389 0.338 -0.378 -0.862 24 29 48 0 0
7.6195 7.2379 -0.1393 0.338 -0.378 -0.862 25 31 50 0 0
7.6387 7.2424 -0.1394 0.473 -0.303 -0.827 28 33 52 0 0
7.6670 7.2777 -0.1401 0.339 -0.284 -0.897 27 34 52 0 0
7.6934 7.3060 -0.1407 0.282 -0.300 -0.911 28 36 54 0 0
7.6973 7.2596 -0.1397 -0.134 -0.643 -0.754 33 40 59 0 0
7.9088 7.2514 -0.1391 -0.392 -0.122 0.912 70 80 95 0 0
-1.5364 10.0639 -0.2404 -0.824 -0.518 -0.232 73 63 61 0 0
-1.0048 9.9902 -0.2377 -0.725 -0.419 0.547 134 124 127 0 0
-0.6625 9.3681 -0.2225 -0.809 -0.559 0.185 135 126 129 0 0
-1.0019 11.1993 -0.2658 0.697 -0.433 -0.572 124 111 103 0 0
-0.9660 11.2328 -0.2665 0.681 -0.330 -0.653 97 88 84 0 0
-0.9167 11.1718 -0.2650 0.583 -0.536 -0.611 87 81 78 0 0
0.3276 10.3935 -0.2445 -0.754 -0.632 -0.177 128 111 103 0 0
0.3687 10.3394 -0.2432 -0.774 -0.607 -0.180 128 110 103 0 0
0.4087 10.2881 -0.2419 -0.774 -0.607 -0.180 129 110 103 0 0
0.4478 10.2391 -0.2407 -0.878 -0.475 -0.063 128 109 102 0 0
0.6123 10.2282 -0.2401 -0.049 -0.934 -0.353 192 174 164 0 0
0.9099 10.7261 -0.2511 0.581 -0.696 -0.421 47 32 30 0 0
0.9075 10.8205 -0.2533 0.216 -0.724 -0.655 29 17 17 0 0
0.9297 10.8273 -0.2534 0.216 -0.724 -0.655 28 18 19 0 0
0.9533 10.8290 -0.2534 -0.219 -0.812 -0.541 28 18 17 0 0
1.0353 10.9733 -0.2566 -0.452 -0.832 -0.321 45 28 28 0 0
1.6776 11.0408 -0.2570 -0.762 -0.631 -0.146 158 145 139 0 0
1.9914 11.4510 -0.2659 0.318 -0.831 -0.456 50 38 40 0 0
2.0102 11.4850 -0.2667 0.652 -0.666 -0.363 74 62 61 0 0
2.9663 12.4169 -0.2865 -0.316 -0.947 -0.064 122 31 40 0 0
2.9943 12.4076 -0.2862 -0.316 -0.947 -0.064 136 35 43 0 0
3.6577 12.9731 -0.2981 -0.172 -0.966 -0.192 165 146 139 0 0
3.6853 12.9786 -0.2982 -0.499 -0.862 -0.090 170 151 144 0 0
3.7371 13.0468 -0.2997 -0.359 -0.924 0.135 172 155 148 0 0
3.7707 12.9518 -0.2974 0.522 -0.830 0.196 172 155 148 0 0
4.4077 13.2455 -0.3030 -0.265 -0.866 -0.424 104 84 83 0 0
4.4363 13.2366 -0.3028 -0.265 -0.866 -0.424 111 91 92 0 0
4.4649 13.2197 -0.3023 -0.698 -0.596 -0.397 117 97 98 0 0
4.5780 13.3007 -0.3040 -0.939 -0.213 -0.269 124 104 106 0 0
4.6360 12.9761 -0.2963 0.824 -0.567 0.005 125 106 108 0 0
4.7494 13.3254 -0.3042 0.916 -0.318 -0.245 181 169 173 0 0
5.0904 9.7938 -0.2214 -0.936 -0.341 -0.092 0 7 17 0 0
5.1992 9.7285 -0.2197 -0.263 -0.931 -0.253 60 143 193 0 0
6.4116 7.6761 -0.1696 0.472 -0.874 -0.118 46 11 15 0 0
6.4320 7.6872 -0.1698 0.472 -0.874 -0.118 39 17 20 0 0
6.4525 7.6987 -0.1701 0.493 -0.848 -0.192 27 28 30 0 0
6.4732 7.7108 -0.1703 0.493 -0.848 -0.192 18 29 33 0 0
6.5643 7.5979 -0.1675 -0.923 -0.378 -0.070 21 39 49 0 0
6.5796 7.5808 -0.1671 -0.894 -0.444 0.062 37 56 64 0 0
6.7046 7.6559 -0.1686 0.753 -0.596 0.278 72 81 90 0 0
6.7365 7.7235 -0.1701 0.804 -0.583 0.119 64 73 82 0 0
6.7682 7.7894 -0.1716 0.798 -0.330 -0.504 50 57 67 0 0
7.5155 7.5051 -0.1635 0.597 -0.800 -0.069 15 25 36 0 0
7.5771 7.6601 -0.1670 0.612 -0.559 -0.559 16 26 38 0 0
7.7361 7.3287 -0.1590 0.373 -0.305 -0.876 24 29 48 0 0
7.7655 7.3663 -0.1598 0.356 -0.298 -0.886 26 32 48 0 0
7.7933 7.3979 -0.1605 0.231 -0.283 -0.931 26 32 48 0 0
7.8003 7.3620 -0.1596 0.127 -0.329 -0.936 25 31 47 0 0
7.8168 7.3571 -0.1595 -0.307 -0.336 -0.890 26 32 48 0 0
7.8268 7.3315 -0.1589 -0.736 -0.193 -0.649 29 35 51 0 0
8.2207 7.4300 -0.1604 -0.789 -0.432 -0.437 34 38 48 0 0
-1.3427 8.5928 -0.2259 -0.739 -0.479 -0.473 83 74 72 0 0
-1.2237 10.1239 -0.2640 -0.740 -0.582 -0.338 121 112 115 0 0
-1.2382 10.2054 -0.2661 -0.808 -0.513 -0.289 123 113 117 0 0
-0.5245 9.5491 -0.2483 0.314 -0.935 0.168 145 134 136 0 0
-0.4980 9.5379 -0.2480 0.056 -0.967 0.248 139 129 131 0 0
-0.4724 9.5287 -0.2477 -0.399 -0.883 0.246 131 122 124 0 0
-0.7454 11.1127 -0.2879 0.224 -0.252 0.941 33 28 25 0 0
0.3244 10.4039 -0.2681 -0.754 -0.632 -0.177 128 111 103 0 0
0.4014 10.3110 -0.2656 -0.802 -0.584 -0.126 129 110 104 0 0
0.9222 10.8549 -0.2782 0.274 -0.777 -0.567 27 18 19 0 0
0.9488 10.8462 -0.2780 -0.159 -0.832 -0.532 28 20 18 0 0
1.3264 11.3880 -0.2908 -0.787 -0.576 -0.220 41 26 21 0 0
1.7653 10.9744 -0.2796 -0.657 -0.652 -0.379 160 149 145 0 0
1.8612 11.3472 -0.2888 -0.731 -0.665 -0.153 169 155 154 0 0
2.9550 12.5182 -0.3160 -0.387 -0.917 -0.101 152 81 85 0 0
3.6575 12.9769 -0.3262 -0.234 -0.950 -0.208 166 147 140 0 0
3.7091 13.0482 -0.3278 -0.954 -0.297 -0.032 173 154 147 0 0
3.7373 13.0451 -0.3277 -0.428 -0.903 0.036 174 155 148 0 0
3.8495 13.0478 -0.3276 0.416 -0.851 0.321 175 154 149 0 0
4.0922 13.3218 -0.3340 0.440 -0.830 -0.342 106 79 72 0 0
4.1981 13.6057 -0.3409 -0.254 -0.942 -0.220 51 31 30 0 0
4.4359 13.2677 -0.3319 -0.285 -0.859 -0.426 108 88 89 0 0
4.7496 13.3586 -0.3336 0.899 -0.328 -0.292 183 168 173 0 0
4.9874 10.1469 -0.2527 -0.556 -0.317 0.768 7 6 11 0 0
5.0904 9.7930 -0.2437 -0.919 -0.381 -0.100 0 7 17 0 0
5.2375 9.1284 -0.2268 0.356 -0.307 -0.883 51 146 194 0 0
5.5173 10.5457 -0.2617 0.697 -0.412 -0.587 55 152 207 0 0
5.9876 7.6986 -0.1895 0.620 -0.785 0.017 148 134 125 0 0
6.0520 7.7644 -0.1910 0.172 -0.978 0.117 156 137 130 0 0
6.0648 7.7203 -0.1899 0.282 -0.836 0.470 155 136 129 0 0
6.3734 7.6700 -0.1881 0.226 -0.950 -0.215 158 92 93 0 0
6.4324 7.6897 -0.1884 0.328 -0.922 -0.203 62 18 19 0 0
6.5230 7.6768 -0.1879 -0.953 -0.273 -0.130 22 30 41 0 0
6.5519 7.6312 -0.1868 -0.947 -0.311 -0.081 16 30 39 0 0
6.5648 7.6010 -0.1860 -0.927 -0.355 -0.126 32 48 56 0 0
6.5777 7.5706 -0.1852 -0.753 -0.582 -0.307 23 40 48 0 0
6.7086 7.6764 -0.1876 0.750 -0.547 0.372 31 42 48 0 0
6.7336 7.7093 -0.1884 0.819 -0.491 0.297 35 46 52 0 0
6.7613 7.7548 -0.1894 0.819 -0.491 0.297 26 37 43 0 0
7.4592 7.3673 -0.1784 0.238 -0.835 0.497 16 25 34 0 0
7.7212 7.3392 -0.1772 0.181 -0.271 0.945 23 31 44 0 0
7.8298 7.4577 -0.1800 -0.738 -0.580 -0.345 23 31 44 0 0
7.8427 7.4407 -0.1795 -0.753 -0.556 -0.352 25 33 46 0 0
7.8570 7.2574 -0.1749 -0.521 -0.427 -0.739 24 32 45 0 0
7.8700 7.2423 -0.1745 -0.493 -0.499 -0.712 26 35 50 0 0
7.8987 7.2760 -0.1753 -0.102 -0.375 -0.921 26 35 50 0 0
7.8831 7.1729 -0.1727 -0.887 -0.176 -0.428 31 40 56 0 0
7.8950 7.1551 -0.1723 -0.872 -0.195 -0.449 33 42 59 0 0
7.9079 7.1403 -0.1719 -0.959 -0.260 -0.113 35 45 61 0 0
7.8730 6.9809 -0.1679 0.842 -0.523 0.134 38 47 64 0 0
7.9110 7.0434 -0.1694 0.829 -0.507 0.236 39 48 65 0 0
8.1260 7.4188 -0.1784 0.796 -0.513 -0.323 54 61 75 0 0
8.1872 7.4914 -0.1801 0.616 -0.782 0.089 46 50 63 0 0
8.2043 7.4354 -0.1787 -0.926 -0.172 -0.337 36 40 51 0 0
8.2104 7.4009 -0.1778 -0.926 -0.172 -0.337 35 39 50 0 0
8.4072 7.3456 -0.1761 0.566 -0.761 0.319 43 47 59 0 0
8.4315 7.3625 -0.1764 0.725 -0.680 -0.108 45 51 62 0 0
-1.8092 9.2317 -0.2640 0.395 -0.743 0.541 78 65 49 0 0
-1.4700 9.9750 -0.2833 -0.548 -0.831 0.091 73 63 61 0 0
-1.4848 10.2914 -0.2918 -0.772 -0.633 -0.060 100 90 89 0 0
-0.8874 9.5342 -0.2704 -0.838 -0.460 -0.294 126 114 118 0 0
-0.8084 9.4076 -0.2668 -0.515 -0.850 -0.107 128 116 120 0 0
-1.0099 9.9528 -0.2818 -0.868 -0.480 0.126 134 122 124 0 0
-0.5228 9.5457 -0.2700 0.330 -0.920 0.210 144 133 135 0 0
-0.4954 9.5325 -0.2696 0.056 -0.967 0.248 139 128 131 0 0
-0.4736 9.5323 -0.2695 -0.576 -0.775 0.258 131 120 123 0 0
-0.7784 11.3896 -0.3199 0.489 -0.680 0.547 117 98 93 0 0
-0.7590 11.4041 -0.3203 0.527 -0.685 0.502 140 119 113 0 0
0.2738 10.4164 -0.2918 0.945 -0.196 0.260 127 111 100 0 0
0.4470 10.2430 -0.2868 -0.844 -0.516 -0.143 128 109 101 0 0
0.8941 10.8702 -0.3028 0.696 -0.578 -0.426 26 18 16 0 0
0.9121 10.8924 -0.3034 0.696 -0.578 -0.426 27 18 19 0 0
0.9316 10.9094 -0.3038 0.582 -0.684 -0.440 28 20 18 0 0
1.8157 11.3258 -0.3133 -0.757 -0.477 -0.447 167 151 151 0 0
1.9638 11.4655 -0.3168 0.400 -0.834 -0.380 47 41 41 0 0
2.0061 11.5088 -0.3178 0.652 -0.666 -0.363 65 54 55 0 0
2.9569 12.5022 -0.3427 -0.421 -0.889 -0.179 158 98 100 0 0
3.7361 13.0668 -0.3563 -0.658 -0.743 -0.122 175 156 149 0 0
4.0919 13.3336 -0.3628 0.440 -0.830 -0.342 107 80 73 0 0
4.5494 13.3275 -0.3618 -0.152 -0.891 -0.428 123 103 105 0 0
4.7498 13.3896 -0.3631 0.887 -0.340 -0.313 183 168 173 0 0
4.9347 9.8106 -0.2667 0.108 -0.994 -0.003 8 8 8 0 0
5.2629 9.2167 -0.2502 0.372 -0.353 -0.859 53 149 199 0 0
5.6837 9.6816 -0.2618 0.745 -0.440 -0.502 55 154 211 0 0
5.7359 9.7749 -0.2642 0.734 -0.439 -0.518 55 154 209 0 0
5.9874 7.6973 -0.2080 0.633 -0.772 -0.067 148 134 125 0 0
6.0082 7.7144 -0.2085 0.558 -0.829 0.040 151 139 127 0 0
6.0302 7.7408 -0.2091 0.565 -0.824 0.030 152 140 128 0 0
6.0645 7.7177 -0.2084 0.170 -0.862 0.477 156 137 130 0 0
6.3180 7.6716 -0.2067 0.093 -0.969 0.230 234 174 173 0 0
6.3368 7.6734 -0.2067 0.093 -0.969 0.230 235 176 178 0 0
6.4298 7.6747 -0.2066 -0.126 -0.955 -0.269 76 20 23 0 0
6.4644 7.6603 -0.2061 -0.787 -0.613 -0.065 20 27 33 0 0
6.5094 7.7053 -0.2073 -0.260 -0.610 0.748 24 28 40 0 0
6.5451 7.5940 -0.2042 -0.879 -0.469 0.091 20 30 40 0 0
6.5586 7.5669 -0.2035 -0.603 -0.557 0.571 62 75 84 0 0
6.5742 7.5522 -0.2030 -0.578 -0.626 0.524 68 82 91 0 0
6.5983 7.5831 -0.2038 -0.311 -0.640 0.703 81 94 103 0 0
6.6045 7.5182 -0.2021 0.871 -0.477 0.120 79 89 98 0 0
6.7353 7.4416 -0.1998 -0.353 -0.817 -0.456 190 198 204 0 0
6.7461 7.4061 -0.1988 -0.908 -0.235 -0.347 178 183 187 0 0
7.4801 7.1866 -0.1915 -0.794 -0.102 -0.599 18 27 34 0 0
7.4813 6.9465 -0.1851 0.503 -0.455 -0.735 19 26 36 0 0
7.8635 7.3345 -0.1947 0.067 -0.818 -0.571 22 32 42 0 0
7.8819 7.3360 -0.1948 0.067 -0.818 -0.571 23 31 42 0 0
7.9008 7.3390 -0.1948 -0.098 -0.968 -0.231 24 32 44 0 0
7.9141 7.3242 -0.1944 -0.499 -0.836 -0.229 23 31 44 0 0
7.9067 7.2460 -0.1923 0.050 -0.442 0.895 25 33 48 0 0
7.9021 7.1770 -0.1905 -0.984 -0.142 -0.106 27 34 50 0 0
7.9140 7.1595 -0.1900 -0.964 -0.163 -0.210 26 34 50 0 0
7.9259 7.1420 -0.1895 0.583 -0.427 -0.691 27 34 50 0 0
7.9592 7.1892 -0.1907 0.565 -0.420 -0.710 27 34 50 0 0
8.1802 7.5248 -0.1993 0.605 -0.378 -0.701 32 36 51 0 0
8.2909 7.6853 -0.2033 0.458 -0.377 -0.805 36 39 52 0 0
8.2178 7.4224 -0.1964 -0.794 -0.186 -0.579 36 40 51 0 0
8.4380 7.3803 -0.1949 0.536 -0.764 -0.359 69 74 86 0 0
-1.4865 10.2956 -0.3150 -0.772 -0.633 -0.060 101 91 90 0 0
-0.9233 9.6141 -0.2945 -0.816 -0.473 -0.332 125 114 118 0 0
-0.8100 9.4117 -0.2885 -0.495 -0.845 -0.205 127 115 119 0 0
-0.9948 9.9198 -0.3034 -0.868 -0.480 0.126 135 123 125 0 0
-0.7979 9.5292 -0.2918 -0.757 -0.652 0.045 138 127 130 0 0
-0.5168 9.5322 -0.2914 0.237 -0.971 0.014 142 131 133 0 0
-0.4928 9.5270 -0.2912 0.066 -0.989 0.131 131 121 122 0 0
-0.4707 9.5261 -0.2911 -0.586 -0.763 0.272 117 107 108 0 0
0.2549 8.0724 -0.2482 -0.032 -0.987 -0.158 137 124 114 0 0
-0.8284 11.1379 -0.3379 0.349 -0.813 0.466 34 30 30 0 0
-0.6917 10.9155 -0.3313 -0.741 -0.436 0.511 28 24 22 0 0
-0.7702 11.3691 -0.3444 0.081 -0.704 0.705 131 110 106 0 0
0.2543 10.3372 -0.3129 0.989 -0.109 0.096 127 108 101 0 0
0.3179 10.4248 -0.3153 -0.754 -0.632 -0.177 128 111 103 0 0
0.7640 10.5749 -0.3188 0.221 -0.789 -0.573 198 172 163 0 0
0.7977 10.5401 -0.3177 0.006 -0.992 -0.124 198 173 166 0 0
0.8864 10.7268 -0.3229 0.976 -0.137 -0.169 103 94 89 0 0
0.9092 10.9037 -0.3279 0.639 -0.647 -0.416 25 18 18 0 0
0.9281 10.9229 -0.3284 0.618 -0.663 -0.423 28 20 18 0 0
0.9848 11.0734 -0.3326 0.993 -0.120 -0.007 42 27 26 0 0
1.0324 10.9864 -0.3300 -0.481 -0.871 -0.101 46 29 29 0 0
1.2027 11.3828 -0.3411 0.180 -0.567 -0.804 31 22 21 0 0
1.2575 11.3633 -0.3404 -0.748 -0.605 -0.271 26 18 16 0 0
1.7160 10.9791 -0.3285 -0.695 -0.692 -0.195 159 146 140 0 0
1.8103 11.3534 -0.3391 -0.746 -0.483 -0.459 167 151 151 0 0
1.8435 11.3128 -0.3378 -0.157 -0.713 -0.684 167 151 151 0 0
1.8587 11.3615 -0.3392 -0.731 -0.665 -0.153 168 154 153 0 0
1.9619 11.4761 -0.3423 0.555 -0.764 -0.330 48 42 42 0 0
1.9850 11.4874 -0.3426 0.400 -0.834 -0.380 46 37 40 0 0
2.6932 12.4490 -0.3687 -0.746 -0.567 -0.348 77 73 72 0 0
3.5763 12.9423 -0.3812 0.247 -0.919 -0.309 147 132 125 0 0
3.7620 13.1069 -0.3855 -0.886 -0.429 -0.176 173 154 147 0 0
3.7979 12.9694 -0.3815 0.212 -0.969 -0.125 173 154 147 0 0
3.8494 13.0534 -0.3838 0.583 -0.780 -0.229 170 147 141 0 0
4.0915 13.3453 -0.3917 0.440 -0.830 -0.342 107 80 73 0 0
4.2558 13.6312 -0.3996 -0.082 -0.892 -0.444 71 46 49 0 0
4.3195 13.3879 -0.3925 -0.676 -0.703 -0.220 85 64 61 0 0
4.3489 13.3515 -0.3914 -0.731 -0.637 -0.246 92 73 67 0 0
4.4068 13.3149 -0.3903 -0.731 -0.615 -0.295 102 82 81 0 0
4.4359 13.2798 -0.3892 -0.731 -0.615 -0.295 107 87 88 0 0
4.4647 13.2501 -0.3883 -0.775 -0.591 -0.224 113 93 94 0 0
4.5208 13.3339 -0.3906 -0.268 -0.871 -0.411 120 100 102 0 0
4.5494 13.3414 -0.3907 -0.152 -0.891 -0.428 121 99 102 0 0
4.5778 13.3763 -0.3917 -0.983 -0.148 -0.107 123 101 104 0 0
4.7209 13.2966 -0.3891 0.935 -0.248 -0.252 167 152 159 0 0
4.7500 13.4248 -0.3928 0.882 -0.335 -0.332 177 162 167 0 0
5.2000 9.7464 -0.2867 -0.263 -0.931 -0.253 60 143 195 0 0
5.2422 9.2279 -0.2718 0.423 -0.451 -0.786 54 149 197 0 0
5.2647 9.2517 -0.2724 0.532 -0.407 -0.743 52 148 198 0 0
5.2923 9.3759 -0.2759 -0.801 -0.427 0.420 54 148 202 0 0
5.6519 10.1365 -0.2970 0.262 -0.554 0.790 57 156 213 0 0
5.9876 7.6990 -0.2266 0.633 -0.772 -0.067 150 133 123 0 0
6.0092 7.7231 -0.2273 0.539 -0.842 -0.005 151 139 127 0 0
6.0305 7.7431 -0.2278 0.441 -0.897 0.008 151 139 127 0 0
6.3178 7.6709 -0.2252 -0.161 -0.937 0.311 234 192 190 0 0
6.3359 7.6678 -0.2251 -0.161 -0.937 0.311 226 190 190 0 0
6.3529 7.6586 -0.2248 -0.208 -0.978 -0.030 212 171 172 0 0
6.5759 7.5616 -0.2216 -0.250 -0.496 0.831 80 90 99 0 0
6.5959 7.5704 -0.2218 -0.030 -0.559 0.829 92 102 111 0 0
6.6087 7.5406 -0.2209 0.632 -0.716 0.296 106 115 124 0 0
6.6940 7.6021 -0.2225 0.300 -0.950 0.083 100 115 120 0 0
6.6883 7.4801 -0.2191 0.676 -0.687 -0.265 152 169 174 0 0
6.7099 7.4968 -0.2195 0.360 -0.887 -0.289 191 211 212 0 0
6.7256 7.4843 -0.2191 -0.246 -0.920 -0.305 214 232 234 0 0
6.7429 7.4796 -0.2189 -0.246 -0.920 -0.305 223 238 241 0 0
6.7494 7.4222 -0.2173 -0.905 -0.236 -0.355 221 235 236 0 0
6.8375 7.0820 -0.2074 -0.235 -0.058 -0.970 128 133 136 0 0
6.8395 7.0124 -0.2054 -0.182 -0.052 -0.982 112 117 120 0 0
7.3660 7.1577 -0.2086 -0.683 -0.728 -0.064 19 26 32 0 0
7.5140 7.3068 -0.2125 -0.207 -0.342 0.917 20 27 33 0 0
7.5313 7.3045 -0.2124 -0.193 -0.414 0.889 15 20 28 0 0
7.5094 7.1656 -0.2085 -0.863 -0.251 -0.438 12 17 23 0 0
7.5950 7.0968 -0.2064 0.360 -0.268 -0.894 19 26 34 0 0
7.9805 7.3080 -0.2117 0.552 -0.315 0.772 25 31 44 0 0
7.9746 7.2360 -0.2096 0.645 -0.410 -0.645 25 33 46 0 0
8.0120 7.2949 -0.2113 0.583 -0.427 -0.691 26 34 47 0 0
8.0789 7.3875 -0.2138 0.652 -0.443 -0.615 25 33 45 0 0
8.1542 7.5026 -0.2169 0.652 -0.443 -0.615 29 35 47 0 0
8.2259 7.4461 -0.2152 -0.794 -0.186 -0.579 30 37 47 0 0
8.1873 7.0354 -0.2035 0.639 -0.361 0.680 35 42 52 0 0
8.2342 7.1169 -0.2058 0.515 -0.340 0.787 34 41 51 0 0
8.2740 7.1779 -0.2074 0.546 -0.345 0.763 34 41 51 0 0
8.3257 7.2709 -0.2100 -0.188 -0.358 0.915 35 42 52 0 0
8.3653 7.2816 -0.2102 0.724 -0.459 0.516 40 46 58 0 0
-1.7596 9.2589 -0.3072 0.971 -0.238 0.009 45 36 24 0 0
-1.3570 8.6976 -0.2893 -0.737 -0.465 -0.491 84 76 73 0 0
-1.4628 9.9152 -0.3265 -0.805 -0.519 -0.286 66 56 54 0 0
-1.2756 9.5746 -0.3158 -0.591 -0.657 -0.467 71 61 59 0 0
-0.8190 9.4324 -0.3107 -0.559 -0.829 0.018 127 115 119 0 0
-0.7877 9.4108 -0.3099 -0.578 -0.815 -0.044 131 119 122 0 0
-0.6808 9.4611 -0.3113 -0.276 -0.507 -0.817 129 119 123 0 0
-0.5502 9.5604 -0.3140 -0.397 -0.905 -0.155 145 134 136 0 0
-0.5167 9.5328 -0.3131 0.064 -0.985 -0.159 140 130 131 0 0
-0.4943 9.5312 -0.3131 -0.140 -0.987 -0.077 129 120 121 0 0
-0.7837 11.3401 -0.3686 0.234 -0.695 0.680 117 99 92 0 0
-0.9220 12.6071 -0.4073 -0.057 -0.916 -0.397 123 109 103 0 0
0.6025 10.2623 -0.3332 -0.084 -0.959 -0.270 193 173 162 0 0
0.9059 10.9163 -0.3525 0.639 -0.647 -0.416 28 19 20 0 0
0.9254 10.9337 -0.3530 0.618 -0.682 -0.392 31 21 20 0 0
0.9801 11.0008 -0.3549 -0.494 -0.854 -0.164 35 23 23 0 0
1.0344 10.9800 -0.3542 -0.399 -0.880 -0.258 45 29 29 0 0
1.2535 11.3808 -0.3660 -0.717 -0.630 -0.299 29 19 18 0 0
1.7574 11.1304 -0.3574 -0.729 -0.660 -0.182 163 149 146 0 0
1.7834 11.1236 -0.3571 -0.806 -0.560 -0.191 163 149 146 0 0
1.8384 11.3386 -0.3636 -0.157 -0.713 -0.684 165 151 150 0 0
1.9824 11.5022 -0.3683 0.399 -0.835 -0.378 45 36 39 0 0
2.3170 11.4671 -0.3666 -0.346 -0.874 0.341 68 83 102 0 0
3.7975 12.9779 -0.4097 0.223 -0.948 -0.228 174 155 148 0 0
4.0912 13.3571 -0.4207 0.440 -0.830 -0.342 106 79 72 0 0
4.1158 13.4726 -0.4241 0.856 -0.395 -0.333 97 72 65 0 0
4.2552 13.6581 -0.4295 0.072 -0.839 -0.540 68 47 46 0 0
4.3195 13.3912 -0.4213 -0.600 -0.776 -0.195 82 63 59 0 0
4.4647 13.2611 -0.4170 -0.775 -0.591 -0.224 112 92 93 0 0
4.5208 13.3476 -0.4196 -0.268 -0.871 -0.411 120 100 102 0 0
4.5493 13.3522 -0.4197 -0.199 -0.895 -0.400 124 102 105 0 0
4.5778 13.3798 -0.4204 -0.979 -0.149 -0.142 123 103 105 0 0
5.2003 9.7524 -0.3091 -0.263 -0.931 -0.253 60 146 195 0 0
5.2206 9.2205 -0.2929 0.533 -0.515 -0.671 56 148 197 0 0
5.7147 9.7881 -0.3092 0.745 -0.440 -0.502 58 157 214 0 0
5.7419 9.8458 -0.3109 0.737 -0.441 -0.513 56 155 212 0 0
5.9877 7.7000 -0.2452 0.756 -0.655 -0.024 148 134 125 0 0
6.0090 7.7211 -0.2458 0.504 -0.862 0.058 151 139 127 0 0
6.0301 7.7405 -0.2464 0.276 -0.954 0.113 151 138 129 0 0
6.3169 7.6650 -0.2436 -0.161 -0.937 0.311 247 208 205 0 0
6.3349 7.6619 -0.2434 -0.161 -0.937 0.311 242 208 206 0 0
6.3530 7.6591 -0.2433 -0.208 -0.978 -0.030 229 190 188 0 0
6.5546 7.5459 -0.2395 -0.193 -0.580 0.792 12 21 28 0 0
6.5718 7.5398 -0.2393 -0.161 -0.581 0.798 21 31 40 0 0
6.5902 7.5402 -0.2392 0.045 -0.611 0.790 25 36 42 0 0
6.6084 7.5393 -0.2392 0.554 -0.673 0.491 28 39 45 0 0
6.6900 7.4890 -0.2375 0.643 -0.712 -0.282 151 171 172 0 0
6.7111 7.5033 -0.2379 0.360 -0.887 -0.289 189 209 210 0 0
6.7267 7.4901 -0.2375 -0.261 -0.903 -0.342 210 228 228 0 0
6.7440 7.4854 -0.2373 -0.246 -0.920 -0.305 220 235 237 0 0
6.7557 7.4535 -0.2363 -0.891 -0.288 -0.350 222 236 237 0 0
7.0142 7.1633 -0.2270 -0.770 -0.216 -0.600 138 143 149 0 0
7.4607 7.2445 -0.2286 0.426 -0.896 0.126 17 22 28 0 0
7.5112 7.2970 -0.2301 -0.424 -0.282 0.860 59 64 69 0 0
7.5262 7.2870 -0.2298 -0.443 -0.218 0.870 82 87 92 0 0
7.5384 7.2671 -0.2292 -0.405 -0.204 0.891 91 95 100 0 0
7.5580 7.2731 -0.2293 -0.383 -0.187 0.905 91 94 99 0 0
7.5928 7.3317 -0.2310 0.290 -0.251 0.924 77 80 85 0 0
7.9390 7.1823 -0.2258 0.602 -0.303 0.739 24 31 41 0 0
7.9943 7.2959 -0.2292 0.518 -0.367 -0.773 23 31 40 0 0
8.3249 7.2692 -0.2278 -0.193 -0.472 0.860 33 42 51 0 0
8.3674 7.2877 -0.2282 0.770 -0.503 0.393 36 44 54 0 0
-1.8918 9.0776 -0.3228 -0.449 -0.594 -0.668 48 34 17 0 0
-1.5719 9.7316 -0.3433 0.839 -0.504 0.204 48 38 36 0 0
-1.5647 9.7613 -0.3442 0.898 -0.370 0.238 50 42 39 0 0
-1.5637 9.8036 -0.3456 0.860 -0.467 0.206 50 42 39 0 0
-1.6163 10.1848 -0.3579 -0.782 -0.472 -0.407 63 54 49 0 0
-1.3463 9.7670 -0.3440 0.772 -0.532 -0.347 74 62 61 0 0
-2.0244 11.2249 -0.3921 -0.522 -0.643 0.560 77 65 65 0 0
-1.4810 10.2856 -0.3609 -0.775 -0.625 0.100 102 90 90 0 0
-1.3080 10.1613 -0.3566 -0.537 -0.843 0.048 111 100 105 0 0
-1.2977 10.1883 -0.3574 -0.728 -0.684 -0.051 114 103 109 0 0
-0.8172 9.4291 -0.3321 -0.551 -0.828 0.104 126 114 117 0 0
-0.7957 9.5256 -0.3352 -0.662 -0.747 -0.061 140 129 133 0 0
-0.7105 9.3830 -0.3304 -0.864 -0.501 0.046 138 128 131 0 0
-0.6855 9.4724 -0.3333 -0.137 -0.666 -0.734 130 120 124 0 0
-0.6415 9.6214 -0.3380 0.961 -0.164 -0.223 147 132 137 0 0
-0.5076 9.5118 -0.3342 -0.655 -0.665 -0.359 137 129 131 0 0
-0.5032 9.5530 -0.3355 -0.473 -0.870 -0.141 124 119 119 0 0
-0.7744 11.0034 -0.3827 -0.161 -0.980 0.117 29 26 26 0 0
-0.7753 11.3192 -0.3928 0.234 -0.695 0.680 133 111 100 0 0
-0.8079 12.1508 -0.4196 0.392 -0.517 -0.761 120 105 98 0 0
0.9027 10.9289 -0.3771 0.639 -0.647 -0.416 32 20 21 0 0
0.9217 10.9480 -0.3777 0.639 -0.647 -0.416 30 18 18 0 0
0.9788 11.0063 -0.3795 -0.494 -0.854 -0.164 39 25 25 0 0
1.0324 10.9881 -0.3788 -0.399 -0.880 -0.258 44 28 29 0 0
1.0620 10.9685 -0.3781 -0.111 -0.993 -0.034 46 29 30 0 0
1.8262 11.4004 -0.3906 -0.356 -0.869 -0.345 162 153 148 0 0
1.9795 11.5186 -0.3941 0.610 -0.704 -0.364 47 36 40 0 0
2.3200 11.4502 -0.3913 0.056 -0.998 -0.002 69 85 108 0 0
2.3431 11.4626 -0.3916 -0.075 -0.900 0.430 65 83 105 0 0
2.4003 11.7404 -0.4004 -0.171 -0.895 -0.411 76 93 111 0 0
3.7113 13.0181 -0.4391 0.735 -0.677 -0.039 173 154 147 0 0
4.0358 13.3131 -0.4480 0.647 -0.677 -0.350 108 81 72 0 0
4.0628 13.3538 -0.4492 0.440 -0.830 -0.342 105 78 69 0 0
4.0908 13.3688 -0.4496 0.440 -0.830 -0.342 106 79 70 0 0
4.2547 13.6805 -0.4594 0.106 -0.796 -0.595 63 45 43 0 0
4.4357 13.2978 -0.4467 -0.708 -0.620 -0.339 107 87 88 0 0
4.4645 13.2814 -0.4461 -0.723 -0.630 -0.283 113 93 94 0 0
4.5207 13.3613 -0.4486 -0.268 -0.871 -0.411 122 100 103 0 0
4.5492 13.3779 -0.4491 -0.275 -0.849 -0.452 122 101 106 0 0
4.5776 13.4160 -0.4503 -0.990 -0.126 -0.055 122 101 106 0 0
5.2225 9.2632 -0.3155 0.543 -0.680 -0.493 56 148 197 0 0
5.2463 9.3137 -0.3171 0.684 -0.592 -0.427 57 149 198 0 0
6.0244 11.1390 -0.3743 0.810 -0.585 0.044 58 157 216 0 0
6.0527 11.1752 -0.3754 0.815 -0.575 0.064 60 156 214 0 0
5.9878 7.7008 -0.2638 0.756 -0.655 -0.024 148 135 127 0 0
6.0088 7.7197 -0.2644 0.462 -0.882 0.093 151 138 129 0 0
6.3164 7.6624 -0.2620 -0.202 -0.944 0.259 197 147 140 0 0
6.3347 7.6609 -0.2619 -0.292 -0.954 0.069 203 153 144 0 0
6.5165 7.6410 -0.2609 0.519 -0.849 -0.095 91 96 105 0 0
6.7124 7.5098 -0.2563 0.360 -0.887 -0.289 193 208 208 0 0
6.7278 7.4958 -0.2558 -0.246 -0.920 -0.305 219 231 233 0 0
6.7451 7.4912 -0.2557 -0.246 -0.920 -0.305 225 234 239 0 0
6.7663 7.4171 -0.2532 -0.086 -0.478 0.874 221 235 238 0 0
6.7774 7.3834 -0.2521 0.215 -0.245 0.946 221 237 237 0 0
6.7947 7.3798 -0.2520 0.191 -0.239 0.952 221 236 239 0 0
6.8129 7.3804 -0.2520 -0.135 -0.298 0.945 221 237 237 0 0
7.1420 7.1100 -0.2427 -0.326 -0.049 -0.944 151 155 158 0 0
7.1367 7.0193 -0.2398 -0.228 -0.042 -0.973 114 118 121 0 0
7.2788 6.9651 -0.2377 0.104 -0.071 -0.992 24 27 32 0 0
7.4553 7.2254 -0.2458 0.492 -0.668 -0.558 20 25 29 0 0
7.4783 7.2439 -0.2463 0.533 -0.612 -0.584 28 33 37 0 0
7.4989 7.2540 -0.2466 -0.456 -0.267 0.849 70 75 78 0 0
7.5119 7.2371 -0.2461 -0.221 -0.171 0.960 119 122 127 0 0
7.5200 7.2031 -0.2449 -0.040 -0.162 0.986 151 152 156 0 0
7.5262 7.1630 -0.2436 0.232 -0.214 0.949 168 169 173 0 0
7.5596 7.2172 -0.2453 0.349 -0.221 0.911 175 176 180 0 0
7.5915 7.2660 -0.2468 0.364 -0.210 0.907 174 174 179 0 0
7.7500 6.8156 -0.2321 0.682 -0.309 0.663 22 26 35 0 0
7.7679 6.8182 -0.2321 0.701 -0.378 0.605 24 28 37 0 0
7.9931 6.8779 -0.2336 0.765 -0.510 -0.393 28 32 44 0 0
8.0298 6.9341 -0.2353 0.782 -0.553 -0.288 28 34 45 0 0
-1.5651 9.8518 -0.3694 0.868 -0.443 0.226 53 45 42 0 0
-1.5376 10.0706 -0.3768 -0.782 -0.472 -0.407 64 54 51 0 0
-2.0077 11.1907 -0.4157 -0.522 -0.643 0.560 78 64 65 0 0
-1.4772 10.2781 -0.3837 -0.762 -0.647 0.026 100 88 88 0 0
-1.4121 10.2378 -0.3822 -0.681 -0.698 -0.222 97 87 88 0 0
-1.3334 10.1675 -0.3797 -0.442 -0.880 0.173 104 93 97 0 0
-1.3209 10.2889 -0.3838 -0.780 -0.589 -0.210 116 105 111 0 0
-1.1750 10.1206 -0.3778 -0.878 -0.469 -0.094 123 111 115 0 0
-0.8151 9.4250 -0.3535 -0.551 -0.828 0.104 127 115 117 0 0
-0.7860 9.5045 -0.3562 -0.418 -0.859 -0.295 140 130 133 0 0
-0.7591 9.4927 -0.3557 -0.267 -0.874 -0.406 137 128 131 0 0
-0.7159 9.4442 -0.3540 -0.584 -0.749 -0.315 133 124 127 0 0
-0.6893 9.4817 -0.3552 0.101 -0.726 -0.680 129 118 122 0 0
-0.5492 9.5593 -0.3576 -0.324 -0.903 -0.282 144 134 137 0 0
-0.5234 9.5500 -0.3572 -0.324 -0.903 -0.282 138 131 133 0 0
-0.5060 9.5601 -0.3576 -0.217 -0.886 -0.410 125 121 121 0 0
-0.7889 11.2911 -0.4168 0.234 -0.695 0.680 127 101 89 0 0
-0.7648 11.2930 -0.4169 0.010 -0.634 0.773 145 121 110 0 0
0.3889 10.3531 -0.3828 -0.791 -0.598 -0.130 127 110 102 0 0
0.7940 10.5551 -0.3889 0.126 -0.715 -0.687 191 169 161 0 0
0.9010 11.0242 -0.4046 0.937 -0.263 -0.228 33 19 19 0 0
0.9776 11.0117 -0.4041 -0.494 -0.854 -0.164 35 21 21 0 0
1.0918 10.9481 -0.4017 0.583 -0.785 0.208 46 30 31 0 0
1.2116 11.2484 -0.4117 0.556 -0.805 0.206 33 27 26 0 0
1.2316 11.2681 -0.4123 0.699 -0.687 0.199 33 24 22 0 0
1.7021 11.1602 -0.4078 -0.407 -0.808 -0.426 158 144 141 0 0
1.7298 11.1459 -0.4072 -0.407 -0.808 -0.426 160 147 141 0 0
1.7575 11.1317 -0.4067 -0.407 -0.808 -0.426 162 149 143 0 0
1.7832 11.1266 -0.4065 0.453 -0.772 -0.446 163 150 144 0 0
1.9775 11.5301 -0.4198 0.610 -0.704 -0.364 42 31 35 0 0
2.2871 11.4970 -0.4181 -0.806 -0.587 -0.067 55 77 100 0 0
2.3453 11.4506 -0.4164 -0.075 -0.900 0.430 58 78 102 0 0
2.3716 11.4440 -0.4161 -0.151 -0.856 0.495 60 81 102 0 0
2.3994 11.7470 -0.4264 0.092 -0.880 -0.466 72 87 106 0 0
2.9266 12.5348 -0.4521 -0.417 -0.895 -0.156 146 90 99 0 0
4.0358 13.3147 -0.4765 0.640 -0.684 -0.351 102 80 69 0 0
4.0630 13.3491 -0.4776 0.584 -0.767 -0.265 101 77 67 0 0
4.0912 13.3602 -0.4780 0.551 -0.808 -0.208 106 79 70 0 0
4.2837 13.6916 -0.4889 -0.294 -0.814 -0.500 71 57 54 0 0
4.3167 13.5211 -0.4830 -0.694 -0.633 -0.344 78 63 58 0 0
4.4040 13.4893 -0.4818 -0.814 -0.477 -0.331 100 82 80 0 0
4.5492 13.3935 -0.4783 -0.275 -0.849 -0.452 120 99 104 0 0
4.5779 13.3888 -0.4780 -0.992 -0.125 0.029 121 100 105 0 0
5.7732 9.9490 -0.3591 0.694 -0.464 -0.550 60 157 212 0 0
5.9676 7.6883 -0.2820 0.576 -0.817 -0.005 142 131 127 0 0
5.9871 7.6956 -0.2822 0.722 -0.692 -0.015 147 137 128 0 0
6.0087 7.7191 -0.2830 0.140 -0.978 0.153 153 139 130 0 0
6.2777 7.6516 -0.2802 -0.464 -0.885 0.036 128 82 85 0 0
6.2915 7.6213 -0.2791 -0.021 -0.709 0.705 146 100 101 0 0
6.3123 7.6362 -0.2796 -0.041 -0.840 0.541 159 114 111 0 0
6.5344 7.6380 -0.2792 -0.477 -0.844 0.246 234 244 246 0 0
6.5929 7.6544 -0.2797 0.012 -0.754 -0.657 108 126 128 0 0
6.7345 7.5292 -0.2752 0.547 -0.814 -0.194 173 181 184 0 0
6.7463 7.4973 -0.2741 -0.095 -0.976 -0.197 194 199 205 0 0
6.7647 7.4982 -0.2741 -0.890 -0.453 0.050 202 209 217 0 0
6.7869 7.3428 -0.2687 0.077 -0.223 0.972 222 233 237 0 0
6.8197 7.4127 -0.2711 -0.889 -0.386 0.248 225 236 240 0 0
6.8555 7.2456 -0.2653 -0.786 -0.211 0.582 225 239 240 0 0
6.8732 7.2451 -0.2653 -0.337 -0.629 0.701 222 236 237 0 0
6.8827 7.2078 -0.2640 0.343 -0.329 0.880 221 235 236 0 0
6.8987 7.2001 -0.2637 0.349 -0.245 0.904 220 235 238 0 0
6.9234 7.2307 -0.2647 0.165 -0.393 0.904 221 236 239 0 0
7.2636 7.0387 -0.2575 -0.960 -0.189 -0.207 138 143 146 0 0
7.2551 6.9417 -0.2543 -0.933 -0.279 0.228 119 124 128 0 0
7.3082 7.0102 -0.2565 -0.384 -0.671 0.635 81 86 91 0 0
7.4369 7.2235 -0.2635 0.201 -0.827 0.525 30 35 39 0 0
7.4606 7.2446 -0.2642 0.492 -0.668 -0.558 23 28 32 0 0
7.4842 7.2652 -0.2648 0.540 -0.607 -0.583 15 20 23 0 0
7.5034 7.2701 -0.2649 0.576 -0.653 -0.492 18 23 26 0 0
7.4941 7.1746 -0.2617 0.081 -0.549 0.832 27 28 32 0 0
7.5015 7.1387 -0.2605 -0.196 -0.229 0.953 34 35 37 0 0
7.5125 7.1159 -0.2597 0.054 -0.192 0.980 48 49 51 0 0
7.5374 7.1413 -0.2605 0.284 -0.208 0.936 61 61 63 0 0
7.5627 7.1674 -0.2613 0.505 -0.267 0.821 78 78 80 0 0
8.0929 7.0160 -0.2552 0.714 -0.552 0.431 27 36 45 0 0
8.1269 7.0629 -0.2567 0.660 -0.526 0.537 28 37 46 0 0
-1.2931 9.1352 -0.3656 -0.778 -0.593 -0.208 43 33 32 0 0
-1.9602 11.1437 -0.4386 -0.860 -0.486 -0.157 80 68 68 0 0
-1.3303 10.1614 -0.4024 -0.442 -0.880 0.173 103 92 96 0 0
-0.7892 9.5125 -0.3782 -0.456 -0.851 -0.259 139 129 133 0 0
-0.7607 9.4970 -0.3776 -0.456 -0.851 -0.259 136 127 130 0 0
-0.7218 9.4580 -0.3761 -0.584 -0.749 -0.315 131 122 125 0 0
-0.6999 9.4575 -0.3761 -0.427 -0.713 -0.556 129 120 123 0 0
-0.5825 9.5869 -0.3805 -0.059 -0.995 0.086 145 134 138 0 0
-0.5575 9.5794 -0.3801 -0.271 -0.943 0.191 142 133 136 0 0
-0.5260 9.5567 -0.3793 -0.262 -0.834 0.486 136 129 131 0 0
0.2463 8.0030 -0.3224 0.270 -0.305 -0.913 132 117 109 0 0
0.2558 8.0726 -0.3248 0.344 -0.922 -0.176 130 116 109 0 0
-0.7814 11.2725 -0.4410 -0.209 -0.636 0.743 136 113 101 0 0
0.4269 10.3084 -0.4044 -0.844 -0.516 -0.143 126 109 101 0 0
0.7953 10.5515 -0.4124 0.258 -0.835 -0.485 195 173 165 0 0
0.8620 10.9026 -0.4248 0.964 -0.115 -0.239 43 29 27 0 0
0.9589 10.9024 -0.4246 -0.316 -0.414 -0.854 34 20 19 0 0
0.9695 11.0426 -0.4296 -0.585 -0.675 -0.450 39 25 24 0 0
1.0946 10.9385 -0.4256 0.417 -0.894 0.163 47 33 33 0 0
1.6813 11.2584 -0.4360 0.651 -0.753 -0.100 159 145 142 0 0
1.7228 11.1797 -0.4331 -0.334 -0.758 -0.561 162 148 145 0 0
1.7522 11.1577 -0.4322 -0.582 -0.613 -0.535 161 150 146 0 0
1.7792 11.1463 -0.4318 0.314 -0.712 -0.628 162 151 147 0 0
2.0112 11.7610 -0.4533 0.966 -0.191 -0.175 108 94 91 0 0
2.2854 11.5077 -0.4438 -0.781 -0.613 -0.118 46 70 94 0 0
2.3467 11.4429 -0.4413 -0.328 -0.944 -0.033 50 72 96 0 0
2.3702 11.4531 -0.4416 -0.128 -0.991 0.031 52 74 97 0 0
3.9788 13.3148 -0.5052 0.033 -0.908 -0.417 131 112 105 0 0
4.0627 13.3600 -0.5066 0.678 -0.714 -0.176 111 89 78 0 0
4.0911 13.3675 -0.5068 0.551 -0.808 -0.208 104 79 72 0 0
4.2551 13.6722 -0.5174 -0.471 -0.824 -0.315 59 45 44 0 0
4.3165 13.5375 -0.5125 -0.694 -0.633 -0.344 78 63 58 0 0
4.4919 13.3833 -0.5067 -0.674 -0.606 -0.423 117 95 98 0 0
4.5780 13.3851 -0.5066 -0.992 -0.121 -0.035 122 101 106 0 0
5.0484 9.8737 -0.3803 -0.834 -0.551 -0.016 7 7 7 0 0
5.1787 9.7656 -0.3762 -0.645 -0.749 -0.150 65 143 189 0 0
5.2229 9.2703 -0.3584 0.131 -0.991 -0.000 58 148 198 0 0
5.3472 9.2006 -0.3557 -0.945 -0.256 0.205 60 154 206 0 0
5.7975 9.9683 -0.3823 0.828 -0.520 -0.212 60 156 216 0 0
5.8506 10.0541 -0.3852 0.814 -0.541 -0.213 57 156 211 0 0
5.8776 10.0988 -0.3868 0.829 -0.517 -0.212 58 157 214 0 0
6.0083 7.7162 -0.3014 0.140 -0.978 0.153 153 139 130 0 0
6.6721 7.4911 -0.2922 0.330 -0.495 -0.804 33 50 49 0 0
6.6888 7.4835 -0.2919 0.105 -0.489 -0.866 26 40 41 0 0
6.7087 7.4921 -0.2921 0.053 -0.484 -0.874 30 41 43 0 0
6.7772 7.4703 -0.2912 0.419 -0.895 -0.150 65 68 75 0 0
6.8277 7.4509 -0.2904 -0.927 -0.326 -0.186 126 129 136 0 0
6.8335 7.3931 -0.2884 -0.947 -0.222 -0.233 152 157 163 0 0
6.8814 7.2827 -0.2843 -0.184 -0.537 0.824 220 228 233 0 0
6.9000 7.2857 -0.2844 0.439 -0.734 0.519 225 232 238 0 0
6.9161 7.2779 -0.2841 0.232 -0.882 0.410 228 236 242 0 0
6.9315 7.2673 -0.2837 -0.365 -0.797 0.482 229 236 242 0 0
7.4489 7.2031 -0.2804 -0.102 -0.382 0.918 162 170 174 0 0
7.4549 7.1616 -0.2790 -0.378 -0.247 0.892 145 150 153 0 0
7.4613 7.1217 -0.2775 -0.279 -0.171 0.945 125 130 133 0 0
7.4752 7.1087 -0.2770 -0.236 -0.196 0.952 104 105 108 0 0
7.4823 7.0720 -0.2757 -0.098 -0.202 0.974 78 80 79 0 0
7.5216 7.0267 -0.2740 0.598 -0.295 0.745 19 19 21 0 0
7.5496 7.0629 -0.2753 0.649 -0.285 0.705 6 10 11 0 0
7.5957 7.1598 -0.2786 0.683 -0.295 0.668 7 11 14 0 0
-1.7402 9.2649 -0.3924 0.661 -0.172 0.730 71 61 43 0 0
-1.2423 9.0764 -0.3844 -0.771 -0.600 -0.215 45 35 34 0 0
-1.4750 10.3238 -0.4316 -0.723 -0.685 0.085 99 89 89 0 0
-1.1153 9.9910 -0.4184 -0.787 -0.586 0.194 123 111 115 0 0
-0.8508 9.6020 -0.4034 -0.716 -0.688 0.118 137 126 130 0 0
-0.7951 9.5264 -0.4004 -0.150 -0.966 -0.213 138 129 132 0 0
-0.7264 9.4691 -0.3982 -0.703 -0.700 -0.130 130 121 124 0 0
-0.6981 9.4540 -0.3975 -0.304 -0.670 -0.678 128 119 122 0 0
0.2596 8.0639 -0.3436 0.584 -0.811 -0.033 121 110 104 0 0
0.2680 8.0904 -0.3446 0.284 -0.924 -0.256 107 99 93 0 0
0.3021 8.1008 -0.3450 0.289 -0.908 -0.302 87 82 78 0 0
0.3191 8.1063 -0.3451 0.289 -0.908 -0.302 80 73 70 0 0
-0.8184 11.2414 -0.4648 0.120 -0.662 0.740 101 82 76 0 0
-0.7952 11.2453 -0.4649 0.117 -0.643 0.757 128 107 97 0 0
-0.7710 11.2466 -0.4649 -0.067 -0.640 0.766 143 122 111 0 0
0.3478 10.4797 -0.4341 -0.883 -0.449 -0.140 127 110 102 0 0
0.4241 10.3176 -0.4278 -0.843 -0.516 -0.155 126 109 101 0 0
0.8955 11.0458 -0.4543 0.938 -0.273 -0.211 34 20 19 0 0
1.0675 11.0424 -0.4538 -0.370 -0.661 -0.653 45 31 31 0 0
1.0760 11.2950 -0.4633 0.334 -0.881 -0.334 45 31 31 0 0
1.0899 11.3381 -0.4649 -0.343 -0.678 0.650 43 31 31 0 0
1.1133 11.3445 -0.4651 0.062 -0.682 0.729 42 28 28 0 0
1.3038 11.3835 -0.4662 0.007 -0.788 -0.615 47 30 23 0 0
1.3318 11.3714 -0.4657 -0.360 -0.815 -0.455 58 38 31 0 0
1.7487 11.1752 -0.4576 -0.396 -0.789 -0.470 158 148 146 0 0
1.7725 11.1791 -0.4577 0.310 -0.583 -0.751 159 148 146 0 0
1.9992 11.6878 -0.4763 0.946 -0.237 -0.222 87 71 71 0 0
2.0078 11.7803 -0.4798 0.955 -0.237 -0.179 107 92 89 0 0
2.3663 11.4783 -0.4678 -0.230 -0.905 -0.359 46 70 94 0 0
2.9785 12.5590 -0.5072 -0.198 -0.947 -0.253 182 143 146 0 0
3.2243 12.8379 -0.5172 -0.506 -0.838 -0.205 151 142 143 0 0
3.9197 13.3585 -0.5354 0.068 -0.896 -0.439 162 145 138 0 0
3.9480 13.3653 -0.5356 -0.129 -0.834 -0.537 155 138 131 0 0
4.0624 13.3711 -0.5356 0.650 -0.713 -0.263 110 88 77 0 0
4.0909 13.3750 -0.5357 0.540 -0.773 -0.331 104 79 72 0 0
4.2582 13.5550 -0.5422 -0.915 -0.403 -0.019 58 44 43 0 0
5.0484 9.8746 -0.4027 -0.840 -0.542 -0.031 7 7 7 0 0
5.0912 9.8102 -0.4002 -0.615 -0.783 -0.090 27 39 53 0 0
5.2244 9.7937 -0.3994 0.758 -0.590 -0.277 56 148 197 0 0
5.8130 10.1442 -0.4114 0.043 -0.692 0.721 62 156 217 0 0
5.8506 10.0536 -0.4080 0.842 -0.539 -0.022 60 157 212 0 0
5.9592 10.2306 -0.4144 0.800 -0.599 -0.030 66 156 216 0 0
5.9880 7.7029 -0.3196 0.576 -0.817 -0.005 150 137 128 0 0
6.6509 7.4759 -0.3098 0.614 -0.521 -0.593 27 42 45 0 0
6.6777 7.5203 -0.3114 0.393 -0.515 -0.762 25 39 42 0 0
6.6965 7.5228 -0.3115 0.297 -0.549 -0.781 20 32 36 0 0
6.7162 7.5300 -0.3117 -0.064 -0.430 -0.901 18 26 31 0 0
6.8012 7.4987 -0.3104 -0.160 -0.445 -0.881 21 20 28 0 0
6.9338 7.2775 -0.3019 -0.888 -0.279 -0.366 146 149 156 0 0
6.9407 7.2292 -0.3000 -0.876 -0.328 -0.354 168 172 179 0 0
6.9532 7.2062 -0.2992 -0.796 -0.526 -0.299 186 190 197 0 0
7.1608 7.3290 -0.3034 -0.681 -0.201 0.704 226 237 239 0 0
7.1714 7.2994 -0.3023 -0.346 -0.226 0.911 226 237 239 0 0
7.1870 7.2905 -0.3019 0.265 -0.315 0.911 225 239 240 0 0
7.5126 7.1784 -0.2971 0.608 -0.547 0.575 225 231 231 0 0
-1.2182 9.1126 -0.4067 -0.019 -0.813 0.582 48 38 39 0 0
-1.8805 10.9281 -0.4792 -0.831 -0.509 -0.225 72 60 60 0 0
-1.6055 10.5020 -0.4620 -0.805 -0.543 -0.241 92 80 80 0 0
-1.4890 10.3541 -0.4559 -0.717 -0.651 -0.248 98 88 89 0 0
-1.2408 10.1173 -0.4462 -0.416 -0.908 0.048 113 102 107 0 0
-1.1072 9.9739 -0.4403 -0.744 -0.632 0.217 122 111 115 0 0
-0.9587 9.7938 -0.4330 -0.803 -0.593 0.057 133 122 126 0 0
-0.8493 9.5995 -0.4251 -0.708 -0.706 -0.013 137 127 131 0 0
-0.8060 9.5514 -0.4232 -0.026 -0.973 -0.228 137 128 131 0 0
0.1505 8.1428 -0.3661 -0.537 -0.456 0.710 99 89 87 0 0
0.2893 8.0857 -0.3636 0.587 -0.807 -0.068 94 91 86 0 0
-0.8092 11.2188 -0.4886 0.053 -0.642 0.765 118 96 90 0 0
-0.7853 11.2207 -0.4887 0.053 -0.642 0.765 137 117 108 0 0
-0.7591 11.2171 -0.4885 -0.067 -0.640 0.766 149 130 120 0 0
0.4197 10.3321 -0.4516 -0.843 -0.516 -0.155 126 109 101 0 0
0.4941 10.2449 -0.4480 0.815 -0.431 -0.388 144 126 118 0 0
0.5183 10.3133 -0.4507 0.967 -0.137 -0.217 179 160 151 0 0
0.7876 10.6606 -0.4638 0.646 -0.708 -0.285 192 173 164 0 0
0.8125 10.6569 -0.4636 0.433 -0.890 -0.142 190 171 164 0 0
0.8805 11.0124 -0.4774 0.938 -0.273 -0.211 45 30 25 0 0
0.8929 11.0561 -0.4791 0.938 -0.273 -0.211 36 21 18 0 0
0.9316 11.0940 -0.4806 0.663 -0.729 -0.172 36 22 19 0 0
0.9634 11.1585 -0.4830 0.797 -0.541 0.266 40 26 24 0 0
1.0527 11.2898 -0.4880 0.746 -0.441 -0.500 43 31 30 0 0
1.0745 11.3017 -0.4885 0.449 -0.868 -0.213 46 34 34 0 0
1.0928 11.3275 -0.4894 -0.425 -0.700 0.574 45 34 34 0 0
1.1198 11.3194 -0.4891 0.062 -0.682 0.729 43 31 31 0 0
1.1537 11.3834 -0.4915 -0.060 -0.394 0.917 37 27 26 0 0
1.7083 11.3678 -0.4899 0.314 -0.663 -0.680 156 146 145 0 0
2.0057 11.7924 -0.5060 0.955 -0.238 -0.177 108 90 88 0 0
2.3423 11.4716 -0.4928 -0.421 -0.868 -0.263 41 68 95 0 0
2.5048 12.8388 -0.5462 -0.208 -0.221 0.953 93 80 87 0 0
3.5731 12.9983 -0.5505 0.247 -0.919 -0.309 148 134 125 0 0
3.8938 13.3064 -0.5620 0.558 -0.827 -0.061 160 145 140 0 0
3.9192 13.3727 -0.5646 0.068 -0.896 -0.439 154 139 132 0 0
4.0905 13.3872 -0.5648 0.540 -0.773 -0.331 105 82 76 0 0
4.1975 13.6513 -0.5750 -0.981 -0.188 0.038 44 26 22 0 0
4.5490 13.4431 -0.5662 -0.000 -0.877 -0.481 120 99 104 0 0
4.9377 9.9465 -0.4282 -0.579 -0.267 0.770 3 7 10 0 0
5.0485 9.8755 -0.4252 -0.839 -0.543 -0.040 8 8 8 0 0
5.0913 9.8127 -0.4226 -0.615 -0.783 -0.090 33 47 60 0 0
5.9676 7.6888 -0.3376 0.517 -0.856 -0.011 146 133 127 0 0
5.9880 7.7030 -0.3381 0.576 -0.817 -0.005 150 137 128 0 0
6.5879 7.6282 -0.3341 -0.151 -0.980 -0.127 115 126 132 0 0
6.6769 7.5161 -0.3295 0.509 -0.575 -0.641 32 42 51 0 0
6.6996 7.5387 -0.3304 0.490 -0.574 -0.656 23 33 40 0 0
6.7212 7.5553 -0.3310 0.406 -0.569 -0.715 25 32 40 0 0
6.7445 7.5802 -0.3319 0.302 -0.490 -0.818 20 25 33 0 0
6.7779 7.4743 -0.3277 0.331 -0.736 -0.590 21 21 29 0 0
6.8055 7.5198 -0.3294 -0.207 -0.494 -0.844 21 21 29 0 0
6.9526 7.2038 -0.3168 -0.007 -0.110 -0.994 26 29 36 0 0
6.9732 7.2165 -0.3172 0.046 -0.113 -0.993 40 43 50 0 0
7.0074 7.2872 -0.3199 0.078 -0.118 -0.990 49 52 59 0 0
7.0305 7.3094 -0.3208 0.078 -0.118 -0.990 70 75 81 0 0
7.0537 7.3317 -0.3216 0.078 -0.118 -0.990 83 88 92 0 0
7.0804 7.3686 -0.3230 0.062 -0.123 -0.991 103 108 114 0 0
7.1014 7.3811 -0.3234 0.015 -0.700 0.714 124 129 133 0 0
7.2024 7.4977 -0.3278 -0.855 -0.348 -0.385 200 206 210 0 0
7.2341 7.5519 -0.3299 -0.469 -0.632 -0.617 210 215 219 0 0
7.3186 7.1148 -0.3126 0.336 -0.395 0.855 223 237 240 0 0
7.3421 7.1367 -0.3134 0.209 -0.339 0.917 223 237 240 0 0
7.4669 7.2046 -0.3158 0.237 -0.155 0.959 223 238 241 0 0
7.6058 7.1948 -0.3152 -0.607 -0.142 0.782 225 235 236 0 0
7.6159 7.1692 -0.3142 -0.457 -0.160 0.875 220 230 231 0 0
-2.0041 9.5162 -0.4457 -0.622 -0.629 -0.466 59 41 28 0 0
-1.2858 8.7198 -0.4117 -0.713 -0.476 -0.515 84 75 76 0 0
-1.2043 9.0435 -0.4248 -0.779 -0.584 -0.230 46 36 35 0 0
-1.7044 10.6608 -0.4921 -0.811 -0.519 -0.268 81 70 68 0 0
-1.6139 10.5203 -0.4862 -0.785 -0.557 -0.271 90 79 78 0 0
-1.4972 10.3723 -0.4799 -0.717 -0.651 -0.248 98 88 88 0 0
-1.4870 10.3999 -0.4810 -0.573 -0.643 -0.509 97 87 88 0 0
-1.2848 10.2134 -0.4730 -0.767 -0.581 -0.274 112 101 105 0 0
-1.0973 9.9527 -0.4619 -0.811 -0.574 0.110 122 111 115 0 0
-1.0122 9.8640 -0.4581 -0.803 -0.593 0.057 128 117 121 0 0
0.1897 8.1419 -0.3853 0.062 -0.997 -0.046 49 42 40 0 0
0.2927 8.0780 -0.3825 0.570 -0.749 0.338 46 43 40 0 0
0.3288 8.0833 -0.3826 -0.197 -0.690 0.696 47 38 35 0 0
-0.7760 11.1978 -0.5125 0.143 -0.602 0.785 145 127 117 0 0
-0.7493 11.1925 -0.5122 -0.329 -0.591 0.736 152 135 125 0 0
0.7425 8.2118 -0.3871 0.359 -0.225 0.906 126 111 105 0 0
0.7610 8.2144 -0.3872 0.438 -0.244 0.865 127 111 104 0 0
0.7722 8.4038 -0.3950 0.240 -0.353 0.904 123 112 104 0 0
0.3822 10.3765 -0.4766 -0.863 -0.489 -0.124 127 110 102 0 0
0.4884 10.2633 -0.4718 0.804 -0.479 -0.352 143 124 116 0 0
0.5045 10.2850 -0.4727 0.920 -0.277 -0.276 161 143 133 0 0
0.5171 10.3179 -0.4740 0.970 -0.137 -0.203 178 159 150 0 0
0.5522 10.3535 -0.4754 -0.642 -0.682 -0.352 192 172 163 0 0
0.5958 10.2884 -0.4726 -0.133 -0.884 -0.449 193 173 162 0 0
0.6124 10.3092 -0.4735 0.001 -0.801 -0.598 192 172 161 0 0
0.7904 10.6519 -0.4872 0.482 -0.793 -0.373 191 172 163 0 0
0.8066 10.6780 -0.4882 0.436 -0.865 -0.250 189 170 163 0 0
0.8943 11.0517 -0.5034 0.949 -0.307 -0.074 61 44 40 0 0
0.9110 11.0804 -0.5046 -0.364 -0.579 -0.729 46 31 26 0 0
0.9287 11.1054 -0.5056 0.647 -0.692 -0.321 40 25 20 0 0
0.9511 11.1133 -0.5059 0.621 -0.655 0.431 39 26 21 0 0
1.0350 11.2630 -0.5118 0.911 -0.387 0.142 45 34 32 0 0
1.0425 11.3299 -0.5146 0.651 -0.541 0.532 40 29 27 0 0
1.0733 11.3074 -0.5136 0.330 -0.936 -0.122 35 25 24 0 0
1.0860 11.3549 -0.5155 -0.259 -0.392 0.883 38 28 27 0 0
1.1868 11.2520 -0.5111 0.090 -0.899 0.428 86 76 74 0 0
1.2120 11.2502 -0.5110 0.331 -0.922 -0.202 100 89 87 0 0
1.5867 11.2395 -0.5099 0.379 -0.852 -0.362 150 137 129 0 0
1.8825 11.3738 -0.5148 0.492 -0.814 -0.309 162 151 149 0 0
2.3008 11.8828 -0.5350 -0.828 -0.492 -0.268 43 73 101 0 0
2.5054 12.6399 -0.5657 -0.033 -0.200 0.979 92 80 82 0 0
2.7877 12.3488 -0.5532 -0.205 -0.951 0.232 108 93 96 0 0
2.9764 12.5801 -0.5624 -0.079 -0.873 -0.480 162 128 129 0 0
