ply
format ascii 1.0
element vertex 824
property float x
property float y
property float z
property float nx
property float ny
property float nz
property uchar diffuse_red
property uchar diffuse_green
property uchar diffuse_blue
property uchar class
property uchar detection
end_header
3.6836 8.6293 -3.3376 0.079 -0.629 -0.773 92 34 20 32 232
3.8355 8.6906 -3.3562 -0.973 -0.212 0.094 90 34 19 152 232
3.8521 8.6228 -3.3348 -0.967 -0.212 0.145 89 33 18 49 43
4.3322 8.3168 -3.2360 0.621 -0.411 0.668 86 35 18 66 164
5.1397 8.2724 -3.2182 -0.816 -0.455 -0.357 69 31 20 53 43
5.1885 8.2416 -3.2083 0.327 -0.771 0.547 29 8 3 66 164
5.2075 8.2480 -3.2102 0.342 -0.750 0.566 25 9 6 127 96
5.5453 7.5710 -2.9952 -0.010 -0.991 -0.131 81 36 26 176 232
5.5629 7.5749 -2.9964 -0.058 -0.996 -0.064 84 45 36 55 43
5.5878 7.5367 -2.9842 -0.952 -0.286 0.105 115 91 81 8 11
5.6003 7.5179 -2.9782 -0.929 -0.354 0.111 125 106 97 66 164
6.3168 5.6624 -2.3900 -0.288 -0.263 -0.921 56 76 89 60 43
6.2930 5.5633 -2.3589 -0.176 -0.270 -0.947 52 75 88 87 156
6.2835 5.5032 -2.3400 -0.176 -0.270 -0.947 50 74 87 8 11
6.2742 5.4440 -2.3214 -0.176 -0.270 -0.947 49 75 90 66 164
6.2650 5.3858 -2.3031 -0.176 -0.270 -0.947 48 75 92 127 96
6.3606 5.4021 -2.3078 0.139 -0.603 0.786 42 80 104 66 164
7.3264 7.6173 -3.0015 0.822 -0.558 -0.115 202 231 231 87 156
7.1478 5.7435 -2.4117 0.591 -0.148 0.793 229 243 241 127 96
0.0263 7.8422 -3.1242 -0.419 -0.900 0.124 16 13 12 248 232
0.1633 7.9072 -3.1442 0.324 -0.737 0.593 77 37 25 75 43
0.2111 7.9773 -3.1662 0.256 -0.203 0.945 86 37 16 127 96
0.6057 8.0975 -3.2024 0.213 -0.656 -0.724 93 32 15 127 96
0.9706 8.6881 -3.3879 -0.546 -0.417 0.727 92 36 19 78 43
1.0093 8.6055 -3.3615 0.882 -0.297 0.366 91 35 18 87 156
1.0988 8.3048 -3.2658 -0.715 -0.518 -0.469 90 34 17 8 11
1.1198 8.2934 -3.2621 -0.596 -0.532 -0.602 89 33 16 66 164
1.6522 8.1935 -3.2279 0.918 -0.201 0.342 86 31 12 32 232
1.6709 8.1902 -3.2267 0.977 -0.203 0.061 86 32 12 81 43
1.7073 8.0882 -3.1942 0.447 -0.163 0.879 86 32 12 87 156
1.7196 8.1204 -3.2044 0.147 -0.244 0.958 86 32 12 8 11
1.7373 8.1221 -3.2048 0.492 -0.298 0.818 86 31 14 66 164
2.0725 7.4575 -2.9926 -0.963 -0.270 -0.012 85 35 13 82 43
2.2418 7.2044 -2.9115 0.982 -0.181 0.061 80 37 21 82 43
2.2629 7.1693 -2.9003 0.748 -0.443 0.494 81 33 18 87 156
2.2704 7.2347 -2.9210 0.909 -0.415 0.039 84 32 17 8 11
2.3362 7.9279 -3.1404 -0.874 -0.450 -0.182 84 28 13 66 164
2.4290 7.8848 -3.1263 0.150 -0.989 0.013 83 37 22 83 43
2.4900 7.9744 -3.1544 -0.145 -0.601 -0.786 89 36 18 127 96
3.0954 8.3042 -3.2561 0.682 -0.297 0.669 97 40 21 208 232
3.1125 8.3335 -3.2653 0.718 -0.285 0.635 97 40 21 85 43
3.1300 8.3556 -3.2722 0.663 -0.327 0.674 95 39 22 87 156
3.4424 8.1245 -3.1975 0.636 -0.767 0.083 95 37 23 8 11
3.5324 8.3208 -3.2593 0.908 -0.418 -0.015 94 38 23 56 232
3.5509 8.3678 -3.2741 0.922 -0.374 0.096 93 37 22 87 43
4.0252 8.3501 -3.2662 0.040 -0.324 0.945 86 31 17 8 11
4.0595 8.3104 -3.2535 -0.865 -0.176 0.469 88 33 19 127 96
4.1299 8.5749 -3.3370 -0.894 -0.430 0.125 89 36 20 24 232
4.1654 8.5479 -3.3282 0.971 -0.161 0.176 89 36 20 87 156
5.1567 8.2666 -3.2344 -0.762 -0.485 -0.428 66 28 19 87 156
5.1873 8.2349 -3.2242 0.192 -0.929 0.316 35 8 3 66 164
5.2059 8.2384 -3.2252 0.192 -0.929 0.316 25 6 2 127 96
5.3142 8.2430 -3.2261 -0.105 -0.919 0.381 59 29 22 8 11
5.5451 7.5705 -3.0119 0.012 -0.991 0.131 79 37 27 64 232
5.5880 7.5376 -3.0012 -0.946 -0.296 0.133 116 93 82 8 11
5.6003 7.5181 -2.9950 -0.950 -0.280 0.136 126 109 99 66 164
5.8068 7.4138 -2.9610 -0.029 -0.912 -0.410 167 153 144 87 156
5.8344 7.4585 -2.9750 -0.129 -0.957 -0.261 167 152 145 8 11
6.0955 7.4499 -2.9710 0.774 -0.613 -0.159 165 152 145 8 218
6.1130 7.4538 -2.9722 0.768 -0.640 0.014 164 152 145 66 71
5.9962 6.7097 -2.7369 0.417 -0.647 -0.639 162 155 147 87 156
6.2450 5.9112 -2.4826 0.155 -0.647 -0.747 160 154 148 127 96
6.3586 5.3971 -2.3191 0.545 -0.704 -0.454 46 75 93 66 164
7.2177 7.3872 -2.9458 0.877 -0.394 0.276 120 150 153 100 43
7.2722 7.4825 -2.9758 0.843 -0.421 0.335 201 227 226 87 156
7.3091 7.5333 -2.9917 0.803 -0.522 0.286 230 249 249 8 11
-0.2823 7.9552 -3.1793 -0.642 -0.499 -0.582 6 6 6 112 43
0.5994 8.1191 -3.2273 -0.168 -0.775 -0.610 95 33 15 127 96
1.1032 8.3644 -3.3030 -0.712 -0.514 -0.479 90 34 17 66 164
1.1435 8.2705 -3.2729 -0.508 -0.546 -0.666 88 33 15 127 96
1.2705 8.0306 -3.1958 -0.890 -0.449 0.081 88 32 15 117 43
1.6707 8.1913 -3.2451 0.974 -0.195 0.118 88 33 13 119 43
1.7247 8.0913 -3.2130 0.310 -0.205 0.928 88 33 13 8 11
1.7564 8.1159 -3.2207 0.482 -0.174 0.859 87 31 14 127 96
1.8834 8.2228 -3.2541 -0.276 -0.173 0.946 87 32 12 127 96
2.0724 7.4577 -3.0094 -0.965 -0.263 0.004 86 35 12 120 181
2.2423 7.2005 -2.9266 0.979 -0.193 0.063 79 35 19 120 43
2.2524 7.2467 -2.9413 0.975 -0.203 0.094 82 35 19 87 156
2.3327 7.9568 -3.1672 -0.803 -0.594 0.047 85 29 14 66 164
2.4289 7.8849 -3.1438 0.212 -0.973 0.089 81 35 21 121 43
2.4814 8.0585 -3.1989 0.820 -0.539 -0.191 89 36 18 127 96
2.6424 8.4860 -3.3344 0.235 -0.746 0.624 94 35 19 128 232
2.6602 8.4963 -3.3376 0.347 -0.682 0.643 94 35 19 122 43
2.7030 8.6698 -3.3927 -0.428 -0.898 0.104 95 38 21 66 164
3.0234 8.2818 -3.2675 -0.745 -0.218 0.631 98 41 22 66 164
3.1007 8.1684 -3.2310 0.509 -0.733 -0.453 99 42 23 232 232
3.1529 8.2173 -3.2463 0.657 -0.608 -0.446 95 39 22 8 11
3.5322 8.2693 -3.2611 0.779 -0.300 0.551 95 39 24 80 232
3.5505 8.2997 -3.2706 -0.526 -0.824 0.213 94 38 23 125 43
3.5687 8.3067 -3.2728 -0.287 -0.891 0.353 93 37 22 87 156
4.1656 8.5530 -3.3484 0.969 -0.157 0.189 88 35 19 87 156
4.2231 8.5779 -3.3561 -0.588 -0.586 -0.557 88 35 19 127 96
5.0528 8.4132 -3.2996 0.778 -0.482 -0.403 78 30 16 8 11
5.2769 8.2353 -3.2418 -0.167 -0.932 0.320 20 12 13 131 43
5.3128 8.2356 -3.2418 -0.070 -0.982 0.178 46 23 19 8 11
5.3321 8.2432 -3.2441 0.183 -0.944 0.275 60 29 21 66 164
5.3496 8.2410 -3.2433 0.159 -0.986 -0.052 69 31 21 127 96
5.6543 8.5026 -3.3252 0.680 -0.169 0.713 76 32 21 8 11
5.5456 7.5728 -3.0294 0.247 -0.910 0.333 78 37 26 224 232
5.5866 7.5317 -3.0161 -0.931 -0.279 0.234 116 95 83 8 11
5.5986 7.5109 -3.0094 -0.925 -0.307 0.224 127 112 101 66 164
5.8088 7.4222 -2.9801 0.145 -0.986 -0.082 167 153 145 87 156
5.8361 7.4659 -2.9939 -0.213 -0.972 -0.096 167 152 145 8 11
5.9262 7.4957 -3.0030 0.148 -0.989 0.009 128 113 91 72 232
5.9434 7.4982 -3.0037 0.148 -0.989 0.009 130 114 91 134 43
5.9722 7.4819 -2.9984 0.289 -0.954 -0.081 142 125 106 8 11
6.0789 7.4499 -2.9876 0.810 -0.577 -0.104 159 143 133 87 156
6.1167 7.4673 -2.9930 0.723 -0.664 -0.191 160 146 138 66 164
6.0179 6.6805 -2.7427 0.762 -0.516 -0.391 164 152 144 66 164
6.4264 7.6185 -3.0397 0.474 -0.638 -0.606 166 155 146 66 164
6.4831 7.3282 -2.9469 0.306 -0.474 -0.826 164 155 146 127 96
7.2600 7.4523 -2.9827 0.851 -0.353 0.389 187 206 204 87 156
0.1633 7.8550 -3.1627 0.373 -0.180 0.910 32 19 13 160 232
0.2311 7.9172 -3.1823 -0.074 -0.296 0.952 82 35 19 127 96
0.3986 7.8376 -3.1560 -0.616 -0.376 0.692 89 30 17 127 96
0.5221 8.0742 -3.2312 0.835 -0.529 -0.151 96 41 21 8 232
0.5352 8.0910 -3.2365 0.789 -0.614 0.038 97 42 22 154 43
0.5484 8.1074 -3.2417 0.761 -0.637 0.126 98 42 23 79 156
0.5619 8.1232 -3.2467 0.642 -0.766 -0.017 97 39 20 8 11
1.1234 8.3571 -3.3190 -0.400 -0.530 -0.748 90 34 17 127 96
1.2709 8.0288 -3.2130 -0.855 -0.518 0.041 89 33 16 156 43
1.3122 7.9235 -3.1791 0.009 -0.616 -0.788 89 32 15 79 156
1.3138 7.9965 -3.2025 0.647 -0.588 -0.486 89 32 15 8 11
1.3277 8.0144 -3.2081 0.587 -0.607 -0.536 89 30 14 66 164
1.7128 8.0572 -3.2200 0.146 -0.521 0.841 89 32 13 79 156
1.7295 8.0639 -3.2221 0.212 -0.726 0.655 89 32 13 8 11
1.7442 8.0823 -3.2279 0.611 -0.353 0.708 89 33 14 66 164
2.1766 7.2027 -2.9439 0.723 -0.470 -0.507 66 28 13 127 96
2.4276 7.8966 -3.1651 0.766 -0.633 0.112 79 33 20 160 43
2.4489 8.0274 -3.2069 0.965 -0.221 -0.141 84 35 19 8 11
2.6488 8.4079 -3.3279 -0.372 -0.497 0.784 94 35 18 152 232
2.6650 8.4360 -3.3368 -0.543 -0.208 0.813 94 35 18 161 43
2.7015 8.4429 -3.3388 -0.325 -0.149 0.934 96 37 19 8 11
2.7292 8.3203 -3.2994 0.838 -0.164 0.520 95 38 19 66 164
3.1174 8.2001 -3.2590 0.520 -0.698 -0.493 100 43 24 163 43
3.1525 8.2282 -3.2678 0.748 -0.558 -0.358 98 41 23 8 11
3.5504 8.2962 -3.2877 -0.604 -0.795 0.045 95 39 22 164 43
3.5683 8.2615 -3.2765 -0.414 -0.733 0.540 94 38 21 79 156
3.9153 8.3406 -3.3001 0.465 -0.206 0.861 88 32 17 127 96
3.9850 8.2739 -3.2784 -0.177 -0.421 -0.889 86 31 17 165 43
4.0026 8.2645 -3.2753 -0.376 -0.431 -0.820 86 30 17 79 156
4.0205 8.2606 -3.2740 -0.923 -0.338 -0.183 85 29 16 8 11
4.2270 8.6363 -3.3934 -0.636 -0.440 -0.634 89 34 19 127 96
5.0764 8.3301 -3.2912 0.770 -0.576 0.275 76 27 15 127 96
5.2575 8.2274 -3.2574 0.023 -0.988 -0.150 16 10 12 8 232
5.2761 8.2310 -3.2584 -0.013 -1.000 -0.028 15 9 13 170 43
5.3478 8.2318 -3.2583 0.064 -0.992 0.106 60 29 21 127 96
5.5739 7.5499 -3.0387 -0.929 -0.256 0.268 100 73 62 79 156
5.5850 7.5248 -3.0306 -0.931 -0.279 0.234 117 97 85 8 11
5.5971 7.5045 -3.0240 -0.911 -0.328 0.249 129 114 102 66 164
5.8173 7.4567 -3.0076 -0.140 -0.988 -0.070 166 153 145 79 156
5.8390 7.4777 -3.0143 -0.095 -0.995 0.029 166 152 145 8 11
5.9728 7.4843 -3.0157 0.319 -0.941 0.109 118 99 75 8 11
5.9901 7.4873 -3.0166 0.524 -0.844 0.113 121 102 80 66 164
6.0097 7.4990 -3.0203 0.369 -0.929 0.037 123 103 82 127 96
6.0576 7.4323 -2.9986 0.728 -0.648 -0.223 134 117 98 173 43
6.0819 7.4609 -3.0077 0.492 -0.861 -0.131 137 119 104 79 156
6.1012 7.4711 -3.0109 0.779 -0.577 -0.244 138 121 110 8 11
6.1191 7.4764 -3.0125 0.689 -0.683 -0.244 142 126 117 66 164
6.1328 7.4665 -3.0092 0.412 -0.902 -0.129 147 133 124 127 96
6.3367 7.4333 -2.9976 -0.235 -0.430 -0.872 166 154 144 79 156
7.1029 5.0877 -2.2421 -0.332 -0.555 0.763 227 239 239 8 11
-0.2639 7.9536 -3.2141 -0.544 -0.665 -0.512 6 6 6 79 156
-0.2319 7.9163 -3.2019 -0.466 -0.634 -0.618 7 7 7 8 11
-0.2026 7.8861 -3.1920 -0.473 -0.622 -0.623 6 6 6 66 164
0.1743 7.8225 -3.1697 0.399 -0.161 0.903 19 14 10 48 232
0.2437 7.8791 -3.1876 -0.082 -0.213 0.974 73 32 20 127 96
0.2929 7.8912 -3.1913 -0.166 -0.309 0.936 85 38 21 48 232
0.3101 7.8929 -3.1917 0.112 -0.428 0.897 84 36 18 192 43
0.5507 8.0995 -3.2571 0.691 -0.282 0.665 98 43 23 79 156
0.5735 8.1456 -3.2719 0.627 -0.378 0.681 95 38 18 66 164
0.5893 8.1538 -3.2744 0.389 -0.523 0.758 93 35 15 127 96
1.1001 8.4576 -3.3699 -0.273 -0.527 -0.805 91 36 18 127 96
1.2829 7.9749 -3.2134 -0.368 -0.524 -0.768 89 33 16 195 43
1.2982 7.9861 -3.2169 0.077 -0.525 -0.848 89 32 15 79 156
1.3198 8.0505 -3.2376 0.432 -0.584 -0.687 89 30 14 66 164
1.7454 8.0753 -3.2435 0.529 -0.633 0.566 91 34 15 66 220
1.7614 8.0863 -3.2469 0.801 -0.578 0.154 91 34 15 127 156
2.1658 7.2771 -2.9842 0.900 -0.420 0.117 62 24 11 127 137
2.2434 7.1917 -2.9563 0.762 -0.574 -0.300 79 36 19 198 43
2.2641 7.2807 -2.9848 0.965 -0.264 -0.005 86 34 18 8 11
2.3370 7.9194 -3.1904 -0.088 -0.295 0.951 86 33 17 66 164
2.3658 7.8234 -3.1593 0.763 -0.343 -0.548 85 34 17 127 96
2.3990 7.9959 -3.2147 0.974 -0.213 -0.074 80 34 20 56 232
2.4482 8.0340 -3.2267 0.981 -0.179 0.069 83 34 19 8 11
2.4794 8.0772 -3.2405 0.807 -0.454 0.376 88 35 18 127 96
2.5587 8.5895 -3.4052 0.503 -0.351 -0.790 92 35 16 66 164
2.9725 8.2085 -3.2804 0.921 -0.334 -0.199 96 39 20 201 43
2.9877 8.2657 -3.2988 0.931 -0.337 -0.143 95 38 19 79 156
3.1168 8.2146 -3.2817 0.550 -0.794 -0.257 101 44 25 201 43
3.1522 8.2357 -3.2883 0.734 -0.593 -0.332 101 44 25 8 11
3.5685 8.2915 -3.3043 -0.335 -0.783 -0.525 95 39 22 79 156
3.6943 8.2274 -3.2830 0.603 -0.339 0.722 89 33 16 203 43
3.8431 8.3623 -3.3257 -0.490 -0.391 0.779 89 32 15 203 43
4.0056 8.3251 -3.3129 -0.844 -0.362 -0.396 86 30 17 79 156
4.0211 8.2741 -3.2964 -0.926 -0.311 -0.215 85 29 16 8 11
4.0391 8.2725 -3.2958 -0.915 -0.168 0.367 84 28 15 66 164
4.0537 8.2081 -3.2750 -0.602 -0.224 0.766 85 29 16 127 96
4.1357 8.6752 -3.4251 -0.231 -0.420 0.878 86 31 16 216 232
4.4102 8.3812 -3.3291 0.940 -0.332 0.082 83 31 17 200 232
4.9026 8.3842 -3.3276 -0.777 -0.278 0.564 78 30 16 8 11
5.0466 8.6208 -3.4031 -0.574 -0.794 0.202 76 30 15 208 43
5.0756 8.3253 -3.3078 0.792 -0.605 0.073 73 26 14 127 96
5.1367 8.3681 -3.3213 -0.937 -0.323 -0.133 74 26 16 168 232
5.2580 8.2302 -3.2762 0.023 -0.988 -0.150 14 7 9 32 232
5.2760 8.2309 -3.2764 0.285 -0.955 -0.081 13 8 12 209 43
5.3474 8.2299 -3.2757 0.064 -0.992 0.106 49 25 19 127 96
5.5722 7.5427 -3.0531 -0.927 -0.289 0.240 103 77 65 79 156
5.5841 7.5212 -3.0461 -0.922 -0.304 0.239 120 100 88 8 11
5.5956 7.4982 -3.0387 -0.892 -0.389 0.231 130 115 105 66 164
5.8180 7.4598 -3.0252 -0.267 -0.963 0.041 166 153 145 79 156
5.8382 7.4747 -3.0299 0.157 -0.986 0.053 166 152 144 8 11
5.9741 7.4895 -3.0340 0.286 -0.878 0.384 99 78 53 8 11
6.0106 7.5025 -3.0380 0.371 -0.778 0.508 104 83 58 127 96
6.0636 7.4546 -3.0223 0.446 -0.893 -0.064 109 90 67 212 43
6.0819 7.4614 -3.0244 0.457 -0.889 -0.018 104 85 65 79 156
6.1353 7.4757 -3.0287 0.447 -0.860 -0.247 98 83 74 127 96
6.0042 6.6859 -2.7749 0.652 -0.525 -0.547 147 133 126 8 11
6.0374 6.7476 -2.7946 0.652 -0.525 -0.547 151 136 129 66 164
-0.2512 7.9672 -3.2362 -0.473 -0.622 -0.623 6 6 6 8 11
0.3030 7.8600 -3.1987 -0.069 -0.262 0.963 81 37 24 192 232
0.5295 8.0491 -3.2589 0.962 -0.172 -0.214 96 41 20 176 232
0.5380 8.0813 -3.2692 0.911 -0.357 0.208 97 42 21 231 43
0.5513 8.0975 -3.2744 0.892 -0.271 0.362 98 43 22 79 156
0.5582 8.1356 -3.2867 0.844 -0.403 0.355 97 41 20 8 11
0.5735 8.1456 -3.2899 0.427 -0.559 0.711 94 38 17 66 164
0.5924 8.1429 -3.2889 0.073 -0.610 0.789 92 35 15 127 96
0.7321 9.1851 -3.6260 0.030 -0.177 0.984 94 34 17 8 11
0.7514 9.1876 -3.6267 0.050 -0.182 0.982 93 34 18 66 164
1.2567 8.0917 -3.2691 -0.631 -0.745 -0.215 90 34 15 234 43
1.2825 8.0565 -3.2575 0.213 -0.508 -0.834 90 33 15 79 156
1.3123 8.0845 -3.2664 0.311 -0.549 -0.776 90 31 13 66 164
1.3291 8.0902 -3.2682 0.376 -0.475 -0.796 90 31 13 127 96
2.1116 7.1995 -2.9757 0.642 -0.478 -0.600 88 34 13 236 43
2.1685 7.2579 -2.9943 0.959 -0.247 -0.137 59 23 11 127 96
2.2344 7.1392 -2.9555 0.898 -0.389 -0.204 75 35 20 216 232
2.2433 7.1926 -2.9728 0.784 -0.611 -0.113 82 36 20 236 43
2.3624 7.8521 -3.1859 0.826 -0.390 -0.407 87 36 19 127 96
2.4809 8.0620 -3.2534 0.737 -0.393 0.550 87 34 18 127 96
2.5197 8.6042 -3.4289 0.367 -0.409 -0.836 93 36 19 79 156
2.5346 8.6477 -3.4429 0.409 -0.409 -0.816 92 35 18 8 11
2.5929 8.4133 -3.3667 -0.693 -0.480 0.538 92 35 17 127 96
2.7084 8.3520 -3.3462 -0.199 -0.136 0.970 96 37 19 8 11
2.7391 8.1865 -3.2925 0.926 -0.312 0.215 96 38 19 66 164
2.7560 8.2031 -3.2978 0.952 -0.205 -0.227 97 38 20 127 96
2.9517 8.2583 -3.3147 0.867 -0.261 -0.424 97 40 21 48 232
3.1351 8.2063 -3.2969 0.840 -0.444 0.311 100 43 24 79 156
3.1520 8.2400 -3.3078 0.833 -0.367 0.413 100 43 24 8 11
3.5856 8.1782 -3.2856 0.548 -0.183 0.816 94 38 21 8 11
3.6936 8.1934 -3.2900 0.467 -0.181 0.865 91 34 17 242 43
3.7310 8.2547 -3.3097 0.649 -0.157 0.744 90 33 16 8 11
3.7693 8.3389 -3.3368 0.758 -0.164 0.631 90 33 16 127 96
3.8236 8.3263 -3.3324 -0.417 -0.383 0.824 90 33 16 0 232
3.8648 8.4609 -3.3758 -0.306 -0.317 0.898 88 31 15 79 156
4.0071 8.3579 -3.3417 -0.915 -0.312 -0.257 87 31 18 79 156
4.0216 8.2839 -3.3177 -0.923 -0.279 -0.267 86 30 17 8 11
4.0399 8.2877 -3.3188 -0.918 -0.246 -0.312 86 28 16 66 164
4.0519 8.1772 -3.2830 -0.654 -0.351 0.670 86 28 16 127 96
4.1503 8.6089 -3.4224 -0.299 -0.197 0.934 85 30 14 243 43
4.1851 8.5703 -3.4097 0.218 -0.559 0.800 86 30 15 8 11
4.2091 8.6507 -3.4356 0.405 -0.477 -0.780 87 31 16 66 164
4.7413 8.5605 -3.4038 0.670 -0.701 -0.246 83 34 19 245 43
4.7649 8.6026 -3.4173 0.789 -0.612 0.045 82 33 18 79 156
4.8855 8.3928 -3.3487 -0.772 -0.362 0.523 78 30 16 79 156
4.9032 8.3887 -3.3473 -0.627 -0.621 0.469 79 31 17 8 11
5.0173 8.5473 -3.3981 -0.537 -0.475 -0.697 77 30 16 192 232
5.0766 8.3324 -3.3282 0.795 -0.603 -0.068 72 27 15 127 96
5.1945 8.2794 -3.3104 -0.714 -0.529 -0.459 66 25 18 66 164
5.2764 8.2334 -3.2951 0.104 -0.937 -0.334 15 7 10 247 43
5.3453 8.2185 -3.2900 0.196 -0.896 0.398 35 19 15 127 96
5.4667 8.3863 -3.3437 0.474 -0.501 0.724 75 33 21 79 156
5.4876 8.4008 -3.3484 0.709 -0.581 0.400 76 34 20 8 11
5.5709 7.5371 -3.0680 -0.934 -0.300 0.194 105 80 68 79 156
5.5842 7.5220 -3.0631 -0.908 -0.384 0.169 120 102 89 8 11
5.5953 7.4971 -3.0549 -0.896 -0.407 0.179 132 118 108 66 164
5.8398 7.4816 -3.0487 0.274 -0.957 0.094 166 152 143 8 11
5.9564 7.4856 -3.0494 0.145 -0.917 0.372 83 61 35 79 41
5.9722 7.4828 -3.0485 0.259 -0.955 0.144 85 63 39 8 112
6.0067 7.4881 -3.0500 0.372 -0.916 0.151 89 69 43 127 213
6.0639 7.4559 -3.0393 0.359 -0.930 -0.083 100 80 53 250 175
6.0828 7.4647 -3.0420 0.311 -0.950 -0.014 86 67 45 79 226
6.1011 7.4712 -3.0441 0.595 -0.798 -0.090 64 46 29 8 179
6.1370 7.4819 -3.0473 0.447 -0.860 -0.247 48 34 26 127 208
6.2723 6.9156 -2.8631 0.502 -0.418 0.758 165 150 141 96 232
6.5159 7.2811 -2.9804 0.688 -0.659 -0.304 168 154 146 216 232
6.6691 7.4969 -3.0496 0.818 -0.433 -0.378 167 155 145 127 96
-0.0210 8.1806 -3.3223 0.844 -0.124 -0.522 11 13 12 66 164
-0.0242 8.2425 -3.3425 0.844 -0.126 -0.521 11 12 11 127 96
0.2740 7.7876 -3.1927 -0.203 -0.232 0.951 36 20 11 127 96
0.3246 7.7939 -3.1945 0.131 -0.147 0.980 69 31 22 80 232
0.3559 7.8058 -3.1983 0.363 -0.140 0.921 84 35 22 80 156
0.5283 8.0529 -3.2779 0.940 -0.198 -0.278 95 39 19 64 232
0.5392 8.0770 -3.2857 0.929 -0.364 0.070 97 41 20 14 43
0.5496 8.1030 -3.2942 0.933 -0.339 0.119 97 42 21 80 156
0.5582 8.1357 -3.3047 0.926 -0.370 0.080 96 40 19 8 11
0.5720 8.1507 -3.3096 0.782 -0.500 0.373 93 37 16 66 164
0.5956 8.1317 -3.3033 -0.032 -0.665 0.746 91 34 14 127 96
1.0510 8.6700 -3.4764 0.899 -0.196 -0.391 93 38 20 127 96
1.2742 8.0940 -3.2876 0.226 -0.567 -0.792 92 34 16 80 156
1.3193 8.1353 -3.3008 0.454 -0.453 -0.768 91 32 14 127 96
1.8409 7.9334 -3.2324 -0.568 -0.155 0.808 90 34 14 0 232
2.0845 7.2689 -3.0147 0.843 -0.392 0.368 92 36 16 120 232
2.1035 7.2520 -3.0091 0.521 -0.711 -0.472 91 36 16 19 43
2.1313 7.1767 -2.9844 0.740 -0.599 -0.306 88 35 17 80 156
2.1483 7.1718 -2.9828 0.936 -0.282 -0.209 81 34 18 8 11
2.1678 7.2621 -3.0121 0.968 -0.214 -0.134 53 19 7 127 96
2.2334 7.1461 -2.9739 0.903 -0.390 -0.179 74 34 19 240 232
2.3602 7.8707 -3.2094 0.893 -0.353 -0.280 89 38 21 127 96
2.3980 8.0039 -3.2527 0.925 -0.260 -0.278 79 33 19 224 232
2.4819 8.0516 -3.2678 0.837 -0.469 0.282 88 35 19 127 96
2.6955 8.2820 -3.3418 -0.537 -0.111 0.836 96 37 19 80 156
2.7396 8.1797 -3.3082 0.941 -0.324 0.093 95 36 18 66 164
2.7590 8.1610 -3.3021 0.950 -0.228 -0.211 96 37 19 127 96
3.1356 8.1902 -3.3097 0.885 -0.453 -0.112 99 42 23 80 156
3.1524 8.2258 -3.3212 0.885 -0.453 -0.112 100 43 24 8 11
4.0093 8.4042 -3.3751 -0.893 -0.267 -0.362 88 32 19 80 156
4.0238 8.3290 -3.3505 -0.886 -0.315 -0.341 87 31 18 8 11
4.0426 8.3399 -3.3540 -0.894 -0.240 -0.378 87 29 17 66 164
4.1610 8.4841 -3.4004 0.754 -0.148 0.640 84 28 13 80 156
4.1797 8.4887 -3.4017 0.541 -0.190 0.819 85 29 14 8 11
4.2059 8.6038 -3.4391 0.621 -0.351 0.701 86 30 15 66 164
4.3125 8.3027 -3.3405 -0.520 -0.473 -0.711 87 34 18 8 11
4.9173 8.3593 -3.3559 -0.723 -0.690 0.040 77 29 15 66 164
5.0968 8.1190 -3.2767 0.248 -0.737 0.629 71 29 17 200 232
5.2176 8.3104 -3.3385 -0.649 -0.459 -0.607 61 24 18 127 96
5.2776 8.2408 -3.3155 0.104 -0.937 -0.334 19 7 8 30 43
5.3287 8.2264 -3.3106 -0.044 -0.903 0.427 15 9 8 66 164
5.3466 8.2264 -3.3105 0.263 -0.799 0.541 24 13 12 127 96
5.4628 8.3664 -3.3555 0.468 -0.484 0.740 74 32 21 80 156
5.5093 7.7206 -3.1448 -0.914 -0.291 0.281 78 32 19 66 164
5.5707 7.5362 -3.0844 -0.926 -0.343 0.158 108 84 71 80 156
5.5832 7.5177 -3.0783 -0.908 -0.384 0.169 121 103 90 8 11
5.5941 7.4919 -3.0699 -0.884 -0.444 0.147 134 120 110 66 164
5.7756 7.3551 -3.0244 -0.351 -0.860 0.370 165 155 145 33 43
5.8393 7.4798 -3.0647 0.274 -0.957 0.094 166 152 143 8 11
5.9715 7.4802 -3.0642 0.259 -0.955 0.144 76 55 33 8 161
5.9885 7.4823 -3.0648 0.172 -0.949 0.264 75 55 31 66 50
6.0058 7.4851 -3.0656 0.191 -0.978 0.086 76 58 31 127 99
6.0503 7.4667 -3.0594 -0.229 -0.969 0.096 96 78 47 128 191
6.0652 7.4611 -3.0575 0.210 -0.978 -0.013 95 76 48 177 177
6.0827 7.4648 -3.0586 0.210 -0.978 -0.013 80 62 39 86 203
6.1009 7.4708 -3.0605 0.374 -0.926 0.050 55 38 22 8 250
6.1162 7.4668 -3.0591 0.316 -0.946 -0.070 38 23 12 66 74
6.1344 7.4730 -3.0611 0.316 -0.946 -0.070 33 21 15 127 108
5.9577 6.4262 -2.7208 -0.359 -0.920 -0.159 60 52 45 127 97
6.2307 6.9820 -2.9006 0.641 -0.550 -0.535 123 107 101 66 157
6.2650 6.8925 -2.8712 0.536 -0.429 0.727 153 136 128 0 232
6.2899 6.9224 -2.8809 0.747 -0.514 0.422 156 139 130 35 43
6.6358 7.4468 -3.0500 0.801 -0.528 -0.283 168 156 143 66 164
7.0863 5.0559 -2.2687 0.469 -0.881 -0.067 240 255 253 8 104
0.2784 7.7743 -3.2058 -0.205 -0.254 0.945 21 14 9 127 96
0.3361 7.7586 -3.2003 0.100 -0.142 0.985 51 24 16 240 232
0.5319 8.0409 -3.2918 0.907 -0.175 -0.382 96 39 18 224 232
0.5572 8.1388 -3.3238 0.762 -0.498 -0.415 95 39 19 8 11
0.5772 8.1324 -3.3216 0.347 -0.912 -0.219 93 35 16 66 164
0.5936 8.1387 -3.3236 0.249 -0.966 -0.066 91 33 14 127 96
0.8370 8.8411 -3.5525 0.364 -0.138 0.921 94 35 19 66 164
1.2860 8.1217 -3.3145 0.345 -0.452 -0.822 93 35 16 8 11
2.1122 7.1946 -3.0066 0.389 -0.741 -0.548 92 36 17 57 43
2.1669 7.2682 -3.0305 0.968 -0.222 -0.113 50 18 7 127 96
2.2359 7.1281 -2.9842 0.876 -0.478 -0.063 74 35 20 8 232
2.3440 7.8596 -3.2233 0.908 -0.351 -0.229 90 38 22 66 164
2.3586 7.8840 -3.2312 0.893 -0.353 -0.280 90 39 22 127 96
2.3941 8.0391 -3.2819 0.964 -0.169 -0.205 78 32 17 248 232
2.4826 8.0444 -3.2832 0.837 -0.482 0.258 90 36 20 127 96
2.6989 8.2378 -3.3455 -0.537 -0.111 0.836 97 38 20 80 156
2.8233 8.0086 -3.2697 -0.981 -0.184 0.069 99 42 23 96 232
2.9081 8.0731 -3.2905 0.851 -0.265 -0.453 97 40 21 127 96
3.1518 8.2418 -3.3445 0.854 -0.510 0.104 99 42 23 8 11
3.7028 8.6755 -3.4838 -0.915 -0.272 -0.299 95 38 21 63 43
4.2781 8.3278 -3.3670 0.869 -0.478 0.130 87 31 18 65 43
4.2962 8.3271 -3.3667 0.774 -0.504 -0.384 86 32 18 80 156
4.3139 8.3209 -3.3646 -0.635 -0.593 -0.495 86 33 19 8 11
4.5645 8.1189 -3.2971 -0.955 -0.271 -0.123 84 33 16 80 156
4.8602 8.3406 -3.3683 -0.138 -0.691 -0.709 78 29 15 67 43
4.8744 8.3114 -3.3586 -0.068 -0.602 -0.795 78 29 15 80 156
4.8918 8.3059 -3.3568 0.027 -0.634 -0.773 77 28 14 8 11
4.9125 8.3251 -3.3629 0.254 -0.669 -0.699 77 28 14 66 164
5.0949 8.1071 -3.2906 0.500 -0.703 -0.506 68 28 16 104 232
5.1234 8.1741 -3.3124 0.430 -0.899 0.079 69 27 15 68 43
5.1426 8.1831 -3.3152 0.430 -0.899 0.079 71 26 17 80 156
5.2225 8.3403 -3.3664 -0.649 -0.459 -0.607 64 25 19 127 96
5.2606 8.2468 -3.3355 -0.206 -0.909 -0.362 38 14 10 224 232
5.2782 8.2448 -3.3348 0.017 -0.928 -0.371 27 9 6 68 43
5.3432 8.3071 -3.3549 0.323 -0.936 -0.137 13 6 6 66 164
5.3457 8.2218 -3.3269 0.227 -0.865 0.447 18 9 9 127 96
5.4573 8.3381 -3.3645 0.618 -0.588 0.522 72 31 20 80 156
5.5345 8.4551 -3.4024 0.906 -0.274 0.323 76 32 21 127 96
5.5078 7.7141 -3.1597 -0.931 -0.294 0.217 78 31 21 66 164
5.5097 7.6424 -3.1363 -0.515 -0.838 0.179 78 31 20 127 96
5.5405 7.5512 -3.1062 0.226 -0.974 0.029 81 42 32 72 232
5.5707 7.5367 -3.1013 -0.947 -0.315 0.059 109 87 74 80 156
5.5830 7.5169 -3.0948 -0.922 -0.378 0.080 121 105 92 8 11
5.5931 7.4880 -3.0853 -0.886 -0.450 0.114 134 122 111 66 164
5.7725 7.3427 -3.0368 -0.038 -0.866 0.498 165 155 146 71 43
5.8388 7.4781 -3.0808 0.274 -0.957 0.094 166 152 144 8 11
5.9218 7.4798 -3.0809 -0.486 -0.846 0.220 91 70 47 176 232
5.9379 7.4783 -3.0804 -0.253 -0.911 0.325 80 60 38 71 43
5.9547 7.4793 -3.0806 0.061 -0.947 0.316 77 58 38 80 156
6.0022 7.4719 -3.0779 -0.105 -0.948 0.299 70 54 30 127 96
6.0499 7.4656 -3.0756 -0.028 -0.997 0.073 92 77 47 40 232
6.0656 7.4627 -3.0746 0.248 -0.969 -0.019 91 76 48 72 43
6.0834 7.4676 -3.0761 0.159 -0.987 0.002 75 60 38 80 156
6.1002 7.4687 -3.0764 0.083 -0.997 -0.009 51 37 22 8 11
6.1342 7.4725 -3.0775 0.223 -0.972 -0.078 30 21 19 127 96
6.2655 6.8942 -2.8873 -0.527 -0.460 0.715 105 90 84 144 232
6.2762 6.8793 -2.8824 0.544 -0.436 0.717 115 99 92 73 43
6.2935 6.8854 -2.8843 0.455 -0.412 0.789 125 108 100 80 156
6.6825 7.5372 -3.0959 0.816 -0.533 -0.222 166 155 142 127 96
6.9490 6.1857 -2.6518 -0.833 -0.324 -0.448 159 154 150 80 232
6.8683 5.5966 -2.4592 -0.159 -0.348 -0.924 163 163 166 127 96
7.0170 5.2603 -2.3482 -0.912 -0.377 -0.163 240 252 252 127 96
-0.0582 8.1304 -3.3421 0.390 -0.888 -0.243 12 12 10 89 43
-0.0460 8.1475 -3.3477 0.810 -0.547 -0.210 13 13 11 80 156
0.3086 7.6311 -3.1758 -0.569 -0.299 0.766 10 11 7 66 164
0.3800 7.7308 -3.2083 0.357 -0.119 0.926 58 26 19 80 156
0.3897 7.7551 -3.2163 0.395 -0.157 0.905 69 31 20 8 11
0.4718 7.8857 -3.2589 0.937 -0.238 0.258 86 32 15 80 156
0.4814 7.9121 -3.2675 0.376 -0.378 0.846 88 32 14 8 11
0.5957 8.1310 -3.3390 0.058 -0.765 -0.641 91 32 14 127 96
1.2864 8.2867 -3.3868 0.126 -0.432 -0.893 93 34 16 127 96
1.9706 7.6736 -3.1814 -0.520 -0.723 -0.454 93 39 18 127 96
2.0902 7.2316 -3.0352 0.973 -0.226 0.037 95 37 17 48 232
2.1105 7.2057 -3.0266 0.501 -0.694 -0.517 92 36 17 96 43
2.1401 7.2270 -3.0334 0.688 -0.636 -0.348 77 34 18 8 11
2.1548 7.2385 -3.0371 0.795 -0.485 -0.365 64 28 16 66 164
2.1671 7.2665 -3.0463 0.831 -0.480 -0.283 49 19 9 127 96
2.3920 8.0575 -3.3057 0.962 -0.165 -0.218 79 32 17 152 232
2.7024 8.1930 -3.3488 -0.559 -0.111 0.822 98 39 21 80 156
2.7298 8.0714 -3.3086 -0.557 -0.201 0.806 98 39 21 8 11
2.7626 8.1107 -3.3213 -0.821 -0.254 0.511 98 40 22 127 96
2.8230 8.0118 -3.2885 -0.975 -0.189 0.117 100 43 24 0 232
2.8942 8.0079 -3.2868 0.957 -0.150 0.247 99 42 23 66 164
3.2722 8.5329 -3.4578 -0.979 -0.122 0.161 99 43 26 80 156
3.3346 8.1315 -3.3253 -0.959 -0.118 0.260 96 40 23 127 96
3.7208 8.6397 -3.4907 -0.978 -0.200 -0.053 94 37 20 80 156
4.1709 8.3552 -3.3948 0.741 -0.160 0.652 84 28 13 8 11
4.3153 8.3397 -3.3889 -0.635 -0.593 -0.495 84 31 17 8 11
4.3321 8.3221 -3.3830 -0.723 -0.473 -0.504 85 32 18 66 164
4.8799 8.3526 -3.3903 -0.068 -0.602 -0.795 79 30 16 80 156
4.9166 8.3552 -3.3910 0.224 -0.668 -0.710 78 29 15 66 164
5.0976 8.1244 -3.3140 0.106 -0.811 -0.575 67 27 15 8 232
5.1665 8.2203 -3.3453 -0.276 -0.938 -0.211 67 24 15 8 11
5.2013 8.3218 -3.3785 -0.193 -0.641 -0.743 65 24 16 66 164
5.2172 8.3092 -3.3743 -0.348 -0.625 -0.699 63 23 16 127 96
5.2614 8.2514 -3.3550 0.008 -0.917 -0.398 47 18 13 128 232
5.2793 8.2515 -3.3550 0.008 -0.917 -0.398 36 12 7 106 43
5.3100 8.2224 -3.3452 -0.208 -0.952 0.226 17 6 4 8 11
5.3991 8.2207 -3.3442 -0.398 -0.802 0.446 60 27 23 248 232
5.4198 8.2358 -3.3491 -0.743 -0.566 0.357 67 28 22 106 43
5.4873 8.4006 -3.4030 0.794 -0.344 0.501 74 31 18 8 11
5.5062 7.7067 -3.1744 -0.944 -0.295 0.146 79 32 22 66 164
5.5403 7.5507 -3.1228 0.226 -0.974 0.029 81 42 33 232 232
5.5531 7.5326 -3.1168 -0.912 -0.385 0.139 94 63 53 107 43
5.5703 7.5351 -3.1175 -0.947 -0.315 0.059 110 88 76 80 156
5.5822 7.5136 -3.1104 -0.928 -0.371 0.043 121 106 94 8 11
5.5923 7.4846 -3.1008 -0.865 -0.492 0.095 134 123 112 66 164
5.8141 7.4454 -3.0867 -0.146 -0.964 0.223 165 153 144 80 156
5.8382 7.4761 -3.0967 0.301 -0.952 0.057 166 152 143 8 11
5.9208 7.4764 -3.0964 -0.486 -0.846 0.220 85 65 44 80 232
5.9365 7.4734 -3.0953 -0.268 -0.917 0.294 73 55 36 109 43
5.9527 7.4720 -3.0948 -0.059 -0.980 0.191 72 55 38 80 156
6.0495 7.4644 -3.0918 -0.028 -0.997 0.073 90 76 49 200 232
6.0656 7.4630 -3.0913 0.248 -0.969 -0.019 91 77 52 109 43
6.0833 7.4676 -3.0927 0.159 -0.987 0.002 72 60 40 80 156
6.1002 7.4688 -3.0930 0.083 -0.997 -0.009 47 36 24 8 11
6.1326 7.4669 -3.0922 -0.199 -0.972 0.127 27 22 22 127 96
6.6904 7.5607 -3.1203 0.829 -0.526 -0.188 162 154 142 127 96
6.8649 6.4328 -2.7479 -0.603 -0.541 0.587 171 161 152 8 11
6.7666 4.4776 -2.1043 -0.355 -0.305 -0.884 238 253 250 118 43
-0.0550 8.1212 -3.3571 0.132 -0.875 0.466 11 11 10 127 43
-0.0294 8.2043 -3.3845 0.945 -0.110 0.309 12 11 9 66 164
0.3482 7.5126 -3.1535 0.329 -0.579 -0.746 10 10 9 66 164
0.5507 7.7431 -3.2288 0.896 -0.123 0.427 90 33 17 66 164
0.5538 8.1503 -3.3636 0.203 -0.737 -0.644 95 36 18 8 11
1.2674 8.2892 -3.4060 0.330 -0.366 -0.870 95 36 18 66 164
1.2769 8.3302 -3.4195 0.334 -0.369 -0.867 95 36 18 127 96
1.4058 8.2415 -3.3895 -0.865 -0.501 0.029 87 32 12 8 11
2.0935 7.2095 -3.0442 0.937 -0.219 -0.273 97 39 20 72 232
2.1385 7.2373 -3.0532 0.594 -0.716 -0.366 73 32 16 8 11
2.1527 7.2522 -3.0580 0.744 -0.575 -0.341 57 25 12 66 164
2.3906 8.0698 -3.3276 0.967 -0.150 -0.206 79 32 17 176 232
2.4204 8.2948 -3.4019 0.945 -0.307 0.113 91 40 23 8 11
2.6727 8.1134 -3.3406 -0.826 -0.125 0.550 96 35 17 160 232
2.7297 8.0716 -3.3264 -0.744 -0.313 0.591 99 40 22 8 11
2.7629 8.1057 -3.3376 -0.748 -0.272 0.606 100 41 23 127 96
3.3872 8.2253 -3.3740 -0.906 -0.313 0.284 95 38 21 248 232
3.4056 8.1857 -3.3608 -0.916 -0.336 0.218 96 39 22 138 43
3.4239 8.1428 -3.3465 -0.923 -0.328 0.201 96 39 22 80 156
4.2029 8.2919 -3.3919 0.110 -0.226 0.968 83 27 14 127 105
4.2548 8.2601 -3.3811 0.904 -0.363 0.226 84 28 15 200 232
4.3190 8.3869 -3.4227 0.763 -0.238 0.601 85 29 16 8 11
4.3303 8.3012 -3.3943 -0.084 -0.914 0.398 85 30 17 66 164
4.3457 8.2686 -3.3834 -0.019 -0.896 0.443 86 31 17 127 96
5.1089 8.1960 -3.3555 -0.559 -0.734 -0.385 68 26 13 32 232
5.2065 8.3534 -3.4071 -0.193 -0.641 -0.743 63 23 13 66 164
5.2232 8.3450 -3.4042 -0.193 -0.641 -0.743 62 21 14 127 96
5.2628 8.2599 -3.3758 0.083 -0.935 -0.346 55 19 13 152 232
5.2783 8.2460 -3.3712 0.351 -0.933 -0.074 46 16 11 145 43
5.3974 8.2124 -3.3594 -0.382 -0.803 0.458 62 28 23 16 232
5.4827 8.3771 -3.4135 0.809 -0.378 0.451 76 31 20 8 11
5.5061 7.7063 -3.1913 -0.928 -0.314 0.201 80 33 23 66 164
5.5402 7.5501 -3.1394 0.226 -0.974 0.029 82 43 34 0 232
5.5528 7.5317 -3.1332 -0.924 -0.368 0.106 96 65 55 147 43
5.5698 7.5331 -3.1336 -0.948 -0.311 0.071 111 89 78 80 156
5.5838 7.5214 -3.1296 -0.960 -0.276 0.052 122 107 96 8 11
5.5917 7.4822 -3.1166 -0.882 -0.458 0.109 136 126 115 66 164
5.7774 7.4300 -3.0984 -0.444 -0.873 0.202 165 154 145 240 232
5.7804 7.3753 -3.0802 0.066 -0.877 0.476 164 154 145 147 43
5.8125 7.4391 -3.1012 0.164 -0.977 0.138 165 153 145 80 156
5.8379 7.4751 -3.1130 0.301 -0.952 0.057 165 151 143 8 11
5.9202 7.4743 -3.1123 -0.506 -0.848 0.158 77 57 36 104 232
5.9352 7.4684 -3.1103 -0.253 -0.911 0.325 62 45 27 148 43
5.9518 7.4690 -3.1104 -0.059 -0.980 0.191 61 45 30 80 156
5.9665 7.4620 -3.1080 0.095 -0.851 0.516 62 47 33 8 11
5.9825 7.4604 -3.1074 -0.012 -0.980 0.197 63 50 35 66 164
6.0492 7.4632 -3.1080 0.038 -0.999 -0.016 85 72 48 224 232
6.0833 7.4675 -3.1092 0.159 -0.987 0.002 69 57 40 80 156
6.1001 7.4689 -3.1096 0.083 -0.997 -0.009 47 36 25 8 11
6.1319 7.4649 -3.1081 -0.199 -0.972 0.127 28 26 25 127 96
6.5831 7.4369 -3.0965 0.317 -0.946 -0.072 77 72 66 150 43
6.5948 7.4228 -3.0918 0.513 -0.816 -0.267 93 88 81 80 156
6.6959 7.5773 -3.1424 0.829 -0.526 -0.188 158 152 141 127 96
6.9120 6.5498 -2.8010 -0.706 -0.708 -0.018 170 162 152 8 11
6.8425 4.5824 -2.1498 -0.272 -0.351 -0.896 237 249 245 8 11
-0.0177 8.1707 -3.3914 0.981 -0.131 0.142 11 10 8 66 164
0.5469 7.6985 -3.2313 0.872 -0.132 0.471 87 35 20 8 11
0.5559 7.7259 -3.2403 0.872 -0.132 0.471 89 34 19 66 164
0.5351 8.0297 -3.3416 0.972 -0.105 -0.208 93 35 17 40 232
0.5842 8.1709 -3.3883 0.253 -0.762 -0.596 91 32 16 127 96
2.0911 7.2251 -3.0657 0.929 -0.225 -0.293 96 38 20 112 232
2.1368 7.2484 -3.0732 0.205 -0.818 -0.538 68 29 14 8 11
2.1511 7.2630 -3.0780 0.699 -0.632 -0.336 48 18 6 66 164
2.2374 7.1164 -3.0287 0.925 -0.302 0.232 75 37 25 232 232
2.3884 8.0889 -3.3517 0.967 -0.150 -0.206 79 32 16 216 232
2.6288 8.0008 -3.3212 0.708 -0.459 -0.537 90 33 16 127 96
2.7318 8.0431 -3.3347 -0.766 -0.295 0.571 98 39 21 8 11
2.8218 8.0286 -3.3294 -0.965 -0.223 0.135 99 42 23 64 232
3.3874 8.1967 -3.3825 -0.797 -0.293 0.528 97 40 23 168 232
3.4058 8.1633 -3.3713 -0.788 -0.294 0.541 97 40 23 176 43
4.1420 8.1904 -3.3765 -0.066 -0.607 0.792 85 29 16 80 156
4.1616 8.2158 -3.3849 0.229 -0.669 0.707 85 29 16 8 11
4.2539 8.2489 -3.3954 0.904 -0.363 0.226 84 28 15 120 232
4.3150 8.3366 -3.4243 0.823 -0.507 -0.254 85 29 16 8 11
4.3377 8.3928 -3.4429 0.808 -0.535 -0.247 85 29 16 66 164
5.2355 8.4190 -3.4470 -0.239 -0.591 -0.771 64 22 13 127 96
5.2644 8.2696 -3.3971 0.149 -0.944 -0.293 59 19 12 192 232
5.2785 8.2476 -3.3897 0.351 -0.933 -0.074 53 19 11 182 43
5.3968 8.2093 -3.3763 -0.512 -0.846 0.149 65 29 23 56 232
5.5134 8.3489 -3.4222 0.885 -0.242 0.397 79 32 23 127 96
5.5043 7.6984 -3.2057 -0.908 -0.299 0.293 80 33 23 66 164
5.5402 7.5505 -3.1562 -0.906 -0.418 0.072 84 44 36 40 232
5.5697 7.5331 -3.1503 -0.943 -0.332 0.032 113 90 80 80 156
5.5834 7.5198 -3.1458 -0.960 -0.276 0.052 123 109 97 8 11
5.7724 7.4100 -3.1082 -0.879 -0.470 0.086 164 154 144 24 232
5.7785 7.3681 -3.0943 0.353 -0.848 0.395 164 154 145 185 43
5.8123 7.4387 -3.1176 0.319 -0.943 0.091 165 154 147 80 156
5.8377 7.4747 -3.1294 0.146 -0.989 -0.001 164 150 143 8 11
5.9194 7.4714 -3.1279 -0.489 -0.868 0.088 73 52 30 144 232
5.9336 7.4626 -3.1249 -0.156 -0.954 0.256 58 40 21 185 43
5.9495 7.4604 -3.1241 0.046 -0.972 0.232 55 39 23 80 156
5.9651 7.4571 -3.1229 0.225 -0.842 0.490 58 44 30 8 11
5.9816 7.4573 -3.1229 -0.012 -0.980 0.197 60 46 34 66 164
6.0492 7.4635 -3.1246 0.038 -0.999 -0.016 80 67 46 8 232
6.0657 7.4637 -3.1246 0.248 -0.969 -0.019 84 71 51 186 43
6.0832 7.4675 -3.1258 0.159 -0.987 0.002 66 53 37 80 156
6.1001 7.4691 -3.1262 0.083 -0.997 -0.009 49 39 28 8 11
6.1314 7.4631 -3.1241 -0.192 -0.976 0.098 37 34 32 127 96
6.2287 7.4581 -3.1219 0.156 -0.960 0.233 42 39 39 8 11
6.2431 7.4512 -3.1195 -0.046 -0.984 0.171 45 41 41 66 164
6.3635 7.4690 -3.1248 -0.139 -0.795 0.590 45 42 39 8 11
6.3838 7.2718 -3.0591 0.070 -0.489 -0.869 39 35 34 112 232
6.4017 7.2777 -3.0609 0.070 -0.489 -0.869 41 37 35 187 43
6.4101 7.2533 -3.0528 0.025 -0.483 -0.875 44 39 37 80 156
6.4581 7.2528 -3.0524 0.070 -0.535 -0.842 36 33 31 127 96
6.5637 7.4280 -3.1102 0.473 -0.881 -0.005 36 34 30 232 232
6.5828 7.4361 -3.1127 0.500 -0.866 0.008 42 39 35 187 43
6.5987 7.4348 -3.1122 0.530 -0.842 -0.102 60 56 51 80 156
6.6181 7.4440 -3.1152 0.441 -0.883 -0.160 92 88 82 8 11
6.6869 7.5508 -3.1504 0.733 -0.650 -0.202 155 150 141 127 96
6.9039 6.5299 -2.8094 -0.664 -0.706 0.245 169 163 152 8 11
6.9850 5.2208 -2.3731 -0.238 -0.309 -0.921 186 192 189 66 164
6.9877 5.2010 -2.3665 -0.205 -0.320 -0.925 195 201 197 127 96
0.5527 7.6233 -3.2233 -0.040 -0.968 -0.247 82 36 21 80 156
0.5654 7.7518 -3.2662 0.878 -0.162 0.450 88 34 18 127 96
0.5833 8.1738 -3.4074 0.685 -0.493 -0.536 90 32 16 127 96
0.6627 9.5454 -3.8661 -0.818 -0.172 0.550 97 40 21 66 164
0.7110 9.4328 -3.8282 -0.848 -0.237 0.474 97 40 21 127 96
1.1049 10.3446 -4.1313 0.891 -0.292 -0.347 89 32 13 208 43
1.1208 10.3760 -4.1418 0.559 -0.196 0.806 90 33 14 80 156
1.1558 10.3089 -4.1191 -0.365 -0.176 0.914 91 34 15 8 11
2.0888 7.2399 -3.0869 0.924 -0.212 -0.319 94 37 19 152 232
2.1237 7.2260 -3.0821 0.716 -0.443 -0.539 81 35 19 80 156
2.1348 7.2615 -3.0940 0.205 -0.818 -0.538 63 26 11 8 11
2.1495 7.2734 -3.0978 0.662 -0.610 -0.435 41 15 2 66 164
2.2389 7.1050 -3.0410 0.852 -0.442 0.281 74 36 24 16 232
2.3863 8.1073 -3.3758 0.984 -0.134 -0.121 82 35 19 0 232
2.4764 8.1033 -3.3740 0.940 -0.299 -0.162 93 37 20 127 96
2.6238 8.0562 -3.3574 -0.597 -0.690 -0.409 89 33 16 127 96
2.6758 8.0747 -3.3633 -0.500 -0.163 0.850 96 35 17 240 232
4.1610 8.2070 -3.3999 0.156 -0.751 0.642 85 29 16 8 11
4.2530 8.2377 -3.4097 0.880 -0.378 0.288 84 28 15 24 232
4.2933 8.2926 -3.4278 0.830 -0.497 -0.253 84 28 15 80 156
4.3159 8.3495 -3.4468 0.823 -0.507 -0.254 84 28 15 8 11
4.9557 7.7722 -3.2502 0.031 -0.504 -0.863 77 31 16 8 11
5.1095 8.2008 -3.3929 -0.341 -0.668 0.661 75 26 14 232 232
5.1276 8.2022 -3.3933 -0.707 -0.498 0.502 73 27 13 219 43
5.2402 8.4472 -3.4747 -0.232 -0.532 -0.814 67 25 14 127 96
5.3097 8.2219 -3.3989 -0.213 -0.953 -0.217 49 19 12 8 11
5.3464 8.2271 -3.4005 0.199 -0.903 -0.380 47 19 12 127 96
5.5393 7.5470 -3.1718 -0.958 -0.285 0.022 85 45 37 200 232
5.5694 7.5322 -3.1667 -0.943 -0.332 0.032 113 90 81 80 156
5.5827 7.5169 -3.1615 -0.957 -0.278 0.086 124 110 99 8 11
5.7624 7.3693 -3.1112 -0.873 -0.477 -0.106 165 155 145 184 232
5.7767 7.3608 -3.1082 0.353 -0.848 0.395 164 154 145 222 43
5.8143 7.4471 -3.1369 0.282 -0.958 0.058 164 154 147 80 156
5.8375 7.4739 -3.1458 0.165 -0.986 -0.003 163 150 143 8 11
5.9325 7.4587 -3.1402 -0.156 -0.954 0.256 65 45 24 223 43
5.9715 7.5450 -3.1689 -0.078 -0.804 0.589 61 44 26 80 156
6.0491 7.4638 -3.1413 0.038 -0.999 -0.016 81 65 46 48 232
6.0662 7.4657 -3.1418 0.152 -0.988 -0.040 82 66 49 224 43
6.0832 7.4678 -3.1425 0.083 -0.997 -0.009 63 48 33 80 156
6.1001 7.4692 -3.1428 0.083 -0.997 -0.009 49 37 26 8 11
6.1309 7.4616 -3.1401 -0.192 -0.976 0.098 43 38 34 127 96
6.2274 7.4543 -3.1372 0.156 -0.960 0.233 42 40 37 8 11
6.2588 7.4492 -3.1353 -0.302 -0.951 0.060 33 29 26 127 96
6.3435 7.4576 -3.1377 0.139 -0.878 0.458 48 43 40 80 156
6.3740 7.4500 -3.1350 -0.565 -0.582 0.585 43 38 34 66 164
6.4562 7.4504 -3.1347 0.339 -0.926 0.167 49 45 43 225 43
6.4692 7.4397 -3.1310 -0.338 -0.885 0.319 49 45 43 80 156
6.4840 7.4347 -3.1293 -0.338 -0.885 0.319 47 44 42 8 11
6.4769 7.3113 -3.0880 0.070 -0.535 -0.842 42 41 38 127 96
6.5631 7.4264 -3.1261 0.336 -0.927 -0.165 34 32 28 16 232
6.5821 7.4342 -3.1286 0.230 -0.958 -0.169 38 35 32 226 43
6.6002 7.4395 -3.1303 0.329 -0.937 -0.116 54 50 45 80 156
6.6181 7.4441 -3.1317 0.563 -0.816 -0.130 89 84 78 8 11
6.6934 7.5705 -3.1737 0.695 -0.716 -0.068 156 150 142 127 96
0.4452 7.6901 -3.2634 0.294 -0.177 0.939 21 11 10 127 96
0.5488 7.6357 -3.2445 -0.253 -0.948 -0.195 73 34 20 80 156
0.5678 7.6302 -3.2426 -0.253 -0.948 -0.195 78 35 21 8 11
0.5726 7.6708 -3.2562 0.507 -0.467 0.724 81 35 20 66 164
0.5761 7.7164 -3.2716 0.748 -0.150 0.647 84 35 19 127 96
0.5624 8.2458 -3.4498 0.281 -0.520 0.806 89 32 15 127 96
0.7257 9.3725 -3.8281 -0.815 -0.224 0.535 98 41 22 127 96
0.8146 9.5135 -3.8751 0.890 -0.332 -0.313 98 41 24 8 11
1.0995 10.3715 -4.1623 0.917 -0.254 0.307 90 33 14 246 30
1.1236 10.3612 -4.1587 0.636 -0.198 0.745 91 34 15 80 197
1.1665 10.2524 -4.1219 -0.388 -0.191 0.902 92 35 16 8 159
1.1992 10.1955 -4.1026 -0.136 -0.218 0.966 92 35 16 66 243
2.1318 7.2816 -3.1171 0.368 -0.638 -0.677 59 23 7 8 75
2.2418 7.0841 -3.0501 -0.683 -0.652 0.329 73 37 25 160 232
2.3561 7.9039 -3.3253 0.990 -0.133 0.055 91 41 27 127 96
2.3864 8.1058 -3.3931 0.984 -0.141 -0.106 86 39 23 144 232
2.4368 8.3119 -3.4622 0.943 -0.283 0.177 92 39 21 66 164
2.5956 7.7841 -3.2837 -0.114 -0.232 0.966 93 36 20 80 156
2.6024 7.8998 -3.3227 -0.354 -0.370 0.859 91 34 18 8 11
2.7036 7.9498 -3.3390 -0.742 -0.616 -0.265 95 34 16 250 43
3.3141 8.2599 -3.4401 -0.932 -0.265 -0.248 98 43 23 66 164
3.5662 8.0300 -3.3614 0.467 -0.765 0.444 95 38 21 80 156
3.5845 8.1003 -3.3850 -0.354 -0.918 -0.179 94 37 20 8 11
4.1598 8.1903 -3.4122 0.112 -0.789 0.604 86 30 17 8 11
4.1755 8.1579 -3.4012 0.561 -0.353 0.748 86 30 17 66 164
4.2518 8.2225 -3.4226 0.856 -0.457 0.241 83 27 14 48 232
4.2727 8.2612 -3.4355 0.871 -0.491 0.023 83 27 14 0 43
4.2947 8.3111 -3.4522 0.690 -0.536 -0.486 83 27 14 81 156
4.3136 8.3211 -3.4555 0.513 -0.492 -0.704 83 27 14 8 11
4.9652 7.8355 -3.2886 -0.174 -0.449 -0.877 78 32 16 8 11
5.1195 8.1525 -3.3945 -0.776 -0.413 0.477 75 27 13 3 43
5.2182 8.5362 -3.5231 0.476 -0.573 -0.667 69 28 14 8 11
5.2607 8.2495 -3.4264 -0.505 -0.857 -0.102 67 23 14 120 232
5.2758 8.2330 -3.4207 -0.627 -0.777 -0.064 62 22 14 3 43
5.3480 8.2363 -3.4215 0.199 -0.903 -0.380 58 23 15 127 96
5.5395 7.5480 -3.1888 -0.954 -0.297 -0.039 85 45 38 224 232
5.5640 7.5076 -3.1751 -0.890 -0.456 -0.003 113 89 80 81 156
5.5836 7.5212 -3.1796 -0.963 -0.267 -0.012 126 110 99 8 11
5.5941 7.4938 -3.1703 -0.957 -0.290 -0.025 142 132 122 66 164
5.7630 7.3721 -3.1285 -0.873 -0.477 -0.106 165 155 145 176 232
5.7759 7.3579 -3.1236 0.328 -0.902 0.281 164 154 145 179 43
5.8140 7.4460 -3.1531 0.282 -0.958 0.058 164 154 146 86 156
5.8361 7.4689 -3.1607 0.331 -0.941 -0.069 163 150 142 8 11
5.9629 7.5761 -3.1961 -0.095 -0.994 -0.050 78 59 36 5 43
5.9690 7.5354 -3.1824 -0.078 -0.804 0.589 75 58 37 81 156
5.9947 7.4452 -3.1519 -0.064 -0.913 0.403 64 48 33 127 96
6.0827 7.4664 -3.1586 0.138 -0.987 -0.077 61 45 30 81 156
6.0999 7.4689 -3.1593 0.138 -0.987 -0.077 43 29 18 8 11
6.1170 7.4713 -3.1600 0.138 -0.987 -0.077 42 32 25 66 164
6.1303 7.4600 -3.1561 -0.092 -0.991 0.098 37 32 26 127 96
6.2585 7.4483 -3.1515 -0.302 -0.951 0.060 33 30 25 127 96
6.3409 7.4493 -3.1514 -0.150 -0.774 0.615 51 44 39 81 156
6.5578 7.4103 -3.1372 0.044 -0.982 -0.183 34 30 26 40 232
6.5810 7.4312 -3.1441 -0.325 -0.931 -0.165 39 34 30 8 43
6.5966 7.4289 -3.1432 0.075 -0.991 -0.109 57 52 46 81 156
6.6168 7.4403 -3.1470 0.436 -0.900 -0.007 95 89 82 8 11
6.7084 7.6153 -3.2054 0.868 -0.486 -0.103 158 149 141 127 96
0.0249 7.8950 -3.3522 0.914 -0.382 0.140 5 6 7 23 43
0.1872 7.8357 -3.3313 0.252 -0.848 0.467 10 11 8 24 43
0.4427 7.5896 -3.2466 -0.581 -0.642 0.501 12 10 9 8 11
0.4429 7.6428 -3.2646 0.279 -0.225 0.933 13 10 9 66 164
0.5476 7.6395 -3.2630 -0.351 -0.932 -0.087 55 27 18 81 156
0.5658 7.6364 -3.2618 -0.086 -0.438 0.895 65 31 21 8 11
0.7865 9.6330 -3.9361 0.784 -0.204 -0.587 99 43 24 40 11
1.3196 8.3888 -3.5124 0.005 -0.435 -0.901 94 37 18 232 232
1.3382 8.3888 -3.5123 0.005 -0.435 -0.901 93 37 17 27 43
1.0969 10.2727 -4.1509 -0.873 -0.488 0.007 93 35 17 96 232
1.1264 10.2338 -4.1375 -0.716 -0.420 0.558 93 35 17 28 43
1.1491 10.2294 -4.1359 -0.404 -0.220 0.888 92 34 16 81 156
1.1741 10.2125 -4.1301 -0.403 -0.227 0.886 92 34 15 8 11
1.2690 9.9395 -4.0372 -0.618 -0.265 0.740 92 34 15 127 96
1.8223 7.4425 -3.1896 -0.159 -0.579 -0.800 95 38 16 81 156
1.8418 7.4278 -3.1845 -0.262 -0.601 -0.755 95 38 16 8 11
2.1342 7.2652 -3.1279 0.685 -0.542 -0.487 58 21 6 8 11
2.2428 7.0763 -3.0635 -0.683 -0.652 0.329 68 36 24 64 232
2.3582 7.8852 -3.3365 0.993 -0.119 -0.008 90 42 27 127 96
2.4312 8.3655 -3.4986 0.750 -0.449 -0.485 93 40 20 66 164
2.6016 7.9084 -3.3430 -0.405 -0.430 0.806 95 35 16 8 11
2.6262 8.0284 -3.3835 0.698 -0.589 -0.408 92 32 14 127 96
2.7559 8.1985 -3.4404 -0.223 -0.826 -0.518 97 38 21 127 96
2.8242 7.9905 -3.3697 -0.667 -0.281 0.690 99 38 22 32 232
2.8554 8.0553 -3.3914 0.214 -0.439 -0.872 98 41 22 81 156
3.5482 7.9779 -3.3616 -0.272 -0.451 0.850 95 36 19 35 43
3.5662 8.0377 -3.3817 0.734 -0.540 0.413 93 36 19 81 156
4.1721 8.1069 -3.4019 0.630 -0.100 0.770 88 30 17 66 164
5.3002 8.1698 -3.4172 0.155 -0.554 0.818 64 23 14 8 11
5.3409 8.1977 -3.4264 0.145 -0.867 0.477 65 24 15 127 96
5.5756 7.4854 -3.1842 -0.788 -0.615 0.039 127 107 98 8 11
5.7732 7.3470 -3.1364 0.228 -0.865 0.447 164 154 143 43 43
5.8124 7.4401 -3.1676 0.254 -0.957 0.139 165 154 143 81 156
5.8364 7.4703 -3.1777 0.331 -0.941 -0.069 163 152 141 8 11
5.9476 7.3913 -3.1504 0.584 -0.797 0.156 87 71 50 8 11
5.9870 7.4164 -3.1587 0.550 -0.831 0.082 77 60 40 127 96
6.0830 7.4678 -3.1756 0.138 -0.987 -0.077 57 42 28 81 12
6.1007 7.4719 -3.1769 0.361 -0.910 -0.204 38 25 14 8 234
6.1194 7.4799 -3.1795 0.361 -0.910 -0.204 31 23 16 66 106
6.1298 7.4585 -3.1722 -0.092 -0.991 0.098 27 24 20 127 227
6.2581 7.4474 -3.1677 -0.302 -0.951 0.060 35 33 28 127 231
6.3368 7.4361 -3.1635 -0.139 -0.876 0.461 51 45 40 81 162
6.3526 7.4342 -3.1628 0.163 -0.967 0.197 49 42 37 8 71
6.5588 7.4136 -3.1547 0.044 -0.982 -0.183 35 32 28 64 232
6.5812 7.4319 -3.1608 -0.187 -0.982 0.012 40 36 31 46 43
6.5982 7.4340 -3.1614 0.025 -0.999 0.042 63 57 50 81 156
6.6167 7.4404 -3.1635 0.436 -0.900 -0.007 104 97 88 8 11
6.7074 7.6125 -3.2212 0.871 -0.483 -0.094 161 151 142 127 96
6.9356 7.3735 -3.1392 0.743 -0.340 0.576 165 157 147 48 232
6.9413 7.3453 -3.1296 0.354 -0.521 0.777 163 156 146 48 43
6.8706 6.5578 -2.8636 -0.233 -0.561 0.795 169 158 151 32 232
6.8861 6.5595 -2.8641 0.556 -0.785 0.273 169 157 150 49 43
6.7736 6.2425 -2.7574 -0.605 -0.572 0.554 168 157 151 81 156
0.0354 7.9158 -3.3768 0.985 -0.173 0.030 6 6 6 81 156
0.5587 7.6033 -3.2677 -0.080 -0.280 0.957 35 19 13 81 156
0.6364 7.8671 -3.3570 0.154 -0.182 0.971 89 30 13 8 11
0.7338 9.3393 -3.8571 -0.846 -0.210 0.491 99 41 21 127 96
0.7741 9.6857 -3.9747 0.827 -0.210 -0.521 100 43 24 8 11
0.7884 9.7143 -3.9844 0.812 -0.206 -0.546 99 44 24 66 164
0.7947 9.7776 -4.0059 0.490 -0.486 -0.724 98 44 23 127 96
1.1967 8.6119 -3.6073 -0.533 -0.430 -0.729 97 38 20 66 164
1.2959 8.6814 -3.6304 0.078 -0.391 -0.917 93 38 18 81 156
1.1934 10.1114 -4.1173 -0.847 -0.528 0.068 93 34 16 8 11
1.2289 10.0385 -4.0923 -0.702 -0.603 -0.379 93 34 16 66 164
1.2587 9.9943 -4.0771 -0.702 -0.603 -0.379 93 34 16 127 96
2.1335 7.2691 -3.1457 0.874 -0.418 -0.248 62 22 7 8 11
2.2454 7.0578 -3.0732 -0.695 -0.505 0.511 60 33 23 88 232
2.3580 7.8865 -3.3544 0.989 -0.131 -0.070 87 40 24 127 96
2.4218 8.2794 -3.4877 0.834 -0.354 -0.424 94 43 24 8 11
2.5635 7.7560 -3.3089 0.734 -0.641 0.223 97 39 17 192 232
2.6006 7.7290 -3.2996 0.333 -0.371 0.867 97 36 16 81 156
2.6049 7.8718 -3.3481 -0.088 -0.990 0.107 96 35 16 8 11
2.6826 7.9905 -3.3881 -0.236 -0.797 -0.556 92 34 17 56 232
2.7205 7.9588 -3.3771 -0.677 -0.677 -0.290 90 32 16 81 156
2.7555 8.2030 -3.4599 0.159 -0.984 0.073 96 37 21 127 96
2.8272 7.9451 -3.3718 -0.663 -0.270 0.698 98 36 21 176 232
2.8547 8.0650 -3.4125 0.475 -0.409 -0.779 97 40 21 81 156
3.1083 7.9578 -3.3747 0.913 -0.375 0.163 99 40 22 160 232
3.4601 7.9717 -3.3775 -0.939 -0.341 0.050 97 42 22 66 164
3.4778 7.9407 -3.3669 -0.229 -0.241 0.943 97 42 22 127 96
3.5480 7.9647 -3.3747 -0.069 -0.455 0.888 96 37 19 74 43
3.5650 7.8726 -3.3433 0.771 -0.307 0.558 94 37 20 81 156
3.5851 8.1851 -3.4494 -0.961 -0.252 0.118 93 36 19 8 11
3.8663 8.0205 -3.3920 0.570 -0.769 -0.290 91 35 18 8 11
3.9469 7.8547 -3.3351 0.893 -0.450 -0.001 89 33 16 112 232
4.3376 8.1747 -3.4418 -0.058 -0.973 0.222 81 27 15 127 96
4.3765 8.0085 -3.3851 -0.712 -0.413 -0.568 83 27 14 216 232
4.3903 7.9660 -3.3706 -0.661 -0.388 -0.642 84 28 13 76 43
4.9767 8.0296 -3.3891 0.860 -0.351 0.371 82 32 17 33 156
5.1756 8.1700 -3.4358 0.165 -0.373 0.913 73 28 15 66 164
5.2966 8.1500 -3.4283 0.369 -0.469 0.802 69 24 14 8 11
5.3159 8.1583 -3.4311 0.487 -0.536 0.690 69 25 16 66 164
5.3384 8.1843 -3.4398 0.516 -0.591 0.620 69 26 17 127 96
5.4121 8.2926 -3.4762 -0.810 -0.290 -0.510 72 28 19 48 232
5.4281 8.1880 -3.4406 -0.690 -0.447 -0.569 73 29 20 81 156
5.4717 7.4641 -3.1942 0.573 -0.337 0.747 75 31 22 127 96
5.5635 7.5061 -3.2080 -0.873 -0.485 -0.059 111 82 74 81 156
5.5753 7.4843 -3.2005 -0.807 -0.590 -0.021 126 103 95 8 11
5.7728 7.3460 -3.1524 0.058 -0.829 0.556 166 154 143 82 43
5.8367 7.4716 -3.1948 0.331 -0.941 -0.069 165 153 141 8 11
5.9260 7.3717 -3.1603 0.683 -0.724 -0.092 108 93 71 81 169
5.9864 7.4144 -3.1745 0.550 -0.831 0.082 98 80 56 127 143
6.0474 7.4583 -3.1891 0.135 -0.975 -0.174 93 75 53 0 73
6.0646 7.4608 -3.1899 0.135 -0.975 -0.174 80 64 46 83 206
6.0818 7.4634 -3.1907 0.153 -0.974 -0.165 58 45 30 81 182
6.1020 7.4769 -3.1952 0.412 -0.885 -0.215 39 30 19 8 20
6.1212 7.4867 -3.1984 0.412 -0.885 -0.215 30 25 18 66 236
6.1394 7.4930 -3.2004 0.160 -0.909 -0.384 25 24 22 127 123
6.2559 7.4402 -3.1818 -0.475 -0.811 0.341 39 38 34 127 132
6.3346 7.4290 -3.1776 -0.262 -0.912 0.316 49 45 41 81 255
6.3514 7.4304 -3.1780 0.101 -0.995 0.015 45 40 36 8 224
6.3666 7.4267 -3.1767 -0.146 -0.984 0.098 44 37 32 66 7
6.3828 7.4261 -3.1764 -0.127 -0.975 0.183 47 40 34 127 115
6.5633 7.4276 -3.1759 0.182 -0.982 -0.052 41 39 34 224 232
6.5979 7.4333 -3.1777 0.025 -0.999 0.042 68 63 55 81 156
6.6167 7.4405 -3.1800 0.436 -0.900 -0.007 107 101 90 8 11
6.7105 7.6220 -3.2412 0.871 -0.483 -0.094 162 152 141 127 96
6.9236 7.3415 -3.1447 0.681 -0.286 0.674 167 158 149 48 232
6.9436 7.3518 -3.1481 0.302 -0.356 0.884 164 157 147 96 43
6.8723 6.5623 -2.8800 0.543 -0.575 0.612 167 158 148 192 232
7.0899 5.4361 -2.4959 -0.930 -0.197 -0.312 171 162 156 66 152
0.6072 7.6134 -3.2880 0.403 -0.196 0.894 53 25 18 127 96
0.6802 7.7173 -3.3231 -0.034 -0.207 0.978 89 31 15 8 11
0.7733 9.7787 -4.0273 0.858 -0.199 -0.474 100 45 25 66 164
1.2182 8.9610 -3.7453 -0.609 -0.445 -0.656 94 38 20 119 43
1.1579 10.1830 -4.1634 -0.733 -0.645 -0.218 93 34 16 81 156
1.1879 10.1399 -4.1485 -0.776 -0.615 -0.135 93 34 16 8 11
1.8035 7.5475 -3.2590 0.062 -0.530 -0.846 95 37 16 81 156
2.1334 7.2699 -3.1623 0.866 -0.469 -0.176 70 28 12 8 11
2.3042 6.9784 -3.0617 -0.681 -0.729 -0.072 84 39 26 8 11
