ply
format ascii 1.0
element vertex 826
property float x
property float y
property float z
property float nx
property float ny
property float nz
property uchar diffuse_red
property uchar diffuse_green
property uchar diffuse_blue
property uchar class
property uchar detection
end_header
1.0892 10.8980 -0.1739 0.144 -0.984 -0.104 74 59 66 0 0
1.2390 11.1396 -0.1772 0.244 -0.970 0.009 59 48 54 0 0
1.3357 11.2966 -0.1794 0.336 -0.892 -0.301 54 38 41 0 0
2.1223 11.5840 -0.1900 -0.579 -0.702 0.415 154 148 152 0 0
2.1446 11.5978 -0.1903 -0.630 -0.776 -0.045 157 152 156 0 0
2.6245 11.9534 -0.1980 0.339 -0.652 -0.679 92 94 106 0 0
2.9901 12.3441 -0.2047 0.403 -0.914 -0.039 143 26 42 0 0
3.0142 12.3526 -0.2051 0.348 -0.895 -0.280 158 35 53 0 0
3.0389 12.3701 -0.2054 -0.051 -0.937 -0.345 134 29 44 0 0
3.1671 12.5189 -0.2079 0.519 -0.853 -0.051 147 146 162 0 0
3.1933 12.5524 -0.2084 0.500 -0.865 -0.037 152 151 167 0 0
3.2684 12.5956 -0.2095 0.190 -0.907 0.376 190 194 206 0 0
3.2935 12.6096 -0.2099 0.215 -0.906 0.365 197 201 213 0 0
3.3181 12.6163 -0.2102 0.174 -0.939 0.295 196 202 218 0 0
3.3436 12.6343 -0.2106 -0.043 -0.988 0.148 176 183 202 0 0
3.5538 12.8233 -0.2142 0.446 -0.842 -0.304 164 157 164 0 0
3.5776 12.8164 -0.2144 0.030 -1.000 -0.005 171 161 170 0 0
3.6241 12.7923 -0.2148 -0.121 -0.986 -0.110 185 176 181 0 0
3.9988 13.0703 -0.2208 0.669 -0.736 0.102 157 145 149 0 0
4.0683 13.2280 -0.2227 0.099 -0.990 -0.098 139 123 124 0 0
4.2092 13.3437 -0.2250 0.396 -0.896 -0.200 75 62 71 0 0
4.4699 13.0735 -0.2260 0.393 -0.917 -0.065 144 132 144 0 0
4.7326 13.3070 -0.2305 -0.954 -0.235 0.187 150 140 151 0 0
4.7806 13.2946 -0.2309 0.976 -0.218 0.017 151 141 150 0 0
5.0376 10.2631 -0.2125 0.918 -0.343 -0.201 18 23 45 0 0
5.0139 9.5657 -0.2074 0.682 -0.511 -0.523 18 26 55 0 0
5.2143 9.7598 -0.2109 -0.533 -0.734 -0.421 45 187 248 0 0
6.1401 12.0646 -0.2371 0.903 -0.423 0.077 61 201 254 0 0
5.8809 10.4495 -0.2230 0.417 -0.312 -0.854 77 202 254 0 0
5.6653 9.7066 -0.2155 0.237 -0.874 -0.424 76 202 253 0 0
5.6861 9.7135 -0.2157 0.069 -0.947 0.313 73 202 254 0 0
5.7085 9.7253 -0.2161 0.626 -0.780 0.025 71 202 254 0 0
5.7414 9.7697 -0.2167 0.722 -0.637 -0.271 73 204 255 0 0
5.9237 7.8616 -0.2054 -0.188 -0.978 0.094 59 200 253 0 0
5.9367 7.8561 -0.2055 -0.253 -0.960 0.121 63 199 253 0 0
5.9504 7.8523 -0.2056 -0.331 -0.935 0.130 75 190 247 0 0
5.9590 7.8364 -0.2056 -0.786 -0.572 0.234 87 169 225 0 0
5.9789 7.8115 -0.2057 -0.792 -0.551 0.262 123 137 160 0 0
5.9831 7.7855 -0.2055 -0.895 -0.325 0.306 136 136 146 0 0
6.0502 7.7656 -0.2061 0.719 -0.692 -0.060 178 172 172 0 0
6.0237 7.6695 -0.2051 -0.028 -0.944 -0.329 177 172 171 0 0
6.2195 7.7734 -0.2080 -0.074 -0.996 -0.058 179 173 177 0 0
6.1973 7.6909 -0.2072 0.563 -0.822 0.087 181 172 175 0 0
6.2190 7.7057 -0.2075 0.563 -0.822 0.087 184 175 176 0 0
6.2407 7.7206 -0.2079 0.563 -0.822 0.087 179 175 172 0 0
6.3211 7.7650 -0.2091 0.254 -0.955 -0.153 153 89 100 0 0
6.3414 7.7439 -0.2091 -0.424 -0.904 0.062 224 145 155 0 0
6.3806 7.7315 -0.2095 -0.020 -0.997 0.075 244 216 220 0 0
6.3957 7.7318 -0.2096 0.184 -0.972 0.146 234 192 199 0 0
6.3998 7.7088 -0.2095 -0.099 -0.972 -0.214 205 140 148 0 0
6.4127 7.7046 -0.2096 0.031 -0.996 -0.081 208 114 122 0 0
6.4257 7.7007 -0.2097 -0.174 -0.979 -0.104 192 91 102 0 0
6.4533 7.6960 -0.2100 -0.038 -0.994 -0.100 88 27 47 0 0
6.5227 7.6251 -0.2103 -0.696 -0.681 0.228 43 49 77 0 0
6.5315 7.6130 -0.2103 -0.803 -0.586 0.112 42 47 74 0 0
6.6468 7.5791 -0.2113 0.626 -0.726 0.286 112 129 150 0 0
6.6614 7.5788 -0.2115 0.693 -0.708 0.137 99 119 140 0 0
6.6926 7.6111 -0.2120 0.735 -0.677 -0.028 92 116 136 0 0
-2.7526 7.9621 -0.1278 0.882 -0.412 -0.231 133 128 125 0 0
-2.7407 7.9706 -0.1280 0.876 -0.432 -0.216 124 120 119 0 0
-2.6406 8.0311 -0.1296 -0.545 -0.798 -0.257 127 118 121 0 0
-2.6142 8.0133 -0.1297 -0.560 -0.794 -0.238 131 122 125 0 0
-2.0012 8.1988 -0.1380 -0.695 -0.581 -0.423 65 33 41 0 0
-1.9608 8.2959 -0.1393 -0.271 -0.808 -0.523 110 80 78 0 0
-1.8005 8.4795 -0.1426 0.991 -0.059 -0.117 126 116 108 0 0
-1.8067 8.5347 -0.1430 0.939 -0.051 0.340 112 102 94 0 0
-1.8025 8.5659 -0.1434 0.991 -0.036 0.131 115 108 94 0 0
-1.8019 8.6059 -0.1437 0.980 -0.035 0.194 102 96 76 0 0
-1.6176 8.6295 -0.1459 0.193 -0.965 -0.179 131 116 102 0 0
-1.5222 8.7013 -0.1476 -0.328 -0.937 -0.119 94 78 81 0 0
-1.3294 8.5208 -0.1481 -0.089 -0.758 -0.646 139 136 146 0 0
-1.3113 8.5188 -0.1483 -0.089 -0.758 -0.646 139 136 145 0 0
-1.2990 8.8198 -0.1510 0.975 -0.058 0.213 87 86 87 0 0
-1.3015 8.8762 -0.1515 0.994 -0.071 0.080 89 87 92 0 0
-1.9842 11.0023 -0.1628 0.356 -0.193 0.914 97 96 102 0 0
-1.4755 9.9643 -0.1592 -0.868 -0.425 -0.256 115 114 120 0 0
-1.2495 10.1347 -0.1631 -0.531 -0.847 0.030 140 140 152 0 0
-1.2242 10.1188 -0.1632 -0.531 -0.847 0.030 143 143 155 0 0
-0.7207 9.3578 -0.1620 -0.726 -0.678 0.120 154 153 167 0 0
-0.5766 9.4503 -0.1644 0.554 -0.778 -0.296 165 162 175 0 0
-0.5598 9.4585 -0.1647 0.530 -0.817 -0.228 152 148 162 0 0
-0.6187 11.0446 -0.1779 0.846 -0.312 -0.431 95 95 103 0 0
0.0002 10.3487 -0.1785 -0.099 -0.789 0.606 152 143 148 0 0
0.0216 10.3442 -0.1787 -0.158 -0.813 0.561 150 139 145 0 0
0.0416 10.3465 -0.1790 -0.459 -0.885 0.077 149 136 143 0 0
0.8712 7.2700 -0.1610 -0.029 -0.718 -0.696 179 173 173 0 0
0.8847 7.2781 -0.1612 0.427 -0.512 -0.745 181 175 175 0 0
0.8959 7.3008 -0.1615 0.465 -0.409 -0.785 181 177 178 0 0
0.7002 10.3148 -0.1858 0.703 -0.698 -0.135 199 178 183 0 0
0.7184 10.3306 -0.1862 0.699 -0.673 -0.241 178 135 145 0 0
0.7913 10.3963 -0.1875 0.625 -0.781 0.011 191 141 150 0 0
0.8436 10.4688 -0.1887 0.450 -0.864 0.226 231 212 214 0 0
1.0871 10.9157 -0.1953 -0.099 -0.994 -0.048 73 58 65 0 0
1.2381 11.1471 -0.1990 0.282 -0.949 -0.140 56 45 51 0 0
1.3193 11.2213 -0.2005 -0.560 -0.771 -0.304 45 33 37 0 0
1.3351 11.3012 -0.2014 0.024 -0.963 -0.269 54 38 41 0 0
2.1224 11.5630 -0.2122 -0.636 -0.762 -0.124 154 148 152 0 0
2.2567 11.4682 -0.2128 0.379 -0.925 0.033 60 95 133 0 0
2.3011 11.5092 -0.2137 -0.101 -0.954 0.281 89 119 153 0 0
2.3233 11.4988 -0.2138 -0.372 -0.885 0.282 94 123 153 0 0
3.1670 12.5203 -0.2319 0.519 -0.853 -0.051 151 147 161 0 0
3.1931 12.5524 -0.2325 0.219 -0.976 0.011 157 153 167 0 0
3.2181 12.5675 -0.2329 0.518 -0.856 -0.002 151 149 160 0 0
3.2683 12.5971 -0.2337 0.098 -0.946 0.308 193 195 207 0 0
3.2925 12.5997 -0.2340 0.215 -0.906 0.365 198 202 214 0 0
3.3169 12.6042 -0.2343 0.452 -0.869 0.199 198 201 216 0 0
3.3433 12.6335 -0.2348 0.018 -0.989 -0.144 194 199 219 0 0
3.5774 12.8162 -0.2389 0.003 -0.999 0.040 171 161 170 0 0
3.7648 12.7452 -0.2404 0.569 -0.694 -0.442 199 193 195 0 0
3.9532 13.1052 -0.2456 0.252 -0.951 0.181 183 168 175 0 0
3.9791 13.1142 -0.2459 0.038 -0.994 0.099 172 157 162 0 0
4.0034 13.1091 -0.2461 -0.027 -0.998 -0.055 160 148 150 0 0
4.0684 13.2305 -0.2479 0.099 -0.990 -0.098 135 119 120 0 0
4.1839 13.3450 -0.2502 0.345 -0.935 -0.086 74 59 66 0 0
4.2101 13.3516 -0.2505 0.238 -0.965 -0.109 78 65 74 0 0
4.4240 13.4310 -0.2535 -0.912 -0.341 -0.228 129 116 125 0 0
4.5226 13.0950 -0.2516 0.903 -0.427 0.048 145 135 146 0 0
4.7791 13.2867 -0.2561 0.976 -0.217 0.030 151 141 150 0 0
4.7869 9.6990 -0.2247 0.683 -0.716 -0.144 120 75 70 0 0
5.8879 11.7373 -0.2545 0.928 -0.362 -0.088 53 198 253 0 0
5.9737 11.9598 -0.2574 0.929 -0.365 -0.056 55 200 253 0 0
6.0578 12.1743 -0.2602 0.929 -0.365 -0.056 59 201 255 0 0
6.0758 11.9239 -0.2582 0.909 -0.410 -0.069 66 201 255 0 0
5.9125 10.5502 -0.2444 0.417 -0.312 -0.854 76 201 253 0 0
5.7079 9.7236 -0.2349 0.631 -0.776 0.002 72 203 255 0 0
5.9231 7.8603 -0.2209 -0.188 -0.978 0.094 62 202 254 0 0
5.9359 7.8544 -0.2210 -0.253 -0.960 0.121 67 201 254 0 0
5.9496 7.8505 -0.2211 -0.331 -0.935 0.130 78 191 246 0 0
5.9770 7.8070 -0.2210 -0.891 -0.420 0.175 126 138 158 0 0
5.9831 7.7855 -0.2209 -0.929 -0.300 0.218 139 137 146 0 0
6.0173 7.6894 -0.2204 0.132 -0.985 -0.113 178 174 173 0 0
6.0189 7.6585 -0.2202 -0.275 -0.808 -0.521 176 172 171 0 0
6.2177 7.7694 -0.2233 0.170 -0.985 0.032 178 172 176 0 0
6.1982 7.6930 -0.2224 0.537 -0.843 0.019 181 173 173 0 0
6.2193 7.7064 -0.2228 0.537 -0.843 0.019 183 178 175 0 0
6.2403 7.7198 -0.2231 0.537 -0.843 0.019 179 174 172 0 0
6.3224 7.7678 -0.2244 0.254 -0.955 -0.153 162 100 110 0 0
6.3376 7.7682 -0.2246 -0.355 -0.930 -0.092 216 147 157 0 0
6.4028 7.7152 -0.2248 -0.508 -0.860 -0.044 230 177 183 0 0
6.4264 7.7022 -0.2250 -0.174 -0.979 -0.104 186 94 103 0 0
6.4395 7.6984 -0.2251 -0.182 -0.975 -0.130 130 46 62 0 0
6.4550 7.6995 -0.2253 0.076 -0.979 -0.189 88 29 51 0 0
6.4711 7.7019 -0.2255 0.231 -0.916 -0.328 53 40 64 0 0
6.4726 7.6437 -0.2250 0.097 -0.886 0.453 44 52 81 0 0
6.4811 7.6306 -0.2249 -0.294 -0.812 0.505 42 48 76 0 0
6.4699 7.5776 -0.2244 -0.104 -0.906 -0.410 44 51 77 0 0
6.4920 7.5928 -0.2247 0.404 -0.735 -0.545 43 51 74 0 0
6.5210 7.6218 -0.2253 -0.696 -0.681 0.228 49 51 76 0 0
6.5317 7.6134 -0.2253 -0.389 -0.854 -0.346 50 52 75 0 0
6.5442 7.6089 -0.2254 -0.600 -0.708 -0.373 46 51 70 0 0
6.5552 7.6015 -0.2255 -0.780 -0.542 -0.312 45 52 71 0 0
6.5624 7.5864 -0.2254 -0.832 -0.524 -0.182 47 62 82 0 0
6.5693 7.5708 -0.2254 -0.880 -0.471 0.059 63 84 105 0 0
6.6415 7.5687 -0.2261 0.626 -0.726 0.286 90 109 132 0 0
6.6600 7.5762 -0.2264 0.712 -0.694 0.105 92 113 136 0 0
-2.7534 7.9629 -0.1441 0.854 -0.454 -0.255 135 130 127 0 0
-2.7430 7.9741 -0.1443 0.876 -0.432 -0.216 126 122 121 0 0
-2.6192 8.0219 -0.1461 -0.573 -0.783 -0.242 131 122 125 0 0
-2.3550 8.0276 -0.1490 -0.831 -0.556 -0.011 49 31 31 0 0
-2.0321 8.3758 -0.1562 -0.643 -0.507 -0.574 91 51 55 0 0
-1.9438 8.2954 -0.1563 -0.458 -0.775 -0.436 110 83 80 0 0
-1.8818 8.2715 -0.1567 0.215 -0.923 -0.320 121 114 93 0 0
-1.8324 8.3142 -0.1577 0.487 -0.842 0.230 118 103 49 0 0
-1.8175 8.3192 -0.1579 0.694 -0.706 -0.139 138 120 68 0 0
-1.6213 8.6379 -0.1634 0.241 -0.966 0.095 132 116 100 0 0
-1.5238 8.7048 -0.1651 0.149 -0.989 -0.027 73 57 60 0 0
-1.4499 8.6059 -0.1649 -0.509 -0.693 -0.511 132 117 121 0 0
-1.3174 8.5343 -0.1656 -0.089 -0.758 -0.646 139 136 146 0 0
-1.3609 8.6968 -0.1668 -0.726 -0.479 -0.494 142 139 147 0 0
-1.2974 8.8639 -0.1693 0.989 -0.064 0.130 89 87 92 0 0
-1.5659 10.2276 -0.1807 -0.867 -0.477 -0.143 113 112 119 0 0
-1.2367 10.0932 -0.1829 -0.686 -0.725 0.053 140 139 153 0 0
-0.9699 9.5543 -0.1801 0.653 -0.672 0.349 147 146 160 0 0
-0.5613 9.4628 -0.1835 0.530 -0.817 -0.228 150 146 160 0 0
-0.7647 11.3710 -0.2014 0.975 -0.096 -0.203 68 70 84 0 0
-0.5917 11.1136 -0.2006 -0.114 -0.990 -0.081 112 110 121 0 0
-0.5689 11.1101 -0.2008 -0.643 -0.763 -0.058 118 117 125 0 0
-0.0049 10.3728 -0.1991 -0.498 -0.845 0.194 146 144 149 0 0
0.0185 10.3585 -0.1992 -0.569 -0.785 0.246 150 144 148 0 0
0.0434 10.3363 -0.1992 -0.609 -0.741 0.282 153 144 149 0 0
0.0645 10.3329 -0.1994 -0.624 -0.781 -0.035 151 140 144 0 0
0.8799 7.3059 -0.1763 0.462 -0.481 -0.745 178 170 168 0 0
0.5843 10.2721 -0.2044 0.241 -0.904 -0.352 225 220 217 0 0
0.6995 10.3180 -0.2061 0.703 -0.698 -0.135 189 168 173 0 0
0.8431 10.4711 -0.2093 0.585 -0.810 -0.041 234 209 213 0 0
0.9423 10.8709 -0.2146 0.971 -0.239 0.013 48 36 40 0 0
0.9631 10.8752 -0.2148 0.826 -0.487 -0.284 50 33 39 0 0
1.0678 10.8927 -0.2161 0.325 -0.921 -0.214 71 56 63 0 0
1.2134 11.1788 -0.2207 -0.375 -0.901 -0.218 64 51 58 0 0
1.2377 11.1491 -0.2207 0.151 -0.856 -0.494 57 46 52 0 0
1.2940 11.2612 -0.2225 -0.665 -0.741 -0.095 41 29 33 0 0
1.3172 11.2450 -0.2225 -0.047 -0.995 0.094 48 33 38 0 0
1.3354 11.2933 -0.2232 0.302 -0.953 0.032 57 38 42 0 0
1.3643 11.2004 -0.2226 0.355 -0.914 0.195 65 44 49 0 0
2.1221 11.5619 -0.2346 -0.558 -0.783 -0.275 156 150 154 0 0
2.1440 11.6084 -0.2353 -0.243 -0.960 -0.143 156 151 155 0 0
2.2564 11.4668 -0.2350 0.154 -0.988 -0.010 61 96 134 0 0
2.3009 11.5080 -0.2359 -0.111 -0.958 -0.263 79 112 145 0 0
2.3233 11.5436 -0.2365 0.001 -0.913 -0.408 86 117 146 0 0
2.6298 12.1631 -0.2464 -0.067 -0.304 -0.950 95 97 109 0 0
2.8664 12.2315 -0.2496 0.316 -0.899 -0.303 224 223 228 0 0
3.0438 12.4631 -0.2540 0.433 -0.786 -0.441 120 15 29 0 0
3.2176 12.5635 -0.2569 0.514 -0.830 -0.216 156 155 161 0 0
3.2683 12.6007 -0.2579 0.119 -0.991 0.067 198 198 208 0 0
3.2920 12.5953 -0.2581 0.436 -0.900 -0.018 202 201 215 0 0
3.3180 12.6210 -0.2586 0.492 -0.858 -0.145 199 201 216 0 0
3.3440 12.6451 -0.2591 0.261 -0.935 -0.239 193 196 215 0 0
3.5755 12.7982 -0.2632 -0.188 -0.977 -0.098 172 162 170 0 0
3.6030 12.8314 -0.2639 0.047 -0.965 -0.260 180 170 178 0 0
3.7334 12.6799 -0.2637 0.637 -0.468 -0.613 201 195 195 0 0
3.7670 12.7667 -0.2650 0.634 -0.604 -0.483 200 194 196 0 0
3.8067 12.9072 -0.2669 0.875 -0.445 -0.190 203 197 199 0 0
4.0001 13.0841 -0.2708 -0.178 -0.934 0.310 157 142 145 0 0
4.1850 13.3544 -0.2757 -0.102 -0.994 -0.034 76 61 66 0 0
4.2101 13.3535 -0.2759 0.027 -0.999 -0.021 80 67 74 0 0
4.4345 13.3334 -0.2781 -0.842 -0.424 -0.334 133 121 131 0 0
4.4488 13.0996 -0.2758 0.712 -0.683 -0.163 140 128 140 0 0
4.7943 13.2318 -0.2810 0.861 -0.488 0.145 109 90 97 0 0
5.0281 9.6210 -0.2454 0.667 -0.621 -0.411 17 26 57 0 0
5.2146 9.7614 -0.2489 -0.225 -0.864 0.450 48 190 251 0 0
5.9769 11.9717 -0.2804 0.929 -0.365 -0.056 59 198 253 0 0
6.0613 12.1866 -0.2836 0.929 -0.365 -0.056 62 200 255 0 0
6.1532 12.4252 -0.2871 0.928 -0.362 -0.088 64 199 254 0 0
6.2459 12.6639 -0.2906 0.928 -0.362 -0.088 66 198 254 0 0
5.9049 10.5904 -0.2650 0.599 -0.327 -0.731 78 203 254 0 0
5.7071 9.7213 -0.2537 0.653 -0.707 0.272 74 204 254 0 0
6.5062 11.3468 -0.2795 0.861 -0.390 -0.327 74 204 254 0 0
5.5784 7.2306 -0.2261 0.603 -0.566 -0.562 58 202 254 0 0
5.9223 7.8585 -0.2364 -0.218 -0.967 0.132 65 202 254 0 0
5.9363 7.8553 -0.2365 -0.218 -0.967 0.132 69 201 254 0 0
5.9488 7.8486 -0.2366 -0.331 -0.935 0.130 79 189 244 0 0
5.9791 7.7761 -0.2361 -0.898 -0.420 0.129 139 138 144 0 0
6.0181 7.6913 -0.2357 0.132 -0.985 -0.113 178 174 173 0 0
6.2154 7.7980 -0.2389 -0.622 -0.735 0.269 176 174 178 0 0
6.1765 7.6778 -0.2372 0.676 -0.728 -0.116 178 174 175 0 0
6.2006 7.6982 -0.2377 0.481 -0.876 0.009 181 175 172 0 0
6.2205 7.7091 -0.2380 0.481 -0.876 0.009 185 177 174 0 0
6.2401 7.7193 -0.2384 0.537 -0.843 0.019 179 172 173 0 0
6.2614 7.7333 -0.2387 0.556 -0.822 0.127 139 130 133 0 0
6.2847 7.7513 -0.2392 0.620 -0.783 0.051 62 46 53 0 0
6.3233 7.7697 -0.2398 -0.072 -0.992 -0.103 170 119 126 0 0
6.3382 7.7695 -0.2399 -0.355 -0.930 -0.092 228 175 180 0 0
6.4037 7.7171 -0.2401 -0.284 -0.941 -0.182 254 217 221 0 0
6.4167 7.7131 -0.2402 -0.284 -0.941 -0.182 226 161 163 0 0
6.4281 7.7057 -0.2402 -0.343 -0.909 -0.238 181 107 114 0 0
6.4438 7.7073 -0.2404 0.225 -0.899 -0.375 116 45 61 0 0
6.4608 7.7116 -0.2407 0.225 -0.899 -0.375 80 31 52 0 0
6.4806 7.7217 -0.2410 0.454 -0.701 -0.550 52 45 72 0 0
6.4677 7.6336 -0.2399 -0.327 -0.789 0.521 42 50 79 0 0
6.4772 7.6227 -0.2399 -0.294 -0.812 0.505 44 50 76 0 0
6.4723 7.5826 -0.2394 -0.134 -0.916 -0.379 46 54 74 0 0
6.4959 7.6006 -0.2399 -0.349 -0.840 -0.416 41 48 64 0 0
6.5212 7.6220 -0.2404 -0.700 -0.691 0.179 37 40 55 0 0
6.5466 7.6435 -0.2409 -0.509 -0.551 -0.661 38 37 51 0 0
6.5551 7.6309 -0.2408 -0.601 -0.472 -0.645 38 37 50 0 0
6.6320 7.5499 -0.2408 0.580 -0.754 0.309 39 54 78 0 0
6.6559 7.5682 -0.2412 0.580 -0.754 0.309 42 60 82 0 0
-3.0979 8.2991 -0.1608 -0.705 -0.666 -0.244 32 26 28 0 0
-1.9700 8.2031 -0.1717 -0.381 -0.509 -0.772 72 38 42 0 0
-1.4235 8.5821 -0.1822 -0.649 -0.640 -0.412 137 124 127 0 0
-1.2899 8.8424 -0.1869 0.981 -0.060 0.183 88 86 89 0 0
-1.1806 10.1721 -0.2044 -0.865 -0.345 -0.364 146 145 159 0 0
-0.9441 9.5949 -0.1999 0.625 -0.430 0.652 148 147 161 0 0
-0.9408 9.6476 -0.2005 0.596 -0.496 0.631 148 147 161 0 0
-0.7129 9.2642 -0.1982 -0.444 -0.873 -0.204 151 150 164 0 0
-0.6733 9.3218 -0.1994 -0.781 -0.589 0.204 157 156 172 0 0
-0.6424 9.2787 -0.1992 -0.789 -0.593 0.163 161 160 176 0 0
-0.6324 9.4440 -0.2013 0.179 -0.896 -0.406 168 165 182 0 0
-0.5628 9.4671 -0.2024 0.530 -0.817 -0.228 158 154 168 0 0
-0.7419 11.0114 -0.2195 0.906 -0.198 0.374 48 52 64 0 0
-0.7626 11.3609 -0.2236 0.997 -0.074 0.020 70 71 88 0 0
-0.5973 11.1361 -0.2226 0.165 -0.986 -0.025 112 110 121 0 0
-0.5729 11.1258 -0.2227 -0.283 -0.958 0.040 118 117 125 0 0
0.0192 10.3535 -0.2195 -0.559 -0.773 0.301 147 142 146 0 0
0.5828 10.2796 -0.2246 0.241 -0.904 -0.352 225 216 217 0 0
0.6983 10.3250 -0.2264 0.675 -0.645 -0.357 192 167 171 0 0
0.8450 10.4539 -0.2296 0.522 -0.849 -0.086 230 205 211 0 0
1.2113 11.1995 -0.2427 -0.104 -0.979 0.177 66 53 60 0 0
1.2366 11.1588 -0.2425 0.147 -0.889 -0.434 60 47 54 0 0
1.2937 11.2613 -0.2444 -0.707 -0.639 0.303 43 31 35 0 0
1.3172 11.2420 -0.2444 -0.149 -0.970 0.193 49 34 39 0 0
1.3352 11.2925 -0.2452 -0.128 -0.984 0.125 58 39 43 0 0
2.0984 11.6423 -0.2577 -0.217 -0.883 0.417 152 147 153 0 0
2.2562 11.4669 -0.2572 0.154 -0.988 -0.010 56 94 133 0 0
2.3008 11.5567 -0.2588 -0.037 -0.949 -0.313 91 126 158 0 0
2.3231 11.5641 -0.2591 -0.016 -0.889 -0.458 99 133 161 0 0
2.4128 11.5948 -0.2604 -0.716 -0.681 0.154 76 106 140 0 0
2.8665 12.2396 -0.2733 0.316 -0.899 -0.303 225 224 230 0 0
3.1674 12.5341 -0.2801 0.347 -0.903 -0.252 154 152 163 0 0
3.1920 12.5435 -0.2805 -0.129 -0.964 -0.233 159 158 166 0 0
3.2419 12.5711 -0.2814 0.417 -0.893 -0.173 172 171 176 0 0
3.2669 12.5844 -0.2818 0.443 -0.838 -0.319 200 198 209 0 0
3.5761 12.8069 -0.2878 0.189 -0.948 0.255 172 163 168 0 0
3.6036 12.8389 -0.2885 -0.470 -0.862 -0.189 181 172 177 0 0
3.7389 12.7330 -0.2887 0.208 -0.936 -0.285 203 197 197 0 0
3.8100 12.9383 -0.2920 0.345 -0.832 -0.433 198 192 194 0 0
3.8380 12.9689 -0.2926 0.401 -0.915 -0.045 199 193 197 0 0
3.8668 13.0059 -0.2934 0.201 -0.940 0.277 205 194 200 0 0
3.9488 13.0721 -0.2951 0.213 -0.938 -0.273 159 132 139 0 0
3.9747 13.0810 -0.2955 0.349 -0.888 -0.298 179 157 160 0 0
4.0012 13.0950 -0.2959 0.053 -0.871 -0.489 162 145 146 0 0
4.1854 13.3589 -0.3012 0.015 -0.979 -0.203 74 59 64 0 0
4.2107 13.3594 -0.3015 0.015 -0.979 -0.203 79 66 73 0 0
4.2371 13.3672 -0.3018 0.122 -0.949 -0.292 88 75 82 0 0
4.4830 13.1610 -0.3019 0.430 -0.819 -0.379 142 130 142 0 0
4.7914 13.2167 -0.3059 0.846 -0.494 0.199 110 91 100 0 0
4.9498 10.0641 -0.2687 0.935 -0.344 -0.081 23 17 35 0 0
5.2120 9.7522 -0.2677 -0.225 -0.864 0.450 50 192 253 0 0
5.7573 11.4302 -0.2942 0.926 -0.373 0.062 60 199 255 0 0
6.1593 12.4468 -0.3111 0.928 -0.362 -0.088 67 199 253 0 0
6.2518 12.6843 -0.3150 0.927 -0.365 -0.084 70 198 253 0 0
5.8430 10.5206 -0.2839 0.665 -0.334 -0.668 80 206 255 0 0
5.6908 9.8473 -0.2740 0.457 -0.297 -0.838 78 204 254 0 0
5.7211 9.8835 -0.2748 0.341 -0.289 -0.895 78 204 254 0 0
5.7589 9.9427 -0.2759 0.336 -0.281 -0.899 77 204 255 0 0
5.7791 9.9466 -0.2761 0.392 -0.317 -0.863 77 205 254 0 0
6.4590 11.2713 -0.2998 0.821 -0.404 -0.403 76 202 253 0 0
6.5253 11.4029 -0.3021 0.832 -0.385 -0.399 74 201 252 0 0
5.9208 7.8549 -0.2519 -0.062 -0.967 0.249 66 203 253 0 0
5.9349 7.8520 -0.2520 -0.298 -0.889 0.347 69 199 252 0 0
5.9483 7.8475 -0.2521 -0.298 -0.889 0.347 80 186 240 0 0
5.9777 7.7728 -0.2515 -0.916 -0.395 0.065 139 137 142 0 0
5.9839 7.7518 -0.2513 -0.827 -0.560 0.056 142 142 144 0 0
5.9930 7.7378 -0.2512 -0.810 -0.585 0.049 156 155 155 0 0
6.0189 7.6931 -0.2509 0.132 -0.985 -0.113 179 175 174 0 0
6.2139 7.7946 -0.2543 -0.594 -0.730 0.338 178 173 176 0 0
6.1780 7.6813 -0.2525 0.675 -0.718 -0.173 179 174 173 0 0
6.2004 7.6980 -0.2529 0.481 -0.876 0.009 183 175 172 0 0
6.2182 7.7041 -0.2532 0.556 -0.831 -0.017 185 177 175 0 0
6.2397 7.7185 -0.2536 0.556 -0.831 -0.017 177 168 171 0 0
6.2599 7.7299 -0.2540 0.556 -0.822 0.127 131 122 127 0 0
6.2839 7.7497 -0.2545 0.620 -0.783 0.051 58 47 56 0 0
6.3241 7.7716 -0.2552 -0.257 -0.938 -0.230 162 123 128 0 0
6.3404 7.7742 -0.2554 -0.338 -0.904 -0.262 209 165 168 0 0
6.3484 7.7591 -0.2553 -0.507 -0.840 -0.195 230 192 191 0 0
6.4300 7.7097 -0.2555 0.337 -0.883 -0.327 172 107 113 0 0
6.4473 7.7145 -0.2558 0.225 -0.899 -0.375 100 42 57 0 0
6.4643 7.7189 -0.2560 0.225 -0.899 -0.375 68 32 53 0 0
6.4890 7.7391 -0.2565 0.373 -0.681 -0.630 46 44 72 0 0
6.4607 7.6193 -0.2547 -0.298 -0.781 0.549 40 55 81 0 0
6.4731 7.6145 -0.2548 -0.298 -0.781 0.549 51 64 83 0 0
6.5713 7.6936 -0.2568 0.446 -0.884 0.141 157 159 164 0 0
6.6266 7.7447 -0.2581 -0.193 -0.687 0.700 133 137 148 0 0
6.6556 7.7729 -0.2587 0.339 -0.684 0.646 118 125 143 0 0
6.6792 7.7901 -0.2592 0.234 -0.654 0.720 106 117 140 0 0
6.6834 7.7685 -0.2590 -0.309 -0.363 0.879 93 107 133 0 0
6.7119 7.7360 -0.2589 -0.556 -0.596 0.580 59 76 99 0 0
6.7177 7.7181 -0.2587 -0.155 -0.905 0.395 60 77 100 0 0
6.7309 7.7147 -0.2588 0.063 -0.855 0.515 57 75 97 0 0
-4.0951 9.6466 -0.1862 -0.524 -0.474 0.708 35 29 29 0 0
-3.1106 8.3205 -0.1779 -0.694 -0.651 -0.308 30 26 27 0 0
-2.6092 8.0329 -0.1792 -0.515 -0.833 -0.201 131 125 127 0 0
-2.6972 8.4544 -0.1842 -0.859 -0.502 0.095 148 149 163 0 0
-1.9839 8.2325 -0.1886 -0.374 -0.554 -0.744 64 33 38 0 0
-2.0786 8.4754 -0.1911 -0.693 -0.535 -0.484 73 38 44 0 0
-1.8120 8.3443 -0.1921 0.557 -0.652 -0.514 134 114 63 0 0
-1.7213 8.6644 -0.1975 -0.307 -0.950 0.063 140 125 109 0 0
-1.4397 8.6232 -0.2000 -0.495 -0.759 -0.423 125 112 113 0 0
-1.4016 8.5702 -0.1996 -0.719 -0.527 -0.453 136 127 128 0 0
-1.3452 8.5600 -0.2001 0.394 -0.911 -0.125 136 131 139 0 0
-1.2212 10.0420 -0.2223 -0.747 -0.665 -0.008 139 138 152 0 0
-1.1591 9.9724 -0.2220 -0.729 -0.681 0.070 142 141 155 0 0
-1.1135 9.9541 -0.2222 -0.342 -0.918 0.203 146 145 159 0 0
-0.9519 9.6195 -0.2192 0.508 -0.367 0.779 148 147 161 0 0
-0.6709 9.3121 -0.2178 -0.781 -0.589 0.204 159 158 176 0 0
-0.6438 9.2826 -0.2177 -0.873 -0.467 0.141 161 160 178 0 0
-0.6341 9.4490 -0.2202 0.120 -0.872 -0.474 166 163 180 0 0
-0.5642 9.4714 -0.2212 0.530 -0.817 -0.228 167 163 177 0 0
-0.7405 11.0045 -0.2410 0.938 -0.189 0.291 48 51 66 0 0
0.5814 10.2872 -0.2449 0.241 -0.904 -0.352 225 213 215 0 0
0.8445 10.4557 -0.2501 0.522 -0.849 -0.086 211 188 196 0 0
1.0673 10.8929 -0.2586 0.476 -0.733 -0.487 73 58 65 0 0
1.2077 11.2380 -0.2650 0.315 -0.892 -0.323 65 52 59 0 0
1.2285 11.2503 -0.2654 0.178 -0.950 -0.256 56 43 50 0 0
1.2779 11.1828 -0.2650 0.695 -0.594 -0.406 48 37 41 0 0
1.2934 11.2618 -0.2663 -0.612 -0.663 0.431 45 33 37 0 0
1.3171 11.2390 -0.2662 -0.366 -0.747 0.555 52 37 42 0 0
1.3644 11.1931 -0.2660 -0.432 -0.897 0.090 67 46 51 0 0
2.0986 11.6095 -0.2797 -0.019 -0.855 0.519 151 146 150 0 0
2.1434 11.6249 -0.2804 -0.636 -0.768 -0.070 154 148 152 0 0
2.2560 11.4671 -0.2794 0.154 -0.988 -0.010 51 93 131 0 0
2.3006 11.5762 -0.2814 0.277 -0.851 -0.446 86 122 154 0 0
2.3229 11.5742 -0.2816 0.119 -0.902 -0.416 84 121 148 0 0
2.8666 12.2476 -0.2969 0.316 -0.899 -0.303 224 223 229 0 0
3.1677 12.5409 -0.3042 0.347 -0.903 -0.252 155 155 167 0 0
3.1921 12.5472 -0.3046 -0.164 -0.937 -0.308 156 159 168 0 0
3.5754 12.8020 -0.3123 0.150 -0.977 0.155 172 166 168 0 0
3.6039 12.8442 -0.3132 -0.470 -0.862 -0.189 181 175 177 0 0
3.6221 12.5362 -0.3090 -0.451 -0.857 -0.251 191 185 187 0 0
3.8094 12.9347 -0.3166 0.564 -0.813 -0.146 203 197 199 0 0
3.9739 13.0763 -0.3204 0.200 -0.796 -0.572 175 145 150 0 0
3.9994 13.0814 -0.3207 -0.334 -0.790 -0.515 161 143 143 0 0
4.1861 13.3659 -0.3267 0.199 -0.932 -0.304 72 57 62 0 0
4.4532 13.1303 -0.3262 0.147 -0.957 0.252 140 128 138 0 0
4.4830 13.1620 -0.3270 -0.438 -0.856 0.274 142 130 140 0 0
4.5068 13.1553 -0.3272 -0.332 -0.913 -0.236 144 132 144 0 0
4.7886 13.2020 -0.3308 0.874 -0.452 0.179 110 91 100 0 0
4.9528 10.0768 -0.2885 0.935 -0.344 -0.081 23 17 35 0 0
5.2098 9.7446 -0.2865 -0.393 -0.819 0.417 53 194 253 0 0
5.6779 11.2235 -0.3124 0.916 -0.393 0.081 61 198 255 0 0
5.8824 10.2084 -0.3002 0.578 -0.775 -0.257 81 206 254 0 0
6.0415 10.5163 -0.3062 0.728 -0.308 0.612 81 205 254 0 0
6.4564 11.2639 -0.3212 0.867 -0.497 -0.035 78 203 253 0 0
6.5079 11.3522 -0.3230 0.876 -0.472 -0.101 77 203 253 0 0
6.1735 9.5266 -0.2937 -0.408 -0.409 -0.816 45 201 253 0 0
5.9326 7.9584 -0.2690 -0.864 -0.305 0.400 65 204 254 0 0
5.9194 7.8515 -0.2673 -0.145 -0.935 0.325 67 204 254 0 0
5.9337 7.8492 -0.2674 -0.145 -0.935 0.325 70 199 252 0 0
5.9473 7.8453 -0.2675 -0.328 -0.887 0.326 82 185 239 0 0
5.9535 7.8237 -0.2673 -0.829 -0.487 0.275 94 161 211 0 0
5.9753 7.7672 -0.2667 -0.935 -0.347 0.070 141 137 143 0 0
5.9832 7.7501 -0.2666 -0.810 -0.585 0.049 144 144 146 0 0
5.9926 7.7370 -0.2665 -0.810 -0.585 0.049 158 157 159 0 0
6.0196 7.6950 -0.2662 0.132 -0.985 -0.113 178 174 173 0 0
6.2038 7.7722 -0.2692 -0.339 -0.790 0.511 183 171 173 0 0
6.1809 7.6877 -0.2678 0.675 -0.718 -0.173 182 172 173 0 0
6.1998 7.6965 -0.2681 0.530 -0.844 -0.084 184 175 173 0 0
6.2202 7.7087 -0.2685 0.481 -0.876 0.009 186 179 177 0 0
6.2398 7.7189 -0.2689 0.556 -0.831 -0.017 176 170 174 0 0
6.2596 7.7295 -0.2692 0.620 -0.783 0.051 118 114 121 0 0
6.2832 7.7481 -0.2697 0.620 -0.783 0.051 46 43 54 0 0
6.3236 7.7706 -0.2705 -0.232 -0.969 -0.089 139 111 118 0 0
6.3372 7.7674 -0.2706 -0.232 -0.969 -0.089 183 147 149 0 0
6.3498 7.7621 -0.2706 -0.295 -0.934 -0.203 197 155 156 0 0
6.3797 7.7298 -0.2705 -0.283 -0.926 -0.249 211 161 154 0 0
6.3928 7.7258 -0.2706 -0.283 -0.926 -0.249 219 170 166 0 0
6.3759 7.6586 -0.2695 0.496 -0.868 -0.027 215 159 160 0 0
6.4365 7.7233 -0.2710 0.394 -0.842 -0.369 162 100 105 0 0
6.4523 7.7251 -0.2712 0.420 -0.788 -0.450 91 43 55 0 0
6.4726 7.7361 -0.2716 0.420 -0.788 -0.450 67 40 59 0 0
6.4925 7.7463 -0.2719 0.311 -0.781 -0.542 43 48 69 0 0
6.5447 7.7611 -0.2727 -0.218 -0.970 0.103 95 118 129 0 0
6.5546 7.7507 -0.2727 -0.352 -0.934 0.060 179 195 201 0 0
6.5556 7.7223 -0.2723 -0.646 -0.684 -0.337 228 240 241 0 0
6.6366 7.7349 -0.2733 -0.105 -0.806 0.582 183 194 210 0 0
6.6563 7.7442 -0.2736 0.141 -0.882 0.449 129 144 166 0 0
6.6725 7.7467 -0.2739 0.141 -0.882 0.449 113 129 156 0 0
6.7213 7.7840 -0.2749 -0.380 -0.412 0.828 116 137 161 0 0
6.7095 7.7312 -0.2740 -0.642 -0.669 0.375 104 126 147 0 0
6.7177 7.7180 -0.2739 -0.035 -0.976 0.217 99 121 139 0 0
6.7286 7.7102 -0.2739 0.365 -0.920 0.140 87 110 126 0 0
-4.0359 9.5469 -0.2046 -0.839 -0.529 0.123 35 29 29 0 0
-3.1004 8.3021 -0.1947 -0.648 -0.551 -0.525 28 26 27 0 0
-2.8024 7.9303 -0.1919 -0.813 -0.571 -0.113 161 160 156 0 0
-2.7395 7.9958 -0.1936 0.921 -0.376 -0.100 123 119 118 0 0
-2.6129 8.0392 -0.1957 -0.515 -0.833 -0.201 129 123 125 0 0
-2.2467 8.7621 -0.2110 -0.682 -0.546 -0.486 54 28 35 0 0
-2.1493 8.5901 -0.2093 -0.697 -0.511 -0.502 59 31 38 0 0
-2.0540 8.4591 -0.2082 -0.693 -0.535 -0.484 76 39 48 0 0
-1.9197 8.3539 -0.2080 -0.521 -0.628 -0.578 105 87 77 0 0
-1.7256 8.6740 -0.2151 0.248 -0.933 -0.262 123 107 88 0 0
-1.7063 8.6701 -0.2153 0.382 -0.803 -0.457 150 135 118 0 0
-1.4466 8.6405 -0.2175 -0.331 -0.871 -0.362 114 101 100 0 0
-1.4178 8.6114 -0.2174 -0.654 -0.594 -0.469 133 123 122 0 0
-1.5666 10.4089 -0.2444 -0.900 -0.392 -0.189 118 117 123 0 0
-1.1580 9.9679 -0.2417 -0.702 -0.710 0.050 141 140 154 0 0
-1.1289 9.9384 -0.2415 -0.675 -0.736 -0.056 144 143 157 0 0
-1.1070 9.9320 -0.2417 -0.493 -0.870 -0.013 145 144 158 0 0
-0.9354 9.5641 -0.2376 0.776 -0.442 0.449 147 146 160 0 0
-0.6678 9.3002 -0.2363 -0.790 -0.614 -0.002 160 159 177 0 0
-0.6355 9.4532 -0.2390 0.245 -0.852 -0.462 161 158 175 0 0
-0.7334 10.9748 -0.2622 0.157 -0.983 -0.097 48 51 66 0 0
-0.7120 10.9762 -0.2624 0.343 -0.903 -0.258 51 54 71 0 0
-0.7331 11.1489 -0.2650 0.983 -0.070 -0.168 59 62 79 0 0
-0.7455 11.2887 -0.2670 0.996 -0.065 0.066 69 70 88 0 0
-0.6977 11.1843 -0.2659 0.988 -0.115 0.105 77 76 89 0 0
0.5803 10.2928 -0.2652 0.499 -0.831 -0.245 224 212 214 0 0
0.6028 10.2785 -0.2652 -0.480 -0.877 0.029 223 212 216 0 0
0.6268 10.2528 -0.2651 -0.520 -0.803 -0.291 223 214 217 0 0
0.8438 10.4588 -0.2706 0.336 -0.893 -0.300 231 211 220 0 0
1.0637 10.9259 -0.2804 0.218 -0.890 -0.401 73 60 67 0 0
1.2067 11.2456 -0.2870 0.315 -0.892 -0.323 62 49 56 0 0
1.2276 11.2576 -0.2874 0.272 -0.909 -0.316 57 44 51 0 0
1.2941 11.2494 -0.2880 -0.706 -0.629 0.326 46 34 38 0 0
1.3416 11.2025 -0.2877 -0.385 -0.922 0.045 62 43 47 0 0
1.3656 11.1732 -0.2875 -0.271 -0.962 0.043 68 48 50 0 0
2.0525 11.6614 -0.3025 0.327 -0.942 0.080 146 144 149 0 0
2.3227 11.5845 -0.3042 0.119 -0.902 -0.416 84 123 152 0 0
2.6808 12.3271 -0.3198 0.900 -0.187 0.394 100 99 113 0 0
2.8668 12.2556 -0.3206 0.316 -0.899 -0.303 224 223 229 0 0
3.1679 12.5477 -0.3284 0.347 -0.903 -0.252 158 157 171 0 0
3.1922 12.5531 -0.3288 -0.296 -0.933 -0.205 157 159 171 0 0
3.2187 12.5884 -0.3296 0.484 -0.844 -0.230 156 159 166 0 0
3.3181 12.6310 -0.3313 0.509 -0.782 -0.360 206 204 217 0 0
3.5751 12.8003 -0.3367 0.168 -0.967 0.193 173 167 167 0 0
3.6040 12.8483 -0.3378 -0.456 -0.884 -0.103 182 177 174 0 0
3.7080 12.9078 -0.3398 0.804 -0.580 -0.133 200 190 198 0 0
3.7825 12.9157 -0.3408 0.634 -0.772 -0.048 203 194 197 0 0
3.8093 12.9363 -0.3414 0.611 -0.791 -0.024 203 197 199 0 0
3.9230 13.0671 -0.3447 0.413 -0.861 -0.296 193 157 165 0 0
3.9498 13.0841 -0.3452 0.009 -0.914 -0.406 175 135 143 0 0
3.9744 13.0820 -0.3454 -0.128 -0.888 -0.441 153 120 126 0 0
4.1864 13.3691 -0.3522 0.098 -0.941 -0.323 74 59 66 0 0
4.4518 13.1224 -0.3511 0.264 -0.841 0.472 139 127 137 0 0
4.4814 13.1527 -0.3519 0.113 -0.869 0.481 142 130 140 0 0
4.5034 13.1346 -0.3519 0.284 -0.957 0.067 143 131 143 0 0
4.5880 13.0452 -0.3513 -0.851 -0.508 -0.130 147 136 150 0 0
4.7004 13.2706 -0.3561 -0.913 -0.391 0.112 148 136 148 0 0
4.7857 13.1865 -0.3557 0.874 -0.452 0.179 111 92 101 0 0
4.9558 10.0896 -0.3082 0.935 -0.344 -0.081 24 19 36 0 0
5.0481 9.7718 -0.3042 0.224 -0.915 -0.336 17 26 59 0 0
5.0676 9.7746 -0.3044 0.136 -0.942 -0.306 18 28 62 0 0
5.6841 11.2459 -0.3343 0.901 -0.412 0.136 62 200 255 0 0
6.2635 12.7253 -0.3640 0.927 -0.365 -0.084 77 203 255 0 0
5.9242 10.8497 -0.3306 0.549 -0.424 -0.720 86 204 255 0 0
5.9455 10.8521 -0.3308 0.413 -0.332 -0.848 85 204 254 0 0
5.9858 10.9152 -0.3322 0.440 -0.314 -0.842 83 205 254 0 0
6.0163 10.9465 -0.3331 0.599 -0.327 -0.731 82 206 254 0 0
5.7825 10.0777 -0.3168 0.333 -0.282 -0.900 81 206 254 0 0
5.8150 10.1193 -0.3178 0.333 -0.282 -0.900 80 205 253 0 0
6.3848 11.1160 -0.3397 0.484 -0.603 0.634 81 206 254 0 0
6.4307 11.1888 -0.3413 0.803 -0.581 -0.136 80 205 253 0 0
6.0958 9.6656 -0.3135 -0.727 -0.597 0.339 77 205 252 0 0
6.1821 9.5010 -0.3118 -0.268 -0.521 -0.810 46 200 254 0 0
5.9317 7.9564 -0.2846 -0.831 -0.274 0.484 66 205 255 0 0
5.9173 7.8465 -0.2827 0.006 -0.961 0.275 69 204 255 0 0
5.9316 7.8442 -0.2829 -0.145 -0.935 0.325 73 200 253 0 0
5.9453 7.8404 -0.2829 -0.328 -0.887 0.326 84 186 239 0 0
5.9514 7.8186 -0.2827 -0.829 -0.487 0.275 97 160 209 0 0
6.0204 7.6968 -0.2814 0.132 -0.985 -0.113 177 173 172 0 0
6.2016 7.7674 -0.2845 -0.307 -0.750 0.585 185 170 173 0 0
6.1804 7.6866 -0.2830 0.481 -0.876 0.009 183 172 173 0 0
6.2002 7.6975 -0.2834 0.481 -0.876 0.009 182 177 174 0 0
6.2201 7.7084 -0.2837 0.481 -0.876 0.009 184 180 179 0 0
6.2399 7.7191 -0.2841 0.555 -0.832 -0.009 171 165 169 0 0
6.2583 7.7266 -0.2844 0.626 -0.775 0.092 111 106 116 0 0
6.2826 7.7467 -0.2850 0.671 -0.738 0.071 46 44 58 0 0
6.3646 7.7296 -0.2856 -0.094 -0.990 0.108 137 96 94 0 0
6.3811 7.7328 -0.2858 -0.222 -0.918 -0.327 155 111 110 0 0
6.3762 7.6593 -0.2846 0.496 -0.868 -0.027 173 127 130 0 0
6.4409 7.7326 -0.2865 0.258 -0.810 -0.526 107 59 67 0 0
6.4579 7.7368 -0.2867 0.178 -0.791 -0.586 64 32 47 0 0
6.4748 7.7408 -0.2869 0.178 -0.791 -0.586 56 41 59 0 0
6.4917 7.7448 -0.2872 0.178 -0.791 -0.586 45 51 72 0 0
6.5334 7.7688 -0.2880 0.297 -0.946 0.132 85 114 125 0 0
6.5442 7.7601 -0.2880 -0.038 -0.995 0.092 178 206 210 0 0
6.5536 7.7488 -0.2879 -0.374 -0.926 0.052 237 250 250 0 0
6.5875 7.6962 -0.2874 -0.156 -0.960 -0.235 247 255 255 0 0
6.6028 7.6970 -0.2876 -0.336 -0.923 -0.190 236 245 253 0 0
6.6514 7.7048 -0.2882 -0.634 -0.771 0.059 113 130 157 0 0
6.6669 7.7060 -0.2884 -0.579 -0.646 0.497 116 135 163 0 0
6.6766 7.6957 -0.2884 -0.766 -0.541 0.349 116 137 161 0 0
6.6930 7.6987 -0.2886 -0.108 -0.749 0.654 115 138 157 0 0
6.7094 7.7017 -0.2888 0.029 -0.889 0.457 104 127 142 0 0
6.7231 7.6995 -0.2889 0.026 -0.837 0.547 98 120 134 0 0
6.7304 7.6847 -0.2888 0.219 -0.658 0.721 103 123 139 0 0
-2.6419 8.0611 -0.2122 -0.515 -0.833 -0.201 127 121 123 0 0
-2.1239 8.5725 -0.2266 -0.697 -0.511 -0.502 61 32 42 0 0
-2.0813 8.5180 -0.2261 -0.654 -0.525 -0.544 69 35 46 0 0
-1.8459 8.3031 -0.2248 0.547 -0.661 -0.514 119 114 96 0 0
-1.4269 8.6342 -0.2351 -0.598 -0.589 -0.543 122 112 110 0 0
-1.3025 8.5377 -0.2347 -0.445 -0.788 0.426 135 130 142 0 0
-1.4953 10.1359 -0.2609 -0.852 -0.391 -0.348 113 112 120 0 0
-1.2899 9.8210 -0.2575 0.058 -0.883 -0.466 131 131 141 0 0
-1.1456 9.6787 -0.2565 -0.444 -0.834 -0.328 134 133 147 0 0
-1.1283 9.9354 -0.2612 -0.686 -0.723 0.084 143 142 156 0 0
-0.9407 9.5803 -0.2569 -0.884 -0.437 -0.163 147 146 160 0 0
-0.9328 9.7476 -0.2599 0.945 -0.285 0.160 149 148 162 0 0
-0.9126 9.7452 -0.2601 0.954 -0.252 0.165 150 150 162 0 0
-0.7184 9.2800 -0.2539 -0.444 -0.873 -0.204 153 152 166 0 0
-0.7528 10.9643 -0.2833 -0.599 -0.693 -0.401 54 58 69 0 0
-0.7297 10.9585 -0.2835 -0.756 -0.612 -0.233 47 50 65 0 0
-0.6982 10.9194 -0.2831 -0.663 -0.703 -0.258 51 54 71 0 0
-0.7373 11.1643 -0.2870 0.966 -0.065 -0.250 57 60 77 0 0
-0.7524 11.3155 -0.2895 0.996 -0.057 -0.069 69 70 87 0 0
-0.5583 11.0593 -0.2870 0.981 -0.176 -0.081 119 118 126 0 0
0.8423 7.2587 -0.2346 0.825 -0.119 -0.552 172 162 163 0 0
0.6035 10.2718 -0.2853 -0.351 -0.936 0.017 224 215 220 0 0
0.8431 10.4625 -0.2912 -0.064 -0.989 -0.134 225 212 219 0 0
1.0627 10.9323 -0.3018 0.327 -0.897 -0.298 74 61 68 0 0
1.2067 11.2435 -0.3088 -0.003 -0.927 -0.375 66 51 58 0 0
1.2271 11.2609 -0.3094 0.315 -0.892 -0.323 52 39 46 0 0
2.0304 11.6285 -0.3243 0.688 -0.660 -0.300 133 131 136 0 0
2.4810 11.7007 -0.3303 -0.084 -0.981 -0.173 68 112 147 0 0
2.6780 12.2430 -0.3420 0.950 -0.203 0.237 101 100 116 0 0
2.8667 12.2599 -0.3442 0.536 -0.820 -0.203 223 222 230 0 0
3.0446 12.4940 -0.3502 0.030 -0.920 -0.391 99 61 74 0 0
3.1681 12.5544 -0.3526 0.385 -0.905 -0.181 160 157 174 0 0
3.1931 12.5686 -0.3531 0.064 -0.987 -0.148 161 160 176 0 0
3.2189 12.5951 -0.3539 0.484 -0.844 -0.230 161 161 173 0 0
3.2427 12.5911 -0.3540 0.483 -0.826 -0.290 178 178 188 0 0
3.3195 12.6514 -0.3559 0.429 -0.834 -0.348 192 190 201 0 0
3.5744 12.7953 -0.3611 0.168 -0.967 0.193 174 168 168 0 0
3.6034 12.8440 -0.3623 -0.371 -0.928 0.022 183 178 174 0 0
3.6231 12.5499 -0.3573 -0.451 -0.857 -0.251 191 185 185 0 0
3.7928 13.2443 -0.3714 -0.435 -0.379 -0.817 200 187 194 0 0
3.7808 12.9018 -0.3652 0.686 -0.682 0.252 202 193 196 0 0
3.8082 12.9279 -0.3659 0.656 -0.750 0.084 206 197 200 0 0
3.9227 13.0663 -0.3696 0.438 -0.899 0.012 186 144 154 0 0
3.9502 13.0888 -0.3703 0.141 -0.984 -0.106 161 118 127 0 0
3.9755 13.0925 -0.3706 0.141 -0.984 -0.106 153 117 121 0 0
4.1875 13.3792 -0.3779 0.214 -0.943 -0.255 74 58 65 0 0
4.2136 13.3853 -0.3783 0.214 -0.943 -0.255 80 67 74 0 0
4.4490 13.1052 -0.3758 -0.014 -0.891 0.453 139 127 137 0 0
4.4859 13.1828 -0.3776 0.377 -0.793 0.479 142 130 140 0 0
4.5016 13.1245 -0.3767 0.451 -0.886 0.113 143 131 143 0 0
4.5253 13.1172 -0.3768 -0.583 -0.809 -0.076 146 134 146 0 0
4.5753 13.1193 -0.3774 0.665 -0.628 0.403 147 135 145 0 0
4.9588 10.1024 -0.3281 0.935 -0.344 -0.081 23 18 36 0 0
5.0687 9.7791 -0.3235 0.133 -0.966 -0.221 16 26 61 0 0
6.1170 12.1432 -0.3763 0.903 -0.395 -0.168 79 203 255 0 0
5.9477 10.9261 -0.3530 0.453 -0.390 -0.802 89 205 255 0 0
6.0619 11.0923 -0.3571 0.508 -0.283 -0.814 83 207 253 0 0
5.9123 10.2412 -0.3405 0.619 -0.762 -0.190 85 206 253 0 0
5.9488 10.2934 -0.3418 0.071 -0.815 -0.575 84 205 252 0 0
6.3540 11.0253 -0.3590 0.817 -0.420 0.395 84 206 253 0 0
6.4080 11.1227 -0.3613 0.736 -0.421 0.531 84 206 253 0 0
5.9282 7.9478 -0.3001 -0.851 -0.305 0.427 66 205 255 0 0
5.9057 7.8555 -0.2983 -0.228 -0.947 0.227 67 205 254 0 0
5.9180 7.8481 -0.2983 -0.323 -0.924 0.203 69 204 254 0 0
5.9312 7.8433 -0.2983 -0.434 -0.858 0.274 75 200 252 0 0
5.9430 7.8350 -0.2983 -0.573 -0.771 0.278 85 184 236 0 0
5.9494 7.8138 -0.2980 -0.773 -0.594 0.221 96 156 204 0 0
5.9937 7.7396 -0.2972 -0.378 -0.909 0.177 161 158 161 0 0
6.0065 7.7343 -0.2972 -0.378 -0.909 0.177 172 168 168 0 0
6.0228 7.7024 -0.2968 0.174 -0.980 0.096 177 173 172 0 0
6.2013 7.7667 -0.2998 -0.421 -0.695 0.584 182 172 173 0 0
6.1802 7.6864 -0.2982 0.481 -0.876 0.009 179 174 175 0 0
6.2001 7.6973 -0.2986 0.481 -0.876 0.009 177 179 176 0 0
6.2200 7.7082 -0.2990 0.481 -0.876 0.009 181 181 179 0 0
6.2386 7.7163 -0.2993 0.435 -0.895 0.100 172 163 166 0 0
6.2481 7.7042 -0.2992 0.689 -0.697 0.201 105 95 105 0 0
6.2752 7.7309 -0.3000 0.689 -0.697 0.201 48 41 59 0 0
6.3051 7.7632 -0.3008 0.716 -0.677 0.170 46 43 64 0 0
6.3117 7.6167 -0.2983 0.375 -0.856 -0.356 44 30 45 0 0
6.3387 7.6427 -0.2991 0.497 -0.823 -0.276 54 40 55 0 0
6.3583 7.6527 -0.2994 0.603 -0.787 -0.130 49 35 50 0 0
6.3792 7.6656 -0.2999 0.439 -0.884 0.160 54 37 53 0 0
6.3948 7.6672 -0.3001 -0.160 -0.772 0.615 61 40 55 0 0
6.4466 7.7445 -0.3020 0.258 -0.810 -0.526 58 40 56 0 0
6.4599 7.7410 -0.3021 0.003 -0.827 -0.563 53 44 65 0 0
6.4747 7.7405 -0.3022 0.116 -0.874 -0.472 48 46 68 0 0
6.5322 7.7663 -0.3033 0.297 -0.946 0.132 112 140 147 0 0
6.5435 7.7587 -0.3033 0.122 -0.985 0.119 202 230 232 0 0
6.5526 7.7466 -0.3031 -0.119 -0.993 0.016 243 253 253 0 0
6.5583 7.7277 -0.3029 -0.706 -0.703 0.083 253 255 255 0 0
6.5718 7.7248 -0.3030 -0.676 -0.736 -0.040 255 255 255 0 0
6.5762 7.7035 -0.3026 -0.393 -0.913 -0.108 249 252 253 0 0
6.5877 7.6967 -0.3026 -0.070 -0.987 -0.147 238 247 249 0 0
6.6067 7.7049 -0.3030 0.079 -0.995 0.066 218 231 238 0 0
-4.7743 10.5628 -0.2551 -0.798 -0.594 -0.103 45 33 28 0 0
-4.6562 10.4040 -0.2532 -0.798 -0.586 -0.144 42 32 30 0 0
-4.4855 10.1575 -0.2502 -0.819 -0.572 -0.049 40 30 30 0 0
-4.4616 10.1868 -0.2510 -0.388 -0.600 0.700 37 29 30 0 0
-2.6457 8.0675 -0.2287 -0.515 -0.833 -0.201 125 119 121 0 0
-2.5256 7.9377 -0.2274 -0.372 -0.730 -0.573 136 130 133 0 0
-2.6578 8.3774 -0.2346 -0.859 -0.502 0.095 150 149 164 0 0
-2.2752 8.8221 -0.2473 -0.592 -0.628 -0.505 48 26 31 0 0
-2.1476 8.6233 -0.2447 -0.668 -0.504 -0.547 56 30 39 0 0
-2.0553 8.4987 -0.2433 -0.589 -0.560 -0.583 72 38 45 0 0
-2.0216 8.4629 -0.2429 -0.589 -0.560 -0.583 83 46 51 0 0
-1.9436 8.4055 -0.2426 -0.521 -0.628 -0.578 106 77 73 0 0
-1.8115 8.4200 -0.2443 0.658 -0.751 -0.058 127 113 58 0 0
-1.7594 8.6258 -0.2488 0.939 -0.281 0.196 112 95 85 0 0
-1.5576 8.6961 -0.2523 0.541 -0.830 -0.134 120 113 101 0 0
-1.3100 8.6988 -0.2549 -0.626 -0.493 -0.604 140 139 145 0 0
-1.4608 10.2143 -0.2829 -0.886 -0.431 -0.171 122 122 130 0 0
-1.2930 9.8294 -0.2771 0.244 -0.890 -0.385 130 130 139 0 0
-1.1490 9.6881 -0.2759 -0.459 -0.851 -0.256 133 132 146 0 0
-1.1268 9.9296 -0.2808 -0.668 -0.721 0.185 143 142 156 0 0
-0.9441 9.5906 -0.2761 -0.881 -0.465 -0.088 147 146 160 0 0
-0.8407 9.4379 -0.2742 -0.801 -0.590 -0.105 149 148 162 0 0
-0.7501 9.3234 -0.2729 -0.020 -0.987 -0.161 154 153 167 0 0
-0.7212 9.2885 -0.2726 -0.470 -0.871 -0.143 153 152 166 0 0
-0.7573 10.9808 -0.3051 -0.599 -0.693 -0.401 48 52 64 0 0
-0.7333 10.9715 -0.3052 -0.661 -0.717 -0.223 44 47 62 0 0
-0.7012 10.9301 -0.3047 -0.663 -0.703 -0.258 54 57 74 0 0
-0.4954 10.8820 -0.3059 0.994 -0.102 -0.025 124 123 131 0 0
-0.4672 10.9465 -0.3075 0.989 -0.135 0.052 133 131 136 0 0
0.6031 10.2724 -0.3055 -0.366 -0.928 -0.076 222 213 216 0 0
0.8385 10.4971 -0.3123 -0.291 -0.788 -0.543 221 210 216 0 0
1.0613 10.9439 -0.3234 0.401 -0.903 0.154 69 56 63 0 0
1.2061 11.2465 -0.3308 0.040 -0.741 -0.670 62 49 56 0 0
1.6024 11.2122 -0.3342 0.211 -0.952 -0.223 180 175 179 0 0
2.0054 11.7318 -0.3485 0.988 -0.139 -0.061 94 93 99 0 0
2.0300 11.6352 -0.3469 0.660 -0.674 -0.332 134 131 138 0 0
2.0981 11.5943 -0.3468 0.435 -0.796 0.421 151 145 149 0 0
2.2998 11.5332 -0.3478 -0.207 -0.922 -0.329 87 126 159 0 0
2.4813 11.7350 -0.3536 0.278 -0.951 -0.132 68 114 148 0 0
2.8668 12.2658 -0.3679 0.536 -0.820 -0.203 224 223 231 0 0
2.9910 12.3900 -0.3716 0.480 -0.859 -0.179 191 155 165 0 0
3.1687 12.5665 -0.3769 0.443 -0.882 -0.162 159 157 171 0 0
3.1932 12.5731 -0.3773 0.071 -0.989 -0.126 161 158 175 0 0
3.2192 12.6019 -0.3781 0.484 -0.844 -0.230 163 159 173 0 0
3.3203 12.6644 -0.3804 0.464 -0.820 -0.335 193 193 203 0 0
3.5741 12.7950 -0.3856 0.454 -0.891 0.015 174 168 168 0 0
3.7160 13.2336 -0.3956 0.804 -0.534 -0.262 196 187 192 0 0
3.9770 13.1065 -0.3959 0.311 -0.947 -0.080 176 145 150 0 0
4.0057 13.1376 -0.3968 -0.509 -0.705 -0.494 163 143 144 0 0
4.0309 13.1399 -0.3971 -0.239 -0.691 -0.683 136 120 120 0 0
4.1885 13.3884 -0.4036 0.104 -0.989 -0.102 72 57 64 0 0
4.4765 13.4500 -0.4078 -0.964 -0.267 -0.009 134 123 131 0 0
4.9618 10.1152 -0.3479 0.935 -0.344 -0.081 20 16 36 0 0
5.0698 9.7836 -0.3426 0.133 -0.966 -0.221 18 28 60 0 0
6.2074 12.6145 -0.4096 0.924 -0.377 -0.065 71 203 255 0 0
6.1256 12.1731 -0.4001 0.903 -0.395 -0.168 78 204 255 0 0
5.8077 10.0368 -0.3552 0.697 -0.330 -0.636 85 206 253 0 0
5.9316 7.9562 -0.3160 -0.919 -0.371 0.129 68 205 255 0 0
5.9037 7.8507 -0.3137 -0.249 -0.947 0.204 67 205 254 0 0
5.9169 7.8458 -0.3137 -0.319 -0.935 0.157 69 204 254 0 0
5.9300 7.8405 -0.3138 -0.474 -0.851 0.224 76 199 252 0 0
5.9393 7.8261 -0.3136 -0.642 -0.711 0.286 87 181 235 0 0
5.9478 7.8101 -0.3134 -0.773 -0.594 0.221 97 153 200 0 0
5.9789 7.7402 -0.3123 -0.382 -0.880 0.282 147 142 146 0 0
5.9916 7.7347 -0.3123 -0.382 -0.880 0.282 162 159 162 0 0
6.0042 7.7292 -0.3124 -0.382 -0.880 0.282 173 169 170 0 0
6.0221 7.7007 -0.3120 0.174 -0.980 0.096 178 174 173 0 0
6.1852 7.7307 -0.3143 -0.288 -0.925 0.247 180 172 173 0 0
6.1832 7.6929 -0.3135 0.350 -0.927 0.136 177 174 174 0 0
6.2012 7.6997 -0.3139 0.350 -0.927 0.136 177 179 176 0 0
6.2376 7.7141 -0.3145 0.435 -0.895 0.100 169 159 163 0 0
6.2449 7.6973 -0.3143 -0.051 -0.915 0.399 101 89 100 0 0
6.2696 7.7185 -0.3149 0.592 -0.788 0.168 50 41 63 0 0
6.3218 7.7666 -0.3164 -0.156 -0.765 0.625 41 46 65 0 0
6.3362 7.6374 -0.3141 0.381 -0.921 0.082 43 44 62 0 0
6.3564 7.6488 -0.3145 0.498 -0.854 0.148 43 44 62 0 0
6.3775 7.6620 -0.3150 0.439 -0.884 0.160 49 48 66 0 0
6.3917 7.6607 -0.3151 -0.255 -0.884 0.391 46 43 60 0 0
6.4518 7.7555 -0.3176 0.322 -0.882 -0.344 46 43 62 0 0
6.4569 7.7347 -0.3172 0.590 -0.806 -0.054 42 44 67 0 0
6.4729 7.7368 -0.3174 -0.194 -0.981 -0.004 41 47 71 0 0
6.5081 7.7476 -0.3180 -0.423 -0.889 0.175 50 63 81 0 0
6.5314 7.7648 -0.3186 0.234 -0.960 0.155 125 149 157 0 0
6.5365 7.7444 -0.3182 -0.200 -0.963 0.178 214 238 242 0 0
6.5501 7.7416 -0.3183 -0.200 -0.963 0.178 243 252 254 0 0
6.5585 7.7282 -0.3181 -0.533 -0.845 0.044 254 254 255 0 0
6.5725 7.7263 -0.3182 -0.360 -0.933 -0.018 255 252 255 0 0
6.5789 7.7090 -0.3180 -0.108 -0.994 -0.034 250 249 252 0 0
6.5888 7.6988 -0.3179 0.239 -0.964 -0.115 229 237 239 0 0
6.6075 7.7065 -0.3182 0.387 -0.921 -0.046 201 214 222 0 0
6.6632 7.6694 -0.3181 -0.408 -0.818 0.405 52 64 90 0 0
6.6860 7.6269 -0.3175 -0.261 -0.278 0.924 50 66 82 0 0
-4.6775 10.4382 -0.2745 -0.798 -0.586 -0.144 41 32 28 0 0
-4.5080 10.1938 -0.2711 -0.813 -0.570 -0.119 41 33 31 0 0
-4.4593 10.1821 -0.2713 -0.051 -0.383 0.922 38 29 30 0 0
-4.1560 9.7452 -0.2652 -0.807 -0.584 0.086 37 28 28 0 0
-3.7714 9.1980 -0.2575 -0.798 -0.589 0.127 31 27 26 0 0
-2.6496 8.0738 -0.2453 -0.515 -0.833 -0.201 127 123 124 0 0
-2.5390 7.9620 -0.2441 -0.389 -0.656 -0.646 135 127 131 0 0
-2.7368 8.4934 -0.2533 -0.855 -0.514 0.062 150 149 165 0 0
-2.2738 8.8574 -0.2658 -0.583 -0.547 -0.601 48 26 32 0 0
-2.1731 8.6780 -0.2631 -0.661 -0.503 -0.557 52 28 34 0 0
-2.1272 8.6167 -0.2622 -0.661 -0.503 -0.557 58 31 36 0 0
-2.0385 8.4995 -0.2607 -0.610 -0.554 -0.566 76 43 47 0 0
-1.9775 8.4416 -0.2601 -0.455 -0.615 -0.644 100 65 66 0 0
-1.9513 8.4221 -0.2599 -0.455 -0.615 -0.644 108 73 72 0 0
-1.9352 8.4248 -0.2602 -0.584 -0.570 -0.578 109 78 75 0 0
-1.7597 8.6259 -0.2662 0.957 -0.281 -0.070 106 95 86 0 0
-1.7544 8.6554 -0.2669 0.912 -0.396 -0.112 104 90 81 0 0
-1.7539 10.5850 -0.3079 0.166 -0.736 0.657 99 96 103 0 0
-1.5444 10.2787 -0.3036 -0.886 -0.435 -0.161 112 111 119 0 0
-1.0278 9.7362 -0.2974 -0.847 -0.531 -0.000 145 144 158 0 0
-0.8426 9.4435 -0.2931 -0.820 -0.553 -0.145 149 148 162 0 0
-0.7578 9.3485 -0.2920 -0.383 -0.918 0.106 151 150 164 0 0
-0.7226 9.2923 -0.2911 -0.470 -0.871 -0.143 152 151 166 0 0
-0.6893 9.3067 -0.2918 -0.742 -0.631 0.227 158 157 175 0 0
-0.7624 10.9994 -0.3270 -0.411 -0.808 -0.423 46 48 61 0 0
-0.7324 10.9668 -0.3266 -0.721 -0.685 -0.107 48 50 65 0 0
-0.5627 11.0754 -0.3307 0.975 -0.222 0.021 120 119 127 0 0
1.0621 10.9335 -0.3445 0.552 -0.825 -0.124 69 58 64 0 0
1.2040 11.2673 -0.3531 0.003 -0.693 -0.721 57 46 54 0 0
1.3143 11.2617 -0.3541 0.177 -0.940 0.291 58 43 46 0 0
1.6018 11.2172 -0.3561 0.211 -0.952 -0.223 179 174 180 0 0
1.6259 11.1754 -0.3555 -0.066 -0.973 -0.223 177 175 180 0 0
2.0050 11.7395 -0.3714 0.989 -0.136 -0.060 95 98 103 0 0
2.0295 11.6471 -0.3697 0.696 -0.645 -0.315 135 132 139 0 0
2.0978 11.6026 -0.3695 0.543 -0.833 0.101 149 143 147 0 0
2.2996 11.5413 -0.3702 -0.207 -0.922 -0.329 102 133 164 0 0
2.4352 11.6811 -0.3746 0.003 -0.935 0.354 99 133 160 0 0
2.8668 12.2713 -0.3916 0.598 -0.778 -0.194 225 222 229 0 0
2.9911 12.3950 -0.3956 0.480 -0.859 -0.179 205 167 178 0 0
3.0409 12.4367 -0.3970 -0.278 -0.958 0.072 105 63 75 0 0
3.1689 12.5736 -0.4012 0.540 -0.819 -0.196 160 160 172 0 0
3.1931 12.5762 -0.4015 0.071 -0.989 -0.126 166 162 176 0 0
3.2195 12.6100 -0.4025 0.505 -0.858 -0.097 167 161 173 0 0
3.3208 12.6737 -0.4049 0.363 -0.889 -0.281 201 203 215 0 0
3.6010 12.8228 -0.4110 0.079 -0.912 -0.403 184 175 176 0 0
3.8379 13.2016 -0.4215 0.156 -0.907 -0.392 207 196 202 0 0
4.0307 13.1402 -0.4222 -0.108 -0.908 -0.404 130 116 116 0 0
4.1887 13.3913 -0.4291 0.070 -0.994 -0.082 69 56 65 0 0
4.2833 13.3430 -0.4291 -0.568 -0.802 -0.183 102 89 98 0 0
4.5694 13.0858 -0.4266 -0.374 -0.926 -0.052 143 136 144 0 0
4.7025 13.2863 -0.4322 -0.898 -0.411 -0.160 149 137 149 0 0
4.6798 9.8948 -0.3599 0.033 -0.611 0.791 120 71 67 0 0
4.9338 10.0001 -0.3648 0.899 -0.409 -0.155 19 20 38 0 0
6.0280 11.1875 -0.4014 0.487 -0.324 -0.811 91 209 255 0 0
6.0763 11.2751 -0.4037 0.489 -0.311 -0.815 91 209 255 0 0
5.7933 10.0517 -0.3748 0.774 -0.349 -0.528 85 208 251 0 0
5.9298 7.9519 -0.3316 -0.928 -0.364 0.075 69 205 255 0 0
5.9024 7.8477 -0.3291 -0.249 -0.947 0.204 68 204 254 0 0
5.9160 7.8435 -0.3292 -0.319 -0.935 0.157 68 201 252 0 0
5.9285 7.8368 -0.3292 -0.809 -0.509 0.296 75 197 249 0 0
5.9366 7.8198 -0.3289 -0.732 -0.618 0.287 88 179 229 0 0
5.9463 7.8065 -0.3287 -0.773 -0.594 0.221 103 149 196 0 0
5.9912 7.7340 -0.3276 -0.271 -0.944 0.186 164 160 163 0 0
6.0057 7.6975 -0.3270 -0.010 -0.998 0.070 176 174 172 0 0
6.0213 7.6991 -0.3272 0.103 -0.993 0.056 178 174 174 0 0
6.1841 7.7284 -0.3295 -0.348 -0.924 0.158 182 172 171 0 0
6.1819 7.6902 -0.3287 0.350 -0.927 0.136 181 173 173 0 0
6.1963 7.6890 -0.3288 0.579 -0.813 0.057 180 179 177 0 0
6.2369 7.7125 -0.3297 0.454 -0.890 0.043 167 157 158 0 0
6.2480 7.7040 -0.3297 0.638 -0.723 -0.264 94 83 92 0 0
6.2733 7.7267 -0.3304 0.638 -0.723 -0.264 55 47 66 0 0
6.2945 7.7401 -0.3309 0.572 -0.747 -0.339 48 45 64 0 0
6.3181 7.7588 -0.3316 -0.010 -0.880 -0.476 45 49 61 0 0
6.3051 7.6343 -0.3288 -0.128 -0.403 -0.906 47 45 56 0 0
6.3102 7.6136 -0.3284 -0.346 -0.386 -0.855 49 51 63 0 0
6.3343 7.6333 -0.3291 0.498 -0.854 0.148 45 49 60 0 0
6.3547 7.6451 -0.3295 0.535 -0.830 0.157 49 51 63 0 0
6.3758 7.6584 -0.3300 0.439 -0.884 0.160 45 47 60 0 0
6.3906 7.6585 -0.3302 -0.002 -0.996 0.088 46 45 61 0 0
6.4366 7.7235 -0.3320 0.556 -0.780 0.286 45 46 64 0 0
6.5069 7.7451 -0.3332 -0.519 -0.830 0.205 49 64 85 0 0
6.5300 7.7619 -0.3338 0.317 -0.920 0.229 110 127 143 0 0
6.5411 7.7539 -0.3338 -0.155 -0.955 0.254 205 219 231 0 0
6.5510 7.7435 -0.3336 -0.307 -0.898 0.315 243 251 253 0 0
6.5583 7.7277 -0.3334 -0.692 -0.711 0.127 253 255 255 0 0
6.5776 7.7063 -0.3331 -0.327 -0.944 0.050 254 253 249 0 0
6.5903 7.7018 -0.3332 -0.327 -0.944 0.050 246 250 252 0 0
6.6080 7.7074 -0.3335 0.387 -0.921 -0.046 225 234 241 0 0
6.6638 7.6705 -0.3333 -0.266 -0.888 0.374 108 124 142 0 0
-4.6723 10.4290 -0.2952 -0.798 -0.598 -0.075 44 33 30 0 0
-4.5583 10.2760 -0.2928 -0.810 -0.570 -0.139 42 33 31 0 0
-4.4479 10.1626 -0.2914 0.396 -0.393 0.830 38 29 30 0 0
-4.4088 10.1320 -0.2911 0.784 -0.453 0.426 37 28 29 0 0
-2.6533 8.0801 -0.2619 -0.526 -0.813 -0.248 124 120 121 0 0
