ply
format ascii 1.0
element vertex 834
property float x
property float y
property float z
property float nx
property float ny
property float nz
property uchar diffuse_red
property uchar diffuse_green
property uchar diffuse_blue
property uchar class
property uchar detection
end_header
-1.7016 7.2610 1.9979 0.654 -0.736 0.177 218 217 227 0 0
-1.6901 7.2667 1.9990 0.514 -0.837 0.190 200 200 210 0 0
-1.6778 7.2705 1.9995 -0.063 -0.987 -0.147 188 188 198 0 0
-1.6625 7.2668 1.9979 -0.158 -0.967 -0.202 184 183 194 0 0
-1.6565 7.5370 2.0698 0.146 -0.774 0.616 191 188 196 0 0
-1.4959 7.4885 2.0507 -0.749 -0.641 -0.166 121 129 137 0 0
-1.4800 7.4836 2.0488 0.911 -0.404 -0.081 74 84 91 0 0
-2.3991 11.1327 3.0568 0.982 -0.109 0.154 51 76 83 0 0
-2.3978 11.5879 3.1781 0.958 -0.267 -0.110 157 147 153 0 0
0.2623 9.0672 2.4047 0.825 -0.565 0.001 188 185 204 0 0
0.3498 9.1813 2.4318 -0.804 -0.567 0.178 189 187 208 0 0
0.3697 9.1505 2.4228 -0.790 -0.581 0.194 184 182 203 0 0
0.3861 9.3216 2.4678 0.503 -0.526 -0.686 189 186 203 0 0
0.4010 9.3436 2.4731 0.153 -0.495 -0.855 191 188 205 0 0
0.4180 9.3433 2.4724 -0.350 -0.772 -0.530 191 188 205 0 0
0.4355 9.3385 2.4704 -0.268 -0.785 -0.558 191 188 203 0 0
0.4534 9.3287 2.4671 -0.267 -0.758 -0.595 189 187 201 0 0
0.5845 9.3913 2.4788 0.709 -0.687 -0.160 179 177 191 0 0
0.6001 9.4107 2.4834 0.502 -0.864 -0.019 171 169 181 0 0
0.6167 9.4172 2.4845 0.267 -0.960 -0.083 164 162 173 0 0
0.6359 9.3890 2.4763 -0.600 -0.768 0.224 163 160 167 0 0
0.6499 9.4318 2.4871 0.713 -0.690 -0.126 165 160 166 0 0
0.7161 9.4692 2.4946 0.063 -0.935 -0.348 174 168 172 0 0
0.8457 9.6279 2.5319 -0.658 -0.748 -0.084 254 253 249 0 0
0.8639 9.6124 2.5271 -0.658 -0.748 -0.084 253 247 247 0 0
0.8813 9.6126 2.5265 -0.602 -0.798 0.017 254 245 246 0 0
1.0729 9.6044 2.5170 0.408 -0.872 0.271 255 244 245 0 0
1.0907 9.5897 2.5124 0.478 -0.779 0.407 255 251 253 0 0
1.2258 9.9076 2.5921 0.988 -0.094 -0.119 231 148 147 0 0
1.2596 10.1838 2.6644 -0.261 -0.619 0.741 242 152 150 0 0
1.3696 10.1856 2.6607 0.210 -0.966 -0.148 207 121 109 0 0
1.3878 10.1627 2.6539 0.165 -0.960 -0.227 194 105 101 0 0
1.4062 10.1750 2.6565 0.171 -0.973 -0.152 172 86 89 0 0
1.5007 10.3667 2.7040 0.440 -0.845 -0.304 107 94 104 0 0
1.5194 10.3759 2.7057 -0.394 -0.874 -0.285 127 117 125 0 0
1.5590 10.4839 2.7330 -0.671 -0.616 -0.412 156 140 143 0 0
1.6461 10.2537 2.6683 -0.838 -0.539 -0.081 188 164 167 0 0
1.7000 10.2157 2.6561 0.132 -0.968 -0.213 246 236 237 0 0
1.7558 10.2378 2.6599 -0.132 -0.979 -0.157 250 227 230 0 0
1.7739 10.2332 2.6580 -0.312 -0.938 -0.148 242 195 201 0 0
2.2314 10.6809 2.7599 -0.526 -0.703 0.478 57 72 96 0 0
2.2689 10.6742 2.7567 -0.393 -0.910 0.135 58 71 95 0 0
2.2865 10.6584 2.7518 -0.322 -0.947 -0.011 61 74 97 0 0
2.3047 10.6494 2.7487 -0.563 -0.822 -0.086 62 77 96 0 0
2.3240 10.6529 2.7489 -0.411 -0.805 -0.427 69 83 99 0 0
2.3423 10.6464 2.7465 -0.430 -0.797 -0.425 72 81 98 0 0
2.3611 10.6442 2.7452 -0.306 -0.857 -0.415 81 88 104 0 0
2.3795 10.6392 2.7432 -0.341 -0.866 -0.366 110 113 128 0 0
2.5336 10.6651 2.7442 -0.377 -0.913 -0.156 211 201 206 0 0
2.5536 10.6747 2.7460 0.426 -0.902 -0.064 211 205 209 0 0
2.5726 10.6746 2.7452 0.422 -0.905 -0.053 223 214 221 0 0
2.5925 10.6830 2.7467 0.191 -0.947 -0.258 229 219 227 0 0
2.6132 10.6980 2.7500 0.501 -0.804 -0.320 215 205 211 0 0
2.6948 10.7439 2.7591 0.549 -0.809 -0.210 226 218 226 0 0
2.9260 11.3160 2.9028 0.304 -0.805 -0.509 197 187 192 0 0
2.9483 11.3325 2.9064 -0.827 -0.536 -0.169 198 189 194 0 0
3.0285 11.1981 2.8675 0.603 -0.741 -0.296 220 210 216 0 0
3.0731 11.2318 2.8748 0.599 -0.755 -0.266 163 139 148 0 0
3.1905 11.3455 2.9006 0.739 -0.637 -0.217 212 195 201 0 0
3.4860 11.6530 2.9713 -0.113 -0.958 -0.262 191 196 210 0 0
3.5362 11.7026 2.9826 0.749 -0.640 -0.173 178 186 204 0 0
3.5630 11.7361 2.9906 0.762 -0.589 -0.269 196 203 218 0 0
3.6092 11.7622 2.9958 0.631 -0.738 -0.240 171 176 192 0 0
3.7193 12.0092 3.0574 0.947 -0.305 -0.101 56 85 127 0 0
3.7174 11.8922 3.0263 0.003 -0.927 -0.375 55 94 141 0 0
3.7465 11.9340 3.0363 0.083 -0.991 -0.104 55 104 151 0 0
3.7586 11.8901 3.0242 0.320 -0.931 -0.177 62 114 159 0 0
3.7764 11.8748 3.0194 0.087 -0.942 -0.324 68 120 163 0 0
3.8241 11.9043 3.0255 0.723 -0.677 -0.139 82 128 168 0 0
3.8497 11.9273 3.0306 0.752 -0.607 -0.256 91 132 170 0 0
4.0583 12.1154 3.0728 0.819 -0.566 0.095 115 144 178 0 0
4.0918 12.1707 3.0863 0.369 -0.925 -0.090 108 141 174 0 0
4.2826 12.2580 3.1023 0.466 -0.665 -0.583 57 87 128 0 0
4.4229 12.3946 3.1334 0.338 -0.879 -0.336 102 107 128 0 0
4.5219 12.4446 3.1429 0.747 -0.555 0.365 123 116 129 0 0
4.5576 12.5000 3.1563 -0.175 -0.797 0.579 124 118 131 0 0
4.5808 12.5055 3.1569 -0.774 -0.504 0.384 123 119 133 0 0
4.8923 11.7983 2.9565 -0.000 -0.929 -0.370 150 147 159 0 0
4.9118 11.7952 2.9549 0.403 -0.834 -0.377 150 147 158 0 0
4.9351 11.8046 2.9566 0.429 -0.832 -0.353 143 139 150 0 0
5.0146 11.8640 2.9694 0.571 -0.802 -0.176 57 51 60 0 0
5.0405 11.8817 2.9731 0.571 -0.802 -0.176 41 35 43 0 0
5.3223 9.3689 2.2924 -0.336 -0.420 -0.843 10 17 36 0 0
5.2864 9.2445 2.2606 0.103 -0.982 -0.159 10 17 36 0 0
5.3056 9.2525 2.2620 0.310 -0.929 -0.203 9 16 35 0 0
5.3257 9.2626 2.2639 0.441 -0.866 -0.236 9 17 37 0 0
5.2356 9.0122 2.2006 0.552 -0.797 -0.246 8 21 43 0 0
5.2570 9.0261 2.2035 0.552 -0.797 -0.246 25 49 74 0 0
5.3303 9.1616 2.2368 -0.971 -0.238 -0.002 49 93 124 0 0
5.3522 9.1760 2.2398 -0.967 -0.250 -0.041 57 118 156 0 0
5.3776 9.0898 2.2159 -0.905 -0.369 0.212 4 118 189 0 0
-4.8850 10.0115 2.8339 0.169 -0.890 -0.423 53 52 56 0 0
-4.7819 10.6139 2.9896 -0.262 -0.135 -0.955 121 83 82 0 0
-2.6095 7.0363 1.9594 -0.621 -0.782 -0.053 72 70 52 0 0
-2.5879 7.0215 1.9547 -0.675 -0.705 -0.219 72 75 52 0 0
-2.5703 7.0139 1.9520 -0.252 -0.891 -0.377 87 90 63 0 0
-2.5356 6.9999 1.9470 0.015 -0.940 -0.341 121 123 100 0 0
-2.5143 7.1927 1.9972 0.981 -0.071 -0.179 75 85 71 0 0
-2.5400 7.6074 2.1081 -0.714 -0.616 -0.333 150 136 123 0 0
-2.5163 7.5890 2.1023 -0.254 -0.623 -0.740 154 140 127 0 0
-2.4755 7.5651 2.0944 0.852 -0.120 -0.510 158 144 132 0 0
-2.4475 7.5375 2.0860 0.959 -0.130 0.254 158 144 132 0 0
-2.3823 7.4625 2.0637 0.501 -0.208 -0.840 156 143 127 0 0
-2.4091 7.5478 2.0873 0.074 -0.484 0.872 154 142 125 0 0
-2.3967 7.5520 2.0879 0.213 -0.444 0.871 155 145 128 0 0
-2.4201 7.6311 2.1098 0.734 -0.118 -0.669 158 149 132 0 0
-2.4053 7.6306 2.1091 0.710 -0.109 -0.695 158 149 136 0 0
-2.3591 7.5641 2.0897 0.868 -0.151 -0.472 152 142 133 0 0
-2.2891 7.6006 2.0967 -0.447 -0.562 -0.696 126 121 125 0 0
-1.9755 7.1610 1.9684 -0.759 -0.464 -0.456 163 159 156 0 0
-1.7720 7.2301 1.9789 0.134 -0.976 -0.174 163 157 159 0 0
-1.7590 7.2319 1.9789 0.134 -0.976 -0.174 180 174 178 0 0
-1.7468 7.2357 1.9795 0.405 -0.914 -0.035 207 201 207 0 0
-1.7343 7.2387 1.9798 0.521 -0.852 0.058 230 225 232 0 0
-1.7231 7.2451 1.9811 0.660 -0.741 0.121 242 238 246 0 0
-1.7133 7.2548 1.9833 0.663 -0.714 0.223 240 237 246 0 0
-1.7009 7.2583 1.9837 0.537 -0.840 0.078 227 225 235 0 0
-1.6900 7.2655 1.9852 0.537 -0.840 0.078 209 208 219 0 0
-1.6798 7.2743 1.9872 0.283 -0.959 -0.005 192 192 202 0 0
-1.6674 7.2780 1.9877 0.283 -0.959 -0.005 185 184 196 0 0
-1.6507 7.2707 1.9851 0.106 -0.992 -0.071 185 182 196 0 0
-1.6383 7.5257 2.0522 -0.043 -0.981 0.189 194 191 198 0 0
-1.5280 7.5356 2.0506 -0.866 -0.488 -0.113 165 169 178 0 0
-1.4987 7.4948 2.0387 -0.749 -0.641 -0.166 127 135 143 0 0
-1.4816 7.4869 2.0360 0.913 -0.406 -0.046 79 89 98 0 0
-2.4419 11.2609 3.0720 0.146 -0.877 -0.457 52 79 85 0 0
-2.4080 11.6183 3.1654 0.970 -0.235 -0.054 157 147 153 0 0
0.3842 7.6455 2.0071 0.559 -0.827 -0.061 173 167 181 0 0
0.3302 9.2042 2.4220 -0.627 -0.755 0.191 193 191 212 0 0
0.3505 9.1705 2.4123 -0.806 -0.572 0.156 187 185 206 0 0
0.3700 9.1440 2.4045 -0.790 -0.581 0.194 183 181 202 0 0
0.3850 9.3283 2.4528 0.469 -0.595 -0.653 189 186 203 0 0
0.3997 9.3526 2.4586 0.203 -0.760 -0.617 192 189 206 0 0
0.4168 9.3523 2.4579 -0.466 -0.872 -0.150 191 189 203 0 0
0.4345 9.3453 2.4554 -0.546 -0.833 -0.092 190 186 201 0 0
0.5998 9.4091 2.4660 0.642 -0.764 -0.065 169 167 178 0 0
0.6162 9.4185 2.4679 0.267 -0.960 -0.083 164 163 171 0 0
0.6357 9.3861 2.4586 -0.463 -0.868 0.178 165 163 168 0 0
0.7145 9.4885 2.4827 -0.283 -0.941 -0.184 176 167 172 0 0
0.7326 9.4745 2.4783 -0.062 -0.982 -0.176 191 182 187 0 0
0.8001 9.4981 2.4820 0.269 -0.939 -0.215 253 247 247 0 0
0.8170 9.5043 2.4830 0.501 -0.844 -0.190 255 250 247 0 0
0.8328 9.5328 2.4899 0.614 -0.691 -0.381 252 248 245 0 0
0.8474 9.5861 2.5035 -0.399 -0.894 0.202 255 250 247 0 0
0.8634 9.6147 2.5105 -0.658 -0.748 -0.084 255 247 249 0 0
0.8808 9.6157 2.5101 -0.707 -0.705 0.054 255 244 248 0 0
1.2594 10.1576 2.6392 0.009 -0.714 0.700 237 148 138 0 0
1.2778 10.1327 2.6319 -0.238 -0.964 -0.121 230 142 133 0 0
1.2961 10.1270 2.6297 0.020 -0.994 -0.109 216 129 122 0 0
1.3692 10.1890 2.6434 -0.014 -0.938 -0.347 196 109 102 0 0
1.3875 10.1754 2.6391 0.214 -0.906 -0.364 183 93 92 0 0
1.4058 10.1794 2.6394 0.148 -0.916 -0.374 165 79 81 0 0
1.5004 10.3726 2.6870 0.440 -0.845 -0.304 105 93 103 0 0
1.5192 10.3816 2.6887 -0.394 -0.874 -0.285 125 118 125 0 0
1.5389 10.4386 2.7030 -0.789 -0.582 -0.196 143 133 137 0 0
1.5588 10.4945 2.7171 -0.607 -0.745 -0.275 155 141 143 0 0
1.6456 10.2484 2.6486 -0.732 -0.662 -0.161 187 165 167 0 0
1.6997 10.2194 2.6389 0.132 -0.968 -0.213 247 236 237 0 0
1.7555 10.2405 2.6423 -0.193 -0.967 -0.164 251 227 230 0 0
1.7737 10.2361 2.6405 -0.312 -0.938 -0.148 242 193 200 0 0
2.0748 10.3532 2.6601 0.607 -0.778 -0.164 170 163 170 0 0
2.2301 10.6686 2.7377 -0.353 -0.736 0.578 79 96 115 0 0
2.2684 10.6725 2.7373 -0.256 -0.889 0.379 74 87 106 0 0
2.2865 10.6619 2.7338 -0.383 -0.897 0.221 71 84 103 0 0
2.3060 10.6676 2.7345 -0.369 -0.929 0.008 68 83 102 0 0
2.3614 10.6514 2.7281 -0.328 -0.879 -0.345 68 76 92 0 0
2.3797 10.6450 2.7258 -0.390 -0.876 -0.283 105 108 123 0 0
2.5534 10.6754 2.7272 0.468 -0.870 -0.155 221 215 219 0 0
2.5724 10.6765 2.7268 0.492 -0.850 -0.187 231 222 229 0 0
2.6132 10.7012 2.7318 0.437 -0.841 -0.320 223 212 219 0 0
2.6956 10.7533 2.7424 0.582 -0.748 -0.320 228 220 227 0 0
2.7166 10.7685 2.7457 0.041 -0.894 -0.447 230 223 230 0 0
2.7363 10.7733 2.7462 0.172 -0.892 -0.417 229 219 227 0 0
2.9267 11.3236 2.8847 0.331 -0.792 -0.512 198 188 193 0 0
3.0293 11.2059 2.8496 0.603 -0.741 -0.296 219 208 214 0 0
3.0739 11.2388 2.8567 0.599 -0.755 -0.266 159 137 145 0 0
3.1919 11.3564 2.8833 0.772 -0.604 -0.198 214 197 203 0 0
3.3943 11.5991 2.9399 0.471 -0.795 -0.382 195 201 215 0 0
3.4878 11.6648 2.9538 -0.004 -0.999 0.046 183 188 204 0 0
3.5131 11.6907 2.9597 0.738 -0.617 -0.273 185 192 211 0 0
3.5375 11.7118 2.9643 0.789 -0.613 -0.045 189 197 216 0 0
3.5657 11.7524 2.9740 0.778 -0.605 -0.170 200 207 223 0 0
3.5884 11.7633 2.9760 0.499 -0.840 -0.213 199 203 218 0 0
3.6104 11.7707 2.9772 0.535 -0.812 -0.233 169 174 190 0 0
3.7214 12.0215 3.0394 0.947 -0.305 -0.101 56 86 130 0 0
3.7189 11.9020 3.0078 0.072 -0.902 -0.426 57 97 145 0 0
3.7433 11.9194 3.0115 -0.081 -0.994 -0.069 56 104 152 0 0
3.7590 11.8937 3.0041 0.416 -0.900 -0.130 62 114 159 0 0
3.7778 11.8834 3.0006 0.273 -0.958 -0.085 68 121 163 0 0
3.8255 11.9127 3.0066 0.677 -0.726 0.121 81 127 167 0 0
3.8485 11.9230 3.0085 0.656 -0.748 0.099 87 129 169 0 0
3.8982 11.9607 3.0166 0.472 -0.861 -0.188 100 134 173 0 0
3.9230 11.9787 3.0204 0.510 -0.830 -0.226 106 138 176 0 0
3.9492 12.0030 3.0258 0.646 -0.741 -0.185 106 138 175 0 0
4.0048 12.0658 3.0403 0.572 -0.820 0.009 99 133 171 0 0
4.0843 12.1385 3.0566 0.078 -0.969 0.235 90 129 166 0 0
4.1706 12.1446 3.0549 0.269 -0.952 -0.146 75 111 150 0 0
4.1933 12.1512 3.0558 0.329 -0.936 -0.122 69 103 146 0 0
4.1909 12.0499 3.0291 0.187 -0.960 -0.207 62 96 141 0 0
4.2888 12.2858 3.0878 0.200 -0.620 -0.759 50 84 128 0 0
4.3065 12.2701 3.0830 0.666 -0.559 -0.494 47 79 120 0 0
4.3346 12.2981 3.0893 0.722 -0.526 -0.450 53 81 117 0 0
4.3628 12.3260 3.0957 0.666 -0.559 -0.494 67 88 120 0 0
4.4280 12.3291 3.0940 0.471 -0.844 -0.259 115 109 130 0 0
4.4447 12.3098 3.0883 0.115 -0.940 -0.322 121 111 129 0 0
4.4960 12.4291 3.1179 -0.242 -0.962 0.127 123 112 129 0 0
4.5400 12.5175 3.1397 0.041 -0.706 0.707 124 115 131 0 0
4.5916 12.4642 3.1236 -0.786 -0.540 0.300 126 122 137 0 0
4.8944 11.8063 2.9378 0.160 -0.915 -0.370 150 146 159 0 0
4.9136 11.8022 2.9360 0.429 -0.832 -0.353 149 146 157 0 0
4.9842 11.8327 2.9414 0.538 -0.775 -0.331 79 73 82 0 0
5.0161 11.8699 2.9500 0.531 -0.818 -0.221 48 43 51 0 0
5.0418 11.8869 2.9536 0.571 -0.802 -0.176 40 35 42 0 0
5.0852 11.9609 2.9715 0.796 -0.569 -0.206 38 34 41 0 0
5.1138 11.9862 2.9771 0.771 -0.636 0.041 37 33 40 0 0
5.3275 9.3819 2.2792 -0.267 -0.410 -0.872 10 17 36 0 0
5.2873 9.2471 2.2451 0.103 -0.982 -0.159 11 18 37 0 0
5.3088 9.2605 2.2478 0.232 -0.953 -0.194 10 16 37 0 0
5.3277 9.2677 2.2490 0.441 -0.866 -0.236 9 18 40 0 0
5.2383 9.0190 2.1865 0.576 -0.786 -0.226 8 23 47 0 0
5.2602 9.0341 2.1897 0.576 -0.786 -0.226 30 56 83 0 0
5.2806 9.0455 2.1919 0.418 -0.878 -0.232 50 98 130 0 0
5.3513 9.1743 2.2233 -0.973 -0.231 -0.013 56 121 161 0 0
5.3780 9.0912 2.2003 -0.917 -0.392 0.075 4 119 191 0 0
-4.8705 10.0185 2.8166 0.511 -0.859 -0.012 59 55 60 0 0
-2.6150 7.0455 1.9489 -0.588 -0.751 -0.299 84 79 62 0 0
-2.5950 7.0336 1.9450 -0.578 -0.742 -0.340 74 74 53 0 0
-2.5752 7.0222 1.9413 -0.221 -0.904 -0.367 79 80 55 0 0
-2.5509 7.0023 1.9351 -0.486 -0.626 -0.610 92 93 66 0 0
-2.5333 6.9948 1.9325 -0.440 -0.721 -0.536 112 112 86 0 0
-2.4992 6.9814 1.9277 0.363 -0.924 0.120 149 151 130 0 0
-2.5102 7.5756 2.0844 -0.153 -0.945 -0.290 164 150 137 0 0
-2.5076 7.5999 2.0907 0.881 -0.138 -0.452 165 151 138 0 0
-2.4925 7.5989 2.0899 0.875 -0.110 -0.472 164 150 139 0 0
-2.4489 7.5395 2.0726 0.962 -0.135 0.237 162 148 137 0 0
-2.3823 7.4616 2.0496 0.950 -0.089 0.300 158 145 129 0 0
-2.3824 7.4914 2.0575 0.313 -0.673 -0.670 154 143 125 0 0
-2.3684 7.4922 2.0571 0.902 -0.262 -0.343 154 143 125 0 0
-2.4243 7.6388 2.0978 0.672 -0.119 -0.731 156 146 129 0 0
-2.4156 7.6512 2.1007 0.681 -0.117 -0.723 157 147 133 0 0
-2.2964 7.5841 2.0786 -0.063 -0.902 -0.426 125 119 122 0 0
-2.2923 7.6065 2.0843 -0.531 -0.612 -0.586 127 122 125 0 0
-2.2185 7.5720 2.0725 -0.088 -0.698 -0.711 152 146 145 0 0
-2.1876 7.5361 2.0618 -0.310 -0.725 -0.615 156 151 149 0 0
-2.1512 7.4875 2.0477 -0.508 -0.567 -0.648 159 155 153 0 0
-2.0365 7.4542 2.0346 -0.486 -0.372 -0.791 168 166 163 0 0
-1.9310 7.3096 1.9925 -0.841 -0.385 -0.380 164 161 159 0 0
-1.7727 7.2307 1.9658 0.325 -0.938 -0.123 159 152 154 0 0
-1.7606 7.2349 1.9664 0.128 -0.967 -0.221 170 163 166 0 0
-1.7476 7.2366 1.9664 0.128 -0.967 -0.221 192 186 191 0 0
-1.7349 7.2392 1.9666 0.485 -0.874 -0.031 219 213 220 0 0
-1.7235 7.2451 1.9677 0.598 -0.797 0.078 238 234 241 0 0
-1.7127 7.2524 1.9692 0.660 -0.741 0.121 243 241 248 0 0
-1.7022 7.2605 1.9709 0.723 -0.691 0.019 235 234 243 0 0
-1.6911 7.2670 1.9722 0.604 -0.795 0.049 219 218 228 0 0
-1.6821 7.2790 1.9750 0.590 -0.805 0.051 200 200 210 0 0
-1.6683 7.2791 1.9745 0.401 -0.909 -0.116 189 187 200 0 0
-1.6697 7.3876 2.0031 0.913 -0.061 0.403 184 180 194 0 0
-1.6372 7.5218 2.0372 0.233 -0.832 0.503 191 189 196 0 0
-1.5751 7.5082 2.0313 0.564 -0.537 0.627 202 199 207 0 0
-1.5066 7.5153 2.0306 -0.814 -0.576 -0.070 132 140 149 0 0
-1.4793 7.4794 2.0201 -0.716 -0.698 -0.013 84 94 103 0 0
-1.5776 7.9952 2.1595 0.759 -0.523 0.388 43 69 74 0 0
-2.4462 11.2721 3.0546 0.506 -0.289 -0.813 54 82 87 0 0
-2.4092 11.6201 3.1448 0.967 -0.250 -0.050 157 147 154 0 0
0.2298 9.0551 2.3699 0.927 -0.360 -0.108 181 177 192 0 0
0.2435 9.0789 2.3757 0.937 -0.346 -0.051 187 183 200 0 0
0.3044 9.2827 2.4270 0.470 -0.882 0.036 195 193 215 0 0
0.3211 9.2854 2.4271 0.681 -0.724 -0.108 191 189 210 0 0
0.3371 9.2947 2.4289 0.256 -0.961 -0.100 187 185 206 0 0
0.3701 9.1390 2.3867 -0.798 -0.569 0.199 185 184 202 0 0
0.3829 9.3459 2.4406 0.797 -0.554 -0.241 191 188 205 0 0
0.3982 9.3636 2.4447 0.438 -0.802 -0.406 192 190 204 0 0
0.4157 9.3595 2.4430 -0.586 -0.804 0.100 192 190 204 0 0
0.4339 9.3471 2.4390 -0.647 -0.755 0.109 189 185 200 0 0
0.5991 9.4137 2.4503 0.800 -0.582 -0.148 167 165 176 0 0
0.6157 9.4201 2.4513 0.248 -0.967 0.058 164 163 169 0 0
0.6356 9.3825 2.4407 -0.463 -0.868 0.178 167 162 168 0 0
0.7139 9.4919 2.4665 -0.283 -0.941 -0.184 176 167 172 0 0
0.7995 9.5012 2.4657 0.302 -0.908 -0.289 254 248 248 0 0
0.8472 9.5830 2.4854 -0.336 -0.939 0.069 253 247 247 0 0
0.8629 9.6172 2.4938 -0.685 -0.728 -0.036 255 249 252 0 0
0.8805 9.6147 2.4925 -0.707 -0.705 0.054 255 248 251 0 0
0.9899 9.4746 2.4515 0.468 -0.540 0.699 255 245 245 0 0
1.2591 10.1466 2.6181 -0.412 -0.908 -0.074 236 146 136 0 0
1.2957 10.1292 2.6121 0.223 -0.933 -0.282 216 129 120 0 0
1.4054 10.1695 2.6186 -0.331 -0.799 -0.502 173 87 88 0 0
1.5192 10.4064 2.6766 0.148 -0.937 -0.317 127 120 127 0 0
1.5387 10.4478 2.6868 -0.782 -0.592 -0.193 143 133 136 0 0
1.5585 10.4998 2.6997 -0.616 -0.734 -0.285 155 141 141 0 0
1.6454 10.2538 2.6317 -0.723 -0.669 -0.173 187 165 167 0 0
1.6631 10.2322 2.6253 -0.740 -0.641 -0.201 213 194 194 0 0
1.6995 10.2232 2.6216 0.132 -0.968 -0.213 249 236 238 0 0
1.7553 10.2435 2.6248 -0.193 -0.967 -0.164 251 227 230 0 0
1.7735 10.2402 2.6232 -0.193 -0.967 -0.164 240 192 198 0 0
2.0745 10.3539 2.6418 0.504 -0.847 -0.168 162 155 163 0 0
2.1745 10.6919 2.7269 -0.190 -0.942 0.277 61 77 100 0 0
2.2672 10.6626 2.7157 -0.270 -0.919 0.288 87 100 120 0 0
2.2853 10.6522 2.7123 -0.419 -0.907 0.038 82 95 114 0 0
2.3035 10.6443 2.7095 -0.291 -0.957 0.010 83 98 118 0 0
2.3217 10.6357 2.7065 0.085 -0.992 -0.092 83 96 116 0 0
2.3429 10.6599 2.7121 -0.286 -0.946 -0.151 85 93 113 0 0
2.3613 10.6545 2.7100 -0.084 -0.975 -0.207 84 91 110 0 0
2.3799 10.6512 2.7084 -0.336 -0.910 -0.244 114 118 133 0 0
2.5534 10.6786 2.7091 0.468 -0.870 -0.155 213 206 211 0 0
2.5725 10.6805 2.7088 0.492 -0.850 -0.187 228 219 226 0 0
2.6129 10.7019 2.7129 0.456 -0.876 -0.157 235 224 231 0 0
2.6557 10.7417 2.7218 0.568 -0.737 -0.365 232 221 229 0 0
2.6962 10.7611 2.7253 0.582 -0.748 -0.320 231 224 231 0 0
2.7173 10.7770 2.7287 0.041 -0.894 -0.447 230 223 230 0 0
2.7369 10.7810 2.7290 0.183 -0.864 -0.469 230 221 228 0 0
2.9674 11.3307 2.8650 -0.597 -0.683 -0.420 211 203 210 0 0
2.9867 11.3258 2.8629 -0.139 -0.952 -0.272 230 222 229 0 0
3.0301 11.2137 2.8318 0.603 -0.741 -0.296 218 205 212 0 0
3.0742 11.2432 2.8379 0.556 -0.803 -0.215 163 141 149 0 0
3.1215 11.2921 2.8489 0.706 -0.672 -0.226 196 168 178 0 0
3.1931 11.3658 2.8656 0.721 -0.616 -0.316 217 200 207 0 0
3.3088 11.4581 2.8855 0.326 -0.875 -0.358 158 158 168 0 0
3.5145 11.7004 2.9415 0.738 -0.617 -0.273 180 189 207 0 0
3.5400 11.7268 2.9475 0.778 -0.605 -0.170 193 201 221 0 0
3.5666 11.7589 2.9549 0.778 -0.605 -0.170 203 210 227 0 0
3.6113 11.7769 2.9579 0.523 -0.786 -0.331 167 172 190 0 0
3.7183 11.9004 2.9864 -0.080 -0.859 -0.506 56 96 145 0 0
3.7392 11.9008 2.9857 -0.252 -0.960 -0.119 56 104 153 0 0
3.7596 11.8980 2.9842 0.320 -0.931 -0.177 60 113 159 0 0
3.7778 11.8852 2.9801 0.273 -0.958 -0.085 66 120 163 0 0
3.9125 11.9308 2.9870 0.223 -0.910 0.349 92 128 169 0 0
4.0061 12.0734 3.0210 0.482 -0.864 0.146 91 131 169 0 0
4.0305 12.0880 3.0239 0.687 -0.712 0.145 91 130 169 0 0
4.0557 12.1063 3.0278 0.516 -0.846 0.131 92 130 168 0 0
4.0829 12.1338 3.0340 -0.052 -0.966 0.254 92 130 167 0 0
4.0983 12.1076 3.0265 -0.539 -0.834 -0.115 89 125 163 0 0
4.1960 12.1642 3.0377 0.404 -0.915 0.006 63 100 145 0 0
4.2685 12.2920 3.0686 0.276 -0.692 -0.667 54 88 134 0 0
4.2919 12.3003 3.0699 0.257 -0.728 -0.635 50 83 127 0 0
4.3124 12.2961 3.0680 0.404 -0.756 -0.515 47 78 118 0 0
4.3366 12.3076 3.0701 0.404 -0.756 -0.515 53 80 113 0 0
4.3606 12.3184 3.0720 0.369 -0.775 -0.513 68 88 116 0 0
4.5082 12.4789 3.1087 -0.027 -0.770 0.638 121 111 127 0 0
4.5709 12.3848 3.0815 -0.702 -0.632 0.328 126 123 138 0 0
4.8964 11.8142 2.9191 0.160 -0.915 -0.370 150 147 159 0 0
4.9169 11.8140 2.9183 0.304 -0.889 -0.342 147 144 155 0 0
4.9397 11.8220 2.9195 0.407 -0.853 -0.328 134 129 140 0 0
4.9635 11.8329 2.9215 0.431 -0.842 -0.325 104 98 108 0 0
5.0177 11.8761 2.9308 0.531 -0.818 -0.221 43 38 45 0 0
5.0432 11.8921 2.9340 0.571 -0.802 -0.176 40 35 42 0 0
5.0692 11.9099 2.9377 0.577 -0.706 -0.412 39 34 41 0 0
5.0948 11.9258 2.9409 0.845 -0.511 0.160 37 34 41 0 0
5.0500 9.8556 2.3979 -0.351 -0.225 0.909 29 29 39 0 0
5.0674 9.7209 2.3618 -0.219 -0.276 0.936 25 25 37 0 0
5.3240 9.3739 2.2608 -0.528 -0.390 -0.755 9 16 34 0 0
5.2879 9.2491 2.2293 0.187 -0.972 -0.142 10 17 36 0 0
5.3097 9.2631 2.2322 0.441 -0.866 -0.236 9 17 39 0 0
5.3297 9.2728 2.2340 0.441 -0.866 -0.236 9 20 44 0 0
5.2406 9.0248 2.1721 0.576 -0.786 -0.226 10 26 52 0 0
5.2625 9.0399 2.1753 0.576 -0.786 -0.226 38 66 94 0 0
5.3468 9.2012 2.2145 -0.971 -0.239 0.030 54 103 139 0 0
5.3514 9.1749 2.2074 -0.973 -0.231 -0.013 58 125 167 0 0
5.3789 9.0935 2.1849 -0.786 -0.575 -0.228 4 120 193 0 0
5.3896 9.0469 2.1723 -0.926 -0.322 -0.196 6 118 192 0 0
-2.5667 6.1622 1.7031 -0.700 -0.647 0.303 41 45 51 0 0
-4.8568 10.0266 2.7996 0.685 -0.722 0.101 66 60 64 0 0
-4.8447 10.1686 2.8363 0.911 -0.097 0.402 121 109 109 0 0
-2.6267 7.0661 1.9416 -0.567 -0.608 -0.557 95 88 73 0 0
-2.6047 7.0507 1.9368 -0.593 -0.641 -0.487 84 80 62 0 0
-2.5797 7.0297 1.9303 -0.140 -0.812 -0.567 73 72 48 0 0
-2.5671 7.0316 1.9303 0.237 -0.697 -0.677 88 88 60 0 0
-2.5367 7.0003 1.9210 -0.555 -0.583 -0.593 103 103 76 0 0
-2.4975 6.9775 1.9136 -0.066 -0.996 -0.056 137 140 119 0 0
-2.5923 7.5934 2.0781 0.672 -0.109 0.733 150 137 121 0 0
-2.5405 7.6064 2.0796 -0.393 -0.800 0.453 177 163 149 0 0
-2.5209 7.5963 2.0762 0.076 -0.958 0.277 174 160 147 0 0
-2.5108 7.6054 2.0782 0.889 -0.136 -0.438 170 156 143 0 0
-2.5102 7.6340 2.0856 0.880 -0.099 -0.465 169 155 144 0 0
-2.3992 7.4955 2.0452 0.979 -0.102 0.175 160 146 131 0 0
-2.3865 7.4991 2.0457 -0.034 -0.998 -0.047 156 144 127 0 0
-2.3797 7.5147 2.0495 0.600 -0.301 -0.741 155 144 127 0 0
-2.3234 7.5788 2.0641 0.309 -0.947 -0.093 113 106 105 0 0
-2.3115 7.5843 2.0651 0.507 -0.852 -0.133 117 111 113 0 0
-2.3000 7.5908 2.0664 0.214 -0.970 -0.110 121 115 117 0 0
-2.2931 7.6071 2.0704 -0.652 -0.582 -0.486 124 120 121 0 0
-2.2405 7.5876 2.0633 -0.425 -0.605 -0.673 144 138 139 0 0
-2.0207 7.4495 2.0189 -0.221 -0.278 -0.935 165 164 162 0 0
-1.7753 7.2360 1.9538 0.239 -0.967 -0.083 158 151 153 0 0
-1.7628 7.2390 1.9542 0.239 -0.967 -0.083 163 156 159 0 0
-1.7501 7.2416 1.9544 -0.075 -0.942 -0.328 179 172 177 0 0
-1.7357 7.2401 1.9534 0.443 -0.896 -0.034 204 198 204 0 0
-1.7236 7.2442 1.9540 0.524 -0.852 0.015 229 225 232 0 0
-1.7123 7.2504 1.9552 0.660 -0.741 0.121 241 239 246 0 0
-1.7024 7.2600 1.9574 0.723 -0.691 0.019 240 238 246 0 0
-1.6929 7.2705 1.9597 0.770 -0.637 -0.022 228 227 236 0 0
-1.6823 7.2785 1.9614 0.645 -0.763 0.035 210 209 220 0 0
-1.6683 7.2782 1.9608 0.493 -0.861 -0.126 194 192 205 0 0
-1.6573 7.2851 1.9622 0.557 -0.821 -0.127 188 184 199 0 0
-1.6654 7.5198 2.0239 0.415 -0.740 0.529 182 181 189 0 0
-1.6540 7.5272 2.0254 -0.535 -0.845 0.009 184 183 191 0 0
-1.6340 7.5125 2.0208 0.106 -0.870 0.482 188 187 195 0 0
-1.5836 7.4920 2.0135 -0.216 -0.943 -0.253 201 198 207 0 0
-1.5611 7.4701 2.0069 -0.381 -0.875 -0.299 202 199 208 0 0
-1.4801 7.4805 2.0066 -0.716 -0.698 -0.013 89 98 107 0 0
-2.4892 11.3366 3.0525 -0.150 -0.255 -0.955 54 84 91 0 0
0.3041 9.2818 2.4100 0.470 -0.882 0.036 194 192 213 0 0
0.3202 9.2898 2.4115 0.610 -0.793 -0.005 190 188 209 0 0
0.3368 9.2940 2.4119 0.284 -0.959 0.000 186 184 204 0 0
0.3512 9.3185 2.4178 0.862 -0.461 -0.211 186 185 203 0 0
0.3826 9.3447 2.4234 0.684 -0.718 -0.130 191 188 205 0 0
0.3973 9.3687 2.4292 0.466 -0.883 -0.048 193 189 204 0 0
0.4155 9.3574 2.4255 -0.586 -0.804 0.100 193 189 204 0 0
0.5984 9.4169 2.4342 0.800 -0.582 -0.148 164 162 173 0 0
0.6157 9.4157 2.4332 0.099 -0.994 -0.050 162 161 167 0 0
0.7133 9.4950 2.4502 -0.182 -0.953 -0.243 177 168 173 0 0
0.9566 9.4397 2.4266 -0.766 -0.641 0.039 253 245 246 0 0
0.9749 9.4083 2.4177 -0.473 -0.771 0.426 255 250 248 0 0
1.2588 10.1305 2.5957 -0.410 -0.905 -0.109 233 143 135 0 0
1.2771 10.1233 2.5931 -0.477 -0.841 -0.253 220 131 125 0 0
1.2953 10.1211 2.5919 0.355 -0.934 0.049 211 124 117 0 0
1.3685 10.2090 2.6121 0.004 -0.911 -0.412 228 142 130 0 0
1.3868 10.1884 2.6060 0.174 -0.939 -0.298 211 123 117 0 0
1.4051 10.1918 2.6062 0.327 -0.926 -0.189 181 95 96 0 0
1.5192 10.4301 2.6642 0.223 -0.962 -0.156 125 120 124 0 0
1.6450 10.2545 2.6135 -0.686 -0.672 -0.278 187 164 166 0 0
1.7175 10.2242 2.6029 0.106 -0.954 -0.281 253 241 241 0 0
1.7551 10.2478 2.6076 -0.237 -0.953 -0.189 248 229 229 0 0
1.7733 10.2436 2.6058 -0.237 -0.953 -0.189 239 192 198 0 0
2.0744 10.3573 2.6242 0.504 -0.847 -0.168 162 154 164 0 0
2.1755 10.7100 2.7125 -0.086 -0.731 -0.677 48 65 89 0 0
2.1946 10.7102 2.7119 -0.633 -0.690 -0.352 50 66 91 0 0
2.3026 10.6382 2.6890 -0.120 -0.977 0.175 82 96 120 0 0
2.3211 10.6337 2.6871 0.113 -0.985 -0.130 87 99 121 0 0
2.3425 10.6598 2.6931 -0.084 -0.975 -0.207 91 99 120 0 0
2.3613 10.6584 2.6920 -0.084 -0.975 -0.207 97 104 123 0 0
2.3798 10.6539 2.6901 -0.698 -0.707 -0.118 124 127 144 0 0
2.5525 10.6737 2.6888 0.470 -0.869 -0.158 219 212 217 0 0
2.5727 10.6850 2.6910 0.501 -0.743 -0.443 228 219 226 0 0
2.6562 10.7489 2.7045 0.416 -0.833 -0.364 235 225 233 0 0
2.6788 10.7771 2.7111 0.462 -0.694 -0.552 235 225 233 0 0
2.7181 10.7862 2.7119 -0.122 -0.913 -0.388 232 222 230 0 0
2.7385 10.7963 2.7138 0.292 -0.835 -0.466 230 221 226 0 0
2.9674 11.3330 2.8455 -0.286 -0.834 -0.472 215 205 212 0 0
2.9860 11.3232 2.8422 -0.059 -0.974 -0.218 232 223 230 0 0
3.0306 11.2197 2.8134 0.506 -0.829 -0.239 215 200 208 0 0
3.0746 11.2485 2.8193 0.556 -0.803 -0.215 159 136 144 0 0
3.3098 11.4661 2.8673 0.330 -0.873 -0.360 158 156 167 0 0
3.4880 11.6694 2.9137 -0.415 -0.908 -0.061 167 171 187 0 0
3.5160 11.7102 2.9233 0.738 -0.617 -0.273 166 175 194 0 0
3.5417 11.7382 2.9296 0.738 -0.617 -0.273 182 190 210 0 0
3.5686 11.7716 2.9374 0.760 -0.571 -0.310 199 205 222 0 0
3.6120 11.7828 2.9386 0.535 -0.812 -0.233 164 168 186 0 0
3.7185 11.9035 2.9662 -0.241 -0.875 -0.421 53 95 143 0 0
3.7394 11.9033 2.9653 -0.252 -0.960 -0.119 54 104 152 0 0
3.7591 11.8976 2.9631 0.583 -0.772 -0.253 59 113 160 0 0
3.7771 11.8831 2.9586 0.588 -0.788 -0.183 67 120 167 0 0
4.0280 12.0781 3.0001 0.668 -0.734 0.126 93 133 170 0 0
4.0650 12.1503 3.0176 0.072 -0.752 0.655 99 135 171 0 0
4.1023 12.1269 3.0100 -0.176 -0.908 0.380 106 134 168 0 0
4.1232 12.1257 3.0089 0.020 -0.903 0.428 98 124 160 0 0
4.2327 12.2321 3.0326 0.789 -0.575 -0.214 57 92 138 0 0
4.2693 12.2968 3.0481 0.521 -0.700 -0.488 53 86 132 0 0
4.2938 12.3098 3.0506 0.284 -0.860 -0.424 50 81 124 0 0
4.3165 12.3149 3.0511 0.571 -0.721 -0.393 48 77 113 0 0
4.3418 12.3308 3.0543 0.343 -0.823 -0.454 55 79 109 0 0
4.3642 12.3343 3.0544 0.080 -0.923 -0.375 68 86 109 0 0
4.3938 12.3676 3.0619 0.517 -0.776 -0.362 83 93 112 0 0
4.4171 12.3749 3.0630 0.541 -0.807 -0.238 98 99 115 0 0
4.4473 12.3227 3.0482 0.393 -0.799 0.455 111 105 118 0 0
4.5493 12.3022 3.0390 -0.447 -0.888 0.107 123 121 136 0 0
4.7343 12.4329 3.0662 0.458 -0.818 0.349 141 138 153 0 0
4.7492 12.4080 3.0591 0.663 -0.748 0.005 141 139 153 0 0
4.8192 11.8317 2.9058 -0.497 -0.435 -0.751 151 147 161 0 0
4.8221 11.7709 2.8898 0.766 -0.589 -0.258 151 147 161 0 0
4.8506 11.7988 2.8960 0.547 -0.615 -0.568 151 147 161 0 0
4.8968 11.8165 2.8989 0.313 -0.908 -0.279 150 146 159 0 0
4.9190 11.8223 2.8996 0.232 -0.944 -0.234 144 140 151 0 0
4.9422 11.8314 2.9011 0.268 -0.944 -0.191 124 119 131 0 0
4.9650 11.8389 2.9022 0.441 -0.862 -0.252 91 85 95 0 0
4.9930 11.8636 2.9076 0.392 -0.901 -0.187 56 51 60 0 0
5.0185 11.8798 2.9108 0.578 -0.785 -0.223 41 36 44 0 0
5.0512 11.9194 2.9200 0.672 -0.671 -0.313 40 35 42 0 0
5.0892 11.9086 2.9157 0.845 -0.511 0.160 37 34 41 0 0
5.2969 9.3093 2.2285 -0.285 -0.513 -0.810 10 17 34 0 0
5.1603 8.9443 2.1383 0.752 -0.621 -0.220 10 17 36 0 0
5.1907 8.9800 2.1465 0.715 -0.660 -0.232 9 17 39 0 0
5.2428 9.0305 2.1577 0.552 -0.797 -0.246 12 30 55 0 0
5.2649 9.0458 2.1609 0.576 -0.786 -0.226 42 72 101 0 0
5.3456 9.1987 2.1978 -0.957 -0.281 0.078 57 108 144 0 0
5.3503 9.1728 2.1908 -0.958 -0.274 0.080 58 127 170 0 0
5.3764 9.0882 2.1677 -0.878 -0.476 -0.061 2 120 194 0 0
-4.8549 10.0545 2.7882 0.545 -0.823 -0.163 77 71 72 0 0
-2.5914 7.0506 1.9231 -0.506 -0.704 -0.499 80 76 55 0 0
-2.5721 7.0399 1.9196 0.255 -0.726 -0.638 83 82 54 0 0
-2.5467 7.0180 1.9129 -0.555 -0.583 -0.593 96 96 68 0 0
-2.5597 7.2774 1.9807 0.897 -0.054 -0.439 44 54 35 0 0
-2.5675 7.3193 1.9919 0.946 -0.048 -0.321 46 59 46 0 0
-2.5866 7.4390 2.0237 -0.442 -0.701 -0.559 83 92 83 0 0
-2.5577 7.4384 2.0225 0.257 -0.946 0.195 124 125 112 0 0
-2.5794 7.6249 2.0717 -0.773 -0.616 0.152 171 154 145 0 0
-2.5345 7.5934 2.0618 0.105 -0.743 0.661 183 169 159 0 0
-2.5290 7.6117 2.0664 0.285 -0.619 0.732 179 165 153 0 0
-2.5051 7.6226 2.0683 0.983 -0.095 -0.156 171 158 144 0 0
-2.4948 7.6314 2.0702 0.982 -0.080 -0.169 167 154 140 0 0
-2.4462 7.5615 2.0502 0.984 -0.128 -0.125 164 150 136 0 0
-2.3707 7.6164 2.0616 -0.583 -0.760 0.289 130 122 115 0 0
-2.3402 7.5826 2.0517 0.145 -0.855 0.498 115 108 104 0 0
-2.3279 7.5873 2.0525 0.301 -0.814 0.496 109 103 102 0 0
-2.3157 7.5923 2.0533 0.301 -0.814 0.496 111 106 107 0 0
-2.3003 7.5904 2.0522 0.198 -0.934 0.298 115 109 112 0 0
-2.2973 7.6151 2.0585 -0.655 -0.638 -0.404 119 113 116 0 0
-2.2345 7.6051 2.0536 -0.572 -0.755 -0.323 146 141 141 0 0
-2.2141 7.6565 2.0661 0.115 -0.928 0.354 158 154 153 0 0
-2.1817 7.6169 2.0546 -0.111 -0.962 -0.251 160 156 155 0 0
-2.1491 7.5767 2.0430 -0.323 -0.723 -0.611 161 157 156 0 0
-2.1347 7.5766 2.0424 -0.517 -0.581 -0.629 162 159 157 0 0
-2.0386 7.4248 1.9994 -0.045 -0.570 -0.820 165 163 160 0 0
-1.7636 7.2400 1.9410 0.239 -0.967 -0.083 158 153 155 0 0
-1.7512 7.2434 1.9415 0.042 -0.961 -0.275 167 162 165 0 0
-1.7377 7.2440 1.9411 0.042 -0.961 -0.275 189 184 189 0 0
-1.7245 7.2455 1.9410 0.482 -0.860 -0.165 217 213 219 0 0
-1.6925 7.2684 1.9457 0.791 -0.599 -0.121 234 232 241 0 0
-1.6814 7.2754 1.9471 0.609 -0.785 -0.117 219 217 227 0 0
-1.6700 7.2814 1.9483 0.570 -0.810 -0.141 201 199 211 0 0
-1.6554 7.2794 1.9472 0.171 -0.914 -0.367 189 187 199 0 0
-1.6639 7.5150 2.0087 0.684 -0.695 0.220 182 181 189 0 0
-1.6522 7.5215 2.0099 -0.355 -0.930 -0.098 183 182 190 0 0
-1.6348 7.5132 2.0071 -0.080 -0.965 -0.250 186 184 192 0 0
-1.6177 7.5059 2.0046 0.556 -0.805 -0.205 192 189 197 0 0
-1.6053 7.5107 2.0054 -0.053 -0.956 -0.287 197 193 202 0 0
-1.4804 7.4802 1.9927 -0.792 -0.611 0.015 93 101 109 0 0
-2.1199 9.6727 2.5860 -0.749 -0.604 -0.273 56 87 91 0 0
-2.5040 11.3792 3.0435 -0.150 -0.255 -0.955 56 84 92 0 0
-2.4356 11.6313 3.1063 0.905 -0.259 -0.338 158 148 154 0 0
0.0453 9.4361 2.4430 0.969 -0.211 -0.125 164 159 166 0 0
0.3038 9.2810 2.3930 0.470 -0.882 0.036 192 190 211 0 0
0.3198 9.2896 2.3946 0.470 -0.882 0.036 188 186 207 0 0
0.3364 9.2939 2.3951 0.284 -0.959 0.000 185 184 202 0 0
0.3811 9.3556 2.4094 0.778 -0.614 -0.134 190 187 204 0 0
0.3967 9.3707 2.4128 0.351 -0.936 -0.019 191 187 202 0 0
0.4153 9.3549 2.4080 -0.533 -0.814 0.232 192 188 203 0 0
0.4336 9.3418 2.4039 -0.533 -0.814 0.232 189 185 200 0 0
0.4526 9.3211 2.3978 -0.107 -0.988 0.109 185 181 196 0 0
0.5979 9.4187 2.4177 0.802 -0.568 -0.186 163 162 170 0 0
0.6152 9.4164 2.4164 0.115 -0.990 -0.076 163 160 167 0 0
0.6335 9.4005 2.4116 0.087 -0.923 -0.375 167 162 168 0 0
0.6509 9.3964 2.4099 -0.512 -0.648 -0.564 169 164 168 0 0
0.7126 9.4996 2.4343 -0.203 -0.941 -0.270 177 168 173 0 0
1.0047 9.5232 2.4295 0.731 -0.606 -0.313 252 253 248 0 0
1.2073 9.8403 2.5041 0.987 -0.077 -0.139 198 126 127 0 0
1.2766 10.1374 2.5786 -0.540 -0.804 0.248 207 119 112 0 0
1.2950 10.1129 2.5716 0.316 -0.937 0.150 197 110 103 0 0
1.3681 10.2049 2.5927 0.298 -0.943 -0.150 217 128 119 0 0
1.3865 10.2016 2.5912 0.353 -0.932 -0.080 205 116 113 0 0
1.4048 10.1966 2.5892 0.121 -0.993 0.009 176 92 95 0 0
1.4614 10.3282 2.6212 0.969 -0.240 -0.061 77 41 55 0 0
1.5190 10.4383 2.6476 0.280 -0.930 -0.238 121 114 119 0 0
1.5378 10.4408 2.6476 -0.845 -0.525 -0.100 143 133 135 0 0
1.5571 10.4676 2.6538 -0.822 -0.570 -0.012 155 141 141 0 0
1.6992 10.2370 2.5886 0.057 -0.896 -0.440 251 235 236 0 0
1.7173 10.2292 2.5859 0.106 -0.954 -0.281 254 242 242 0 0
1.7549 10.2527 2.5906 -0.293 -0.939 -0.179 247 227 228 0 0
1.7731 10.2474 2.5885 -0.293 -0.939 -0.179 238 190 196 0 0
2.0746 10.3655 2.6078 -0.337 -0.912 -0.234 162 155 163 0 0
2.2846 10.6532 2.6746 -0.309 -0.910 0.275 61 73 98 0 0
2.3023 10.6389 2.6702 -0.007 -0.957 0.291 65 77 101 0 0
2.3210 10.6361 2.6688 0.113 -0.985 -0.130 68 80 102 0 0
2.3425 10.6633 2.6750 -0.179 -0.965 -0.191 76 84 105 0 0
2.3615 10.6645 2.6746 -0.335 -0.913 -0.231 85 90 110 0 0
2.5159 10.6898 2.6754 -0.508 -0.847 0.157 235 223 228 0 0
2.5493 10.6482 2.6633 0.299 -0.714 0.633 234 225 230 0 0
2.6318 10.7066 2.6754 0.562 -0.793 0.234 234 225 230 0 0
2.6772 10.7674 2.6894 0.638 -0.728 -0.251 235 226 233 0 0
2.6977 10.7783 2.6915 0.168 -0.844 -0.509 235 226 234 0 0
2.9676 11.3372 2.8264 -0.386 -0.870 -0.306 216 207 215 0 0
2.9884 11.3423 2.8270 -0.337 -0.935 -0.108 232 225 232 0 0
3.0320 11.2314 2.7965 0.452 -0.855 -0.253 215 198 205 0 0
3.0751 11.2538 2.8007 0.556 -0.803 -0.215 158 132 140 0 0
3.1743 11.3782 2.8293 0.542 -0.798 -0.265 186 162 171 0 0
3.1958 11.3869 2.8307 0.721 -0.616 -0.316 225 208 216 0 0
3.3108 11.4738 2.8489 0.326 -0.875 -0.358 159 157 168 0 0
3.4434 11.6514 2.8900 0.660 -0.752 -0.003 201 200 213 0 0
3.5154 11.7090 2.9023 0.796 -0.604 -0.053 183 189 207 0 0
3.5400 11.7307 2.9070 0.799 -0.580 -0.160 190 197 215 0 0
3.5673 11.7665 2.9153 0.775 -0.610 -0.167 201 205 222 0 0
3.5929 11.7930 2.9212 0.362 -0.915 -0.180 193 196 212 0 0
3.6138 11.7936 2.9205 0.624 -0.763 -0.169 159 162 181 0 0
3.7069 11.9527 2.9583 0.900 -0.427 -0.089 58 90 134 0 0
3.7199 11.9122 2.9473 -0.241 -0.875 -0.421 54 96 144 0 0
3.7402 11.9092 2.9458 -0.300 -0.909 -0.290 55 104 153 0 0
3.7602 11.9047 2.9439 0.583 -0.772 -0.253 61 114 160 0 0
3.7778 11.8887 2.9390 0.401 -0.855 -0.329 68 121 166 0 0
4.1190 12.1089 2.9833 -0.098 -0.897 0.431 114 135 170 0 0
4.2701 12.3018 3.0277 0.577 -0.741 -0.343 51 84 130 0 0
4.3206 12.3336 3.0341 0.573 -0.794 -0.202 48 74 110 0 0
4.3449 12.3451 3.0362 0.425 -0.882 -0.206 57 77 105 0 0
4.3688 12.3548 3.0378 0.421 -0.907 -0.000 70 84 105 0 0
4.3927 12.3645 3.0394 0.151 -0.985 -0.088 83 92 107 0 0
4.4121 12.3557 3.0364 0.384 -0.916 0.116 94 98 110 0 0
4.4573 12.3644 3.0369 0.472 -0.703 0.532 105 103 114 0 0
4.5255 12.4641 3.0603 -0.812 -0.534 -0.236 111 109 122 0 0
4.5431 12.4480 3.0554 -0.824 -0.456 -0.336 114 112 126 0 0
4.5485 12.3002 3.0168 -0.601 -0.726 -0.335 120 117 132 0 0
4.6106 12.2920 3.0124 0.393 -0.688 0.610 129 127 143 0 0
4.6369 12.3107 3.0162 0.435 -0.663 0.609 132 130 144 0 0
4.6674 12.3451 3.0240 0.395 -0.726 0.563 135 133 148 0 0
4.6996 12.3852 3.0332 0.209 -0.738 0.642 139 136 151 0 0
4.7309 12.4216 3.0415 0.408 -0.789 0.460 141 139 153 0 0
4.7164 12.2881 3.0074 -0.089 -0.967 0.239 142 140 154 0 0
4.7208 12.0720 2.9511 0.219 -0.715 -0.664 145 143 157 0 0
4.7851 12.0025 2.9306 0.196 -0.830 0.522 148 144 158 0 0
4.8370 11.8941 2.9005 -0.837 -0.528 -0.141 150 147 160 0 0
4.8255 11.7836 2.8723 0.733 -0.600 -0.320 150 147 161 0 0
4.8497 11.7966 2.8748 0.604 -0.697 -0.387 151 148 162 0 0
4.8762 11.8171 2.8791 0.268 -0.944 -0.191 152 148 162 0 0
4.8985 11.8232 2.8798 0.268 -0.944 -0.191 149 145 158 0 0
4.9209 11.8294 2.8806 0.268 -0.944 -0.191 140 134 147 0 0
4.9432 11.8356 2.8814 0.268 -0.944 -0.191 116 109 122 0 0
4.9663 11.8439 2.8827 0.230 -0.966 -0.117 79 73 84 0 0
4.9941 11.8681 2.8879 0.392 -0.901 -0.187 49 43 53 0 0
5.0203 11.8865 2.8917 0.578 -0.785 -0.223 39 34 43 0 0
5.0545 11.9311 2.9020 0.672 -0.671 -0.313 38 35 42 0 0
5.3038 9.3263 2.2164 -0.424 -0.426 -0.799 10 17 36 0 0
5.1640 8.9536 2.1249 0.752 -0.621 -0.220 10 17 36 0 0
5.1936 8.9875 2.1326 0.719 -0.652 -0.240 10 18 40 0 0
5.2209 9.0157 2.1389 0.657 -0.712 -0.247 9 20 44 0 0
5.2451 9.0362 2.1433 0.568 -0.773 -0.284 15 34 59 0 0
5.2672 9.0516 2.1464 0.576 -0.786 -0.226 47 79 108 0 0
5.3448 9.1971 2.1813 -0.957 -0.281 0.078 59 112 148 0 0
5.3494 9.1711 2.1744 -0.958 -0.274 0.080 58 129 173 0 0
5.3756 9.0866 2.1514 -0.879 -0.475 0.039 1 122 196 0 0
5.5882 8.9092 2.0974 0.132 -0.826 0.549 1 126 200 0 0
5.6048 8.9122 2.0975 -0.035 -0.786 0.617 2 126 200 0 0
5.6012 8.8721 2.0873 -0.208 -0.850 0.484 3 127 202 0 0
5.6064 8.8510 2.0816 -0.578 -0.805 -0.132 3 128 204 0 0
5.6233 8.8549 2.0820 0.296 -0.922 -0.248 3 128 204 0 0
5.6409 8.8601 2.0826 0.385 -0.892 -0.239 4 128 204 0 0
5.7984 8.9979 2.1125 -0.390 -0.382 -0.838 6 130 204 0 0
5.8020 8.9738 2.1061 -0.856 -0.388 -0.341 6 131 205 0 0
-2.6347 7.0790 1.9189 -0.114 -0.707 -0.698 115 100 92 0 0
-2.5763 7.0469 1.9084 -0.228 -0.873 -0.430 82 80 54 0 0
-2.5615 7.0446 1.9073 -0.085 -0.773 -0.628 88 88 61 0 0
-2.5297 7.0109 1.8973 -0.609 -0.558 -0.564 100 102 79 0 0
-2.5766 7.3089 1.9760 0.934 -0.054 -0.353 49 55 33 0 0
-2.5956 7.3727 1.9931 0.921 -0.041 -0.388 38 46 31 0 0
-2.5970 7.4584 2.0153 -0.533 -0.636 -0.558 67 76 70 0 0
-2.5522 7.4549 2.0127 -0.479 -0.820 -0.312 131 131 117 0 0
-2.5380 7.5702 2.0419 0.336 -0.551 0.764 181 164 157 0 0
-2.5494 7.6819 2.0711 0.701 -0.130 0.701 174 161 146 0 0
-2.3474 7.5968 2.0416 -0.086 -0.949 0.305 120 113 110 0 0
-2.2981 7.6159 2.0446 -0.550 -0.431 -0.716 115 109 114 0 0
-2.2548 7.6486 2.0515 -0.096 -0.820 0.564 139 135 136 0 0
-2.2442 7.6573 2.0533 0.120 -0.741 0.661 146 142 143 0 0
-2.2278 7.6534 2.0517 -0.215 -0.828 0.518 151 147 147 0 0
-2.2137 7.6547 2.0515 -0.343 -0.863 0.372 156 152 151 0 0
-2.1971 7.6502 2.0497 -0.197 -0.940 0.278 158 154 153 0 0
-2.1732 7.6295 2.0435 -0.259 -0.958 0.122 159 155 154 0 0
-1.9949 7.4865 1.9999 -0.497 -0.855 0.148 166 163 157 0 0
-1.7522 7.2447 1.9284 0.128 -0.967 -0.221 160 156 157 0 0
-1.7396 7.2476 1.9287 0.131 -0.951 -0.281 175 171 174 0 0
-1.7257 7.2473 1.9281 0.482 -0.860 -0.165 201 198 202 0 0
-1.7027 7.2587 1.9302 0.734 -0.670 -0.112 240 237 244 0 0
-1.6934 7.2698 1.9327 0.791 -0.599 -0.121 239 236 244 0 0
-1.6692 7.2784 1.9340 0.491 -0.841 -0.227 209 207 218 0 0
-1.6576 7.2838 1.9350 0.171 -0.914 -0.367 193 191 203 0 0
-1.6352 7.2973 1.9376 0.483 -0.862 -0.155 185 184 196 0 0
-1.6543 7.5258 1.9972 0.223 -0.974 -0.047 182 180 188 0 0
-1.6365 7.5166 1.9942 -0.002 -0.955 -0.295 185 182 189 0 0
-1.5156 7.5361 1.9947 -0.852 -0.523 -0.030 149 153 162 0 0
-1.5557 8.0149 2.1196 0.795 -0.453 0.404 53 79 86 0 0
-2.4430 11.6524 3.0908 0.745 -0.196 -0.638 157 148 153 0 0
0.1671 9.0171 2.3133 0.452 -0.532 -0.716 169 161 174 0 0
0.3798 9.3651 2.3951 0.640 -0.604 -0.475 192 190 204 0 0
0.3957 9.3773 2.3976 0.145 -0.936 -0.322 192 188 203 0 0
0.4151 9.3526 2.3905 -0.484 -0.854 0.190 191 187 202 0 0
0.4337 9.3367 2.3857 -0.617 -0.786 0.045 191 184 202 0 0
0.4523 9.3192 2.3805 -0.107 -0.988 0.109 188 181 199 0 0
0.5972 9.4229 2.4018 0.802 -0.568 -0.186 164 161 168 0 0
0.6149 9.4149 2.3991 0.235 -0.970 0.056 166 161 167 0 0
0.6326 9.4071 2.3964 0.200 -0.637 -0.744 167 162 168 0 0
0.6549 9.5787 2.4398 -0.343 -0.903 -0.258 168 161 168 0 0
0.7120 9.5034 2.4182 -0.182 -0.953 -0.243 178 169 174 0 0
0.7302 9.4876 2.4135 -0.232 -0.934 -0.273 195 186 191 0 0
0.9552 9.4549 2.3966 0.016 -0.690 0.724 255 252 253 0 0
0.9717 9.4719 2.4003 0.330 -0.636 0.698 255 250 249 0 0
1.0649 9.8330 2.4899 0.228 -0.737 0.636 255 253 254 0 0
1.2067 9.8537 2.4899 0.990 -0.092 -0.111 208 137 138 0 0
1.2763 10.1271 2.5578 -0.439 -0.785 0.438 224 137 127 0 0
1.2946 10.1053 2.5515 0.087 -0.916 0.391 213 126 117 0 0
1.3861 10.2147 2.5763 0.506 -0.802 -0.319 204 115 117 0 0
1.4045 10.2162 2.5760 0.556 -0.787 -0.270 173 91 97 0 0
1.4611 10.3326 2.6039 0.969 -0.237 -0.072 72 39 51 0 0
1.5187 10.4427 2.6301 0.280 -0.930 -0.238 123 113 121 0 0
1.6988 10.2355 2.5699 0.293 -0.916 -0.273 248 236 239 0 0
1.7171 10.2342 2.5689 0.106 -0.954 -0.281 252 242 243 0 0
1.7728 10.2508 2.5711 -0.293 -0.939 -0.179 239 188 198 0 0
2.0745 10.3700 2.5905 -0.337 -0.912 -0.234 156 149 155 0 0
2.2837 10.6466 2.6539 -0.281 -0.897 0.342 66 78 102 0 0
2.3019 10.6386 2.6512 0.120 -0.979 0.164 64 76 100 0 0
2.3209 10.6385 2.6504 0.113 -0.985 -0.130 65 76 98 0 0
2.3601 10.6532 2.6528 0.097 -0.974 -0.206 69 75 92 0 0
2.3799 10.6615 2.6542 -0.498 -0.841 -0.212 119 121 134 0 0
2.5160 10.6936 2.6573 -0.589 -0.768 0.252 238 227 233 0 0
2.5337 10.6820 2.6537 -0.614 -0.766 0.190 237 226 233 0 0
2.5488 10.6477 2.6442 0.061 -0.896 0.440 237 226 234 0 0
2.5869 10.6498 2.6434 0.061 -0.896 0.440 237 226 234 0 0
2.7061 10.8489 2.6902 0.749 -0.486 -0.450 233 226 233 0 0
2.7425 10.8329 2.6847 -0.680 -0.651 -0.337 228 219 227 0 0
2.7597 10.8174 2.6801 -0.680 -0.651 -0.337 220 211 217 0 0
2.7757 10.7931 2.6732 -0.504 -0.769 -0.392 213 202 208 0 0
2.9682 11.3436 2.8079 -0.435 -0.843 -0.315 217 210 218 0 0
3.0325 11.2371 2.7780 0.452 -0.855 -0.253 216 198 204 0 0
3.0755 11.2591 2.7821 0.556 -0.803 -0.215 156 127 136 0 0
3.1745 11.3815 2.8099 0.637 -0.735 -0.232 185 165 171 0 0
3.1976 11.4003 2.8139 0.637 -0.735 -0.232 226 212 218 0 0
3.4876 11.6713 2.8729 -0.276 -0.959 -0.070 205 203 219 0 0
3.5154 11.7109 2.8820 0.799 -0.600 -0.042 203 207 225 0 0
3.5409 11.7375 2.8880 0.805 -0.582 -0.118 204 209 225 0 0
3.5681 11.7730 2.8961 0.800 -0.574 -0.173 208 211 226 0 0
3.5927 11.7935 2.9005 -0.159 -0.978 -0.134 192 195 211 0 0
3.6143 11.7984 2.9009 0.624 -0.763 -0.169 155 157 179 0 0
3.7078 11.9590 2.9388 0.902 -0.418 -0.109 59 93 137 0 0
3.7206 11.9172 2.9275 -0.341 -0.882 -0.325 54 97 145 0 0
3.7405 11.9123 2.9255 -0.279 -0.875 -0.396 57 106 155 0 0
3.7723 11.8629 2.9116 0.282 -0.804 -0.523 70 121 164 0 0
4.0352 12.1142 2.9665 0.337 -0.850 -0.406 93 133 175 0 0
4.2722 12.3123 3.0087 0.577 -0.741 -0.343 49 82 128 0 0
4.3217 12.3397 3.0139 0.569 -0.795 -0.209 50 74 111 0 0
4.3458 12.3504 3.0157 0.425 -0.882 -0.206 59 77 106 0 0
4.3686 12.3554 3.0162 0.419 -0.908 0.025 71 83 104 0 0
4.3925 12.3650 3.0178 -0.505 -0.860 0.072 83 91 106 0 0
4.4144 12.3667 3.0174 -0.015 -0.998 0.054 94 97 110 0 0
4.4467 12.4102 3.0274 0.445 -0.886 0.133 100 101 111 0 0
4.4708 12.4200 3.0290 0.505 -0.848 0.161 103 102 114 0 0
4.5160 12.5142 3.0516 -0.523 -0.835 -0.172 106 103 117 0 0
4.5875 12.2053 2.9692 0.622 -0.575 0.532 127 125 138 0 0
4.6576 12.3092 2.9934 0.526 -0.616 0.586 134 132 145 0 0
4.7243 12.3981 3.0138 0.249 -0.828 0.503 141 139 152 0 0
4.7541 12.4287 3.0206 0.584 -0.715 0.384 143 141 154 0 0
4.7255 12.0902 2.9344 0.253 -0.768 -0.589 145 143 157 0 0
4.7484 12.0970 2.9353 0.423 -0.810 -0.405 146 144 158 0 0
4.7594 11.9865 2.9064 0.208 -0.856 0.473 148 144 159 0 0
4.7776 11.7606 2.8474 0.653 -0.654 -0.382 149 147 160 0 0
4.8061 11.7884 2.8535 0.686 -0.659 -0.309 149 147 160 0 0
4.8954 12.0249 2.9112 0.800 -0.564 -0.203 149 148 161 0 0
4.8532 11.8094 2.8572 0.604 -0.697 -0.387 152 149 162 0 0
4.8753 11.8150 2.8578 0.425 -0.874 -0.237 152 148 162 0 0
4.8993 11.8267 2.8599 0.407 -0.875 -0.263 148 143 157 0 0
4.9229 11.8372 2.8617 0.407 -0.875 -0.263 135 128 142 0 0
4.9442 11.8399 2.8616 0.268 -0.944 -0.191 107 99 112 0 0
4.9665 11.8457 2.8623 0.176 -0.978 -0.115 70 63 75 0 0
4.9937 11.8678 2.8670 0.510 -0.829 -0.231 44 38 49 0 0
5.0223 11.8942 2.8727 0.611 -0.757 -0.232 38 34 43 0 0
5.0578 11.9428 2.8839 0.672 -0.671 -0.313 37 35 42 0 0
5.0232 11.7635 2.8390 0.292 -0.611 -0.736 37 36 42 0 0
5.3082 9.3371 2.2026 -0.503 -0.431 -0.749 10 17 36 0 0
5.1690 8.9659 2.1122 0.728 -0.638 -0.251 10 17 36 0 0
5.2248 9.0254 2.1254 0.643 -0.714 -0.279 6 20 41 0 0
5.2480 9.0435 2.1292 0.568 -0.773 -0.284 19 39 63 0 0
5.3405 9.2245 2.1724 -0.974 -0.199 0.111 51 85 113 0 0
5.3439 9.1955 2.1648 -0.957 -0.281 0.078 60 116 152 0 0
5.7857 9.1000 2.1236 -0.934 -0.259 0.246 3 129 203 0 0
5.7948 9.0865 2.1198 -0.928 -0.355 -0.112 2 128 202 0 0
5.7983 9.0617 2.1132 -0.922 -0.321 -0.215 3 128 202 0 0
5.8000 9.0014 2.0976 -0.728 -0.418 -0.542 6 130 204 0 0
5.8095 8.9894 2.0941 -0.728 -0.418 -0.542 5 131 205 0 0
-2.6360 7.0806 1.9061 0.508 -0.593 -0.625 126 108 102 0 0
-2.5408 7.0306 1.8897 -0.609 -0.558 -0.564 92 94 71 0 0
-2.5170 7.0115 1.8840 -0.551 -0.603 -0.577 104 109 87 0 0
-2.6006 7.3813 1.9818 0.941 -0.042 -0.336 33 40 23 0 0
-2.6209 7.4482 1.9997 0.852 -0.065 -0.520 36 43 33 0 0
-2.6070 7.4770 2.0065 -0.595 -0.566 -0.571 52 61 56 0 0
-2.5837 7.4877 2.0084 -0.654 -0.674 -0.345 93 98 88 0 0
-2.5229 7.6570 2.0495 0.938 -0.133 0.319 169 157 142 0 0
-2.3642 7.6007 2.0291 -0.093 -0.975 0.203 133 125 118 0 0
-2.3489 7.5990 2.0281 -0.093 -0.975 0.203 121 113 109 0 0
-2.3335 7.5973 2.0271 -0.093 -0.975 0.203 115 109 108 0 0
-2.3201 7.5997 2.0272 -0.378 -0.879 0.290 113 107 108 0 0
-2.2942 7.5754 2.0200 -0.460 -0.886 0.052 114 108 112 0 0
-2.3034 7.6263 2.0334 -0.500 -0.782 0.371 115 110 115 0 0
-2.2811 7.6097 2.0283 -0.500 -0.782 0.371 112 107 111 0 0
-2.2729 7.6235 2.0315 -0.214 -0.720 0.660 111 106 110 0 0
-2.2548 7.6157 2.0289 -0.176 -0.707 0.685 117 113 115 0 0
-2.2448 7.6258 2.0311 0.090 -0.677 0.730 128 124 125 0 0
-2.2369 7.6403 2.0345 0.029 -0.713 0.700 138 134 135 0 0
-2.1945 7.6434 2.0337 -0.080 -0.731 0.677 154 150 149 0 0
-2.1186 7.5711 2.0123 -0.517 -0.823 0.236 161 157 154 0 0
-2.0927 7.5452 2.0047 -0.331 -0.942 0.062 164 161 156 0 0
-2.0146 7.4978 1.9897 -0.048 -0.798 0.601 167 164 159 0 0
-1.7399 7.2474 1.9152 0.355 -0.907 -0.225 165 162 164 0 0
-1.7266 7.2486 1.9151 0.434 -0.866 -0.249 186 183 186 0 0
-1.7160 7.2563 1.9166 0.575 -0.800 -0.172 214 211 216 0 0
-1.7038 7.2603 1.9172 0.645 -0.743 -0.180 236 233 240 0 0
-1.6833 7.2779 1.9209 0.609 -0.785 -0.117 233 230 239 0 0
-1.6707 7.2810 1.9212 0.456 -0.870 -0.188 218 215 225 0 0
-1.6585 7.2852 1.9219 0.446 -0.892 -0.071 199 197 208 0 0
-1.6457 7.2878 1.9221 0.553 -0.828 -0.093 188 188 199 0 0
-1.6363 7.2990 1.9246 0.483 -0.862 -0.155 185 185 197 0 0
-1.6165 7.2838 1.9199 -0.184 -0.977 -0.105 184 184 196 0 0
-1.6423 7.4208 1.9560 0.899 -0.056 0.435 183 182 192 0 0
-1.6563 7.5300 1.9845 -0.197 -0.973 -0.119 182 180 189 0 0
-1.5161 7.5364 1.9809 -0.856 -0.516 -0.043 152 156 165 0 0
-1.4623 7.4670 1.9611 -0.530 -0.847 0.033 57 67 73 0 0
-1.4460 7.4611 1.9590 -0.218 -0.976 0.014 50 63 68 0 0
-2.5666 11.4999 3.0352 -0.100 -0.977 -0.189 50 83 88 0 0
-2.5259 11.4416 3.0188 -0.484 -0.749 -0.452 55 84 89 0 0
-2.4550 11.5529 3.0446 0.624 -0.414 -0.662 152 143 151 0 0
-2.4394 11.5715 3.0488 0.482 -0.578 -0.658 156 145 153 0 0
0.1508 9.0122 2.2963 0.568 -0.303 -0.765 168 161 169 0 0
0.2908 9.2381 2.3489 -0.901 -0.383 0.204 194 192 214 0 0
0.3631 9.3574 2.3768 0.721 -0.437 -0.537 190 187 204 0 0
0.3779 9.3802 2.3820 0.531 -0.660 -0.531 191 189 203 0 0
0.5330 9.3660 2.3726 0.748 -0.649 -0.141 185 180 199 0 0
0.5653 9.3886 2.3772 0.785 -0.619 -0.019 175 172 181 0 0
0.5812 9.4028 2.3802 0.796 -0.603 -0.051 166 163 170 0 0
0.5968 9.4230 2.3848 0.796 -0.603 -0.051 166 161 167 0 0
0.6144 9.4166 2.3825 0.397 -0.916 0.063 167 162 168 0 0
0.6314 9.4181 2.3823 0.300 -0.709 -0.639 169 162 169 0 0
0.7122 9.4943 2.3987 0.089 -0.946 -0.311 178 169 174 0 0
0.7294 9.4947 2.3982 -0.408 -0.876 -0.256 195 186 191 0 0
1.0123 9.7990 2.4655 0.419 -0.619 -0.665 252 252 252 0 0
1.0303 9.7902 2.4626 0.563 -0.812 0.153 255 251 252 0 0
1.1898 9.7712 2.4517 -0.160 -0.946 -0.280 206 162 165 0 0
1.2062 9.8655 2.4753 0.990 -0.096 -0.101 202 132 135 0 0
1.2577 10.1260 2.5401 -0.457 -0.778 0.431 232 145 136 0 0
1.2943 10.0948 2.5307 0.239 -0.809 0.537 213 129 122 0 0
1.3858 10.2216 2.5598 0.487 -0.787 -0.378 189 102 108 0 0
1.4042 10.2217 2.5591 0.556 -0.787 -0.270 165 82 91 0 0
1.4606 10.3260 2.5837 0.976 -0.218 -0.012 70 40 52 0 0
1.5183 10.4459 2.6122 0.192 -0.956 -0.221 120 109 117 0 0
1.6986 10.2405 2.5529 0.293 -0.916 -0.273 249 238 241 0 0
1.7169 10.2392 2.5519 0.106 -0.954 -0.281 251 241 242 0 0
1.7356 10.2471 2.5532 0.432 -0.859 -0.274 252 238 238 0 0
1.7726 10.2552 2.5539 -0.452 -0.870 -0.200 238 186 196 0 0
1.8893 10.3788 2.5811 0.672 -0.683 -0.288 243 128 143 0 0
1.9475 10.4215 2.5899 0.755 -0.606 -0.250 243 137 161 0 0
2.0744 10.3739 2.5729 -0.366 -0.873 -0.322 150 143 147 0 0
2.2818 10.6287 2.6304 -0.373 -0.910 -0.182 76 86 111 0 0
